ply
format ascii 1.0
element vertex 1559
property float32 x
property float32 y
property float32 z
property float32 I
end_header
8.3078 14.3896 1.7842 0.9353
10.6705 36.8391 4.1185 0.8570
5.7669 23.3971 2.5876 0.9076
4.5611 22.3415 2.4486 0.9123
1.9384 24.0118 2.5868 0.9076
0.9642 23.9283 2.5716 0.9082
-0.0000 16.0941 1.7282 0.9373
-1.2883 15.9578 1.7192 0.9376
-6.0680 14.2421 1.6624 0.9396
-6.0998 12.8550 1.5279 0.9444
-14.8547 23.4908 2.9845 0.8942
-16.8681 22.4474 3.0151 0.8932
-15.7066 17.7290 2.5434 0.9091
-32.9792 31.6770 4.9104 0.8320
-16.5508 11.4242 2.1595 0.9223
-16.0694 10.1616 2.0416 0.9264
-16.4936 9.5225 2.0451 0.9262
-27.7157 13.1512 3.2942 0.8839
-29.7917 11.2985 3.4214 0.8797
-30.8648 10.3042 3.4941 0.8773
-32.2007 9.3271 3.5999 0.8738
-22.5575 4.6051 2.4722 0.9115
-22.7184 -17.0718 2.4056 0.8922
-21.0839 -18.6788 2.3845 0.8931
-20.1998 -19.4022 2.3710 0.8937
-19.1572 -23.4633 2.5642 0.8855
-13.2435 -25.2334 2.4124 0.8919
-9.8189 -20.6930 1.9389 0.9122
-9.1524 -24.1328 2.1849 0.9016
-8.2233 -24.6317 2.1983 0.9010
-7.5879 -26.1963 2.3087 0.8963
-10.9390 -44.3811 3.8694 0.8324
-1.1390 -28.2617 2.3944 0.8927
3.1447 -38.9538 3.3083 0.8548
1.8376 -15.1343 1.2906 0.9406
4.0831 -25.1245 2.1548 0.9029
6.2063 -25.1800 2.1953 0.9011
6.8639 -23.6971 2.0885 0.9057
9.6988 -20.4397 1.9152 0.9132
10.2721 -19.5718 1.8711 0.9151
17.5064 -19.7607 2.2348 0.8994
18.8714 -19.6472 2.3061 0.8964
30.9513 -14.6865 2.9001 0.8715
31.8323 6.4986 2.7503 0.8777
19.0753 8.1273 1.7552 0.9201
30.3665 17.5321 2.9683 0.8687
23.7056 14.9905 2.3743 0.8935
27.0842 18.6949 2.7859 0.8762
19.4439 15.8755 2.1249 0.9041
22.7321 21.8344 2.6682 0.8811
21.2531 23.9898 2.7131 0.8793
10.3150 13.7268 1.4535 0.9334
10.1469 14.7005 1.5121 0.9308
7.6732 14.6200 1.3977 0.9359
6.1420 14.4157 1.3265 0.9390
10.0631 30.1426 2.6901 0.8802
6.2695 25.4363 2.2177 0.9002
5.1345 25.1502 2.1729 0.9021
-0.0000 16.6309 1.4079 0.9354
-0.6412 15.9115 1.3480 0.9381
-1.3085 16.2090 1.3766 0.9368
-7.7036 47.4017 4.0653 0.8247
-5.1525 25.2388 2.1806 0.9018
-6.2875 25.5094 2.2241 0.8999
-5.0747 15.2006 1.3566 0.9377
-5.5026 14.5092 1.3136 0.9396
-6.8553 14.4472 1.3537 0.9378
-7.7606 14.7866 1.4136 0.9352
-8.8244 13.9547 1.3977 0.9359
-14.6821 19.5383 2.0689 0.9065
-15.8772 17.9216 2.0268 0.9084
-34.6662 26.0499 3.6708 0.8402
-16.3612 11.2933 1.6829 0.9233
-17.3586 10.0220 1.6968 0.9227
-17.8760 9.3820 1.7090 0.9222
-28.9066 13.7163 2.7085 0.8795
-29.1836 12.4340 2.6854 0.8804
-27.9236 10.5900 2.5281 0.8870
-32.4306 9.3936 2.8582 0.8732
-22.5534 4.6043 1.9486 0.9117
-25.3224 -19.0285 1.9642 0.8808
-10.6067 -20.2094 1.4153 0.9126
-5.2348 -25.6415 1.6228 0.9004
-0.0001 -28.6599 1.7772 0.8915
1.1966 -29.6957 1.8429 0.8877
3.1447 -38.9538 2.4234 0.8550
4.9696 -24.3425 1.5406 0.9052
6.8639 -23.6971 1.5299 0.9059
7.9218 -23.7288 1.5513 0.9046
8.4345 -22.2400 1.4750 0.9091
9.1494 -21.4745 1.4475 0.9107
9.9668 -21.0047 1.4417 0.9110
10.2721 -19.5718 1.3707 0.9152
11.3155 -19.5990 1.4034 0.9133
11.9265 -18.8603 1.3838 0.9145
31.8323 6.4986 2.0147 0.8779
20.0630 8.5481 1.3523 0.9163
21.3469 14.7347 1.6085 0.9013
20.9783 15.7641 1.6272 0.9002
20.6359 16.8487 1.6520 0.8987
12.4081 15.1973 1.2166 0.9244
9.2107 14.5655 1.0686 0.9333
8.7273 15.1162 1.0824 0.9324
8.1585 15.5447 1.0886 0.9321
8.9022 18.7610 1.2877 0.9201
12.0250 28.2238 1.9024 0.8843
9.9750 29.8788 1.9533 0.8814
10.6687 36.8328 2.3779 0.8575
3.9338 24.2056 1.5207 0.9064
2.9221 24.0655 1.5033 0.9074
0.6975 17.3096 1.0742 0.9329
0.0000 16.4904 1.0226 0.9360
-0.6484 16.0885 0.9985 0.9375
-1.3095 16.2207 1.0091 0.9369
-1.8764 15.4536 0.9653 0.9395
-2.5254 15.5393 0.9762 0.9389
-5.3312 26.1141 1.6527 0.8987
-3.9870 16.1759 1.0331 0.9354
-4.3380 14.9765 0.9669 0.9394
-5.5438 14.6179 0.9695 0.9393
-6.7041 14.1285 0.9697 0.9392
-7.5335 13.0484 0.9343 0.9414
-14.4448 17.6916 1.4163 0.9125
-16.5805 15.9258 1.4256 0.9120
-34.4251 28.1071 2.7559 0.8369
-29.8267 12.7079 2.0104 0.8782
-28.1509 10.6762 1.8670 0.8863
-32.8637 10.9715 2.1485 0.8704
-30.8992 8.9501 1.9948 0.8790
-31.3375 -19.8166 1.4620 0.8621
-29.2828 -20.2124 1.4030 0.8672
-29.4138 -22.1030 1.4508 0.8630
-23.5453 -20.8593 1.2403 0.8817
-20.9356 -20.1090 1.1446 0.8903
-20.7630 -23.4366 1.2346 0.8822
-9.8189 -20.6930 0.9031 0.9124
-8.9692 -36.3892 1.4778 0.8607
-6.0477 -29.6234 1.1922 0.8860
-7.1322 -43.8860 1.7532 0.8370
2.3248 -28.7984 1.1392 0.8908
6.9174 -23.8815 0.9804 0.9053
7.9247 -23.7374 0.9868 0.9047
9.2029 -19.3948 0.8465 0.9177
12.4107 -19.6259 0.9156 0.9112
13.5676 -19.6561 0.9418 0.9088
16.1028 -19.7223 1.0040 0.9031
31.8323 6.4986 1.2809 0.8780
20.2726 5.8721 0.8322 0.9190
20.2636 6.7650 0.8424 0.9180
28.0005 17.7065 1.3063 0.8758
21.2465 15.9657 1.0479 0.8991
20.3279 16.5972 1.0348 0.9003
10.4264 12.7701 0.6501 0.9361
9.3569 13.5558 0.6495 0.9362
8.4979 13.4384 0.6269 0.9383
7.1541 15.0769 0.6580 0.9354
8.4442 22.2656 0.9390 0.9091
6.1556 24.9740 1.0142 0.9022
3.6222 22.2885 0.8904 0.9136
1.8553 22.9813 0.9091 0.9118
-0.0000 15.7690 0.6218 0.9388
-7.8796 31.9689 1.2983 0.8765
-9.1265 31.5083 1.2935 0.8769
-4.6752 14.0041 0.5822 0.9426
-5.3128 14.0085 0.5908 0.9418
-5.8861 13.8151 0.5921 0.9417
-6.7995 12.9554 0.5769 0.9431
-7.1351 12.3583 0.5627 0.9445
-13.5060 21.3579 0.9964 0.9038
-14.1672 20.5246 0.9834 0.9050
-18.9944 25.2769 1.2467 0.8811
-16.0487 18.1152 0.9543 0.9077
-34.1737 30.2753 1.8002 0.8330
-17.0772 12.8326 0.8423 0.9180
-15.7083 10.8426 0.7526 0.9264
-16.7922 8.8132 0.7478 0.9269
-29.7829 11.2951 1.2560 0.8803
-22.5452 4.6026 0.9073 0.9120
-37.5606 -17.8227 0.7023 0.8468
-34.2199 -17.9600 0.6528 0.8568
-31.2423 -18.0377 0.6094 0.8656
-28.6322 -18.1059 0.5722 0.8733
-26.8848 -18.5573 0.5518 0.8775
-26.9286 -20.2355 0.5690 0.8739
-26.9754 -22.0247 0.5883 0.8700
-32.6784 -36.8863 0.8324 0.8211
-30.1702 -36.9518 0.8058 0.8263
-9.8189 -20.6930 0.3869 0.9124
-3.6481 -22.4475 0.3842 0.9130
-2.2104 -27.3794 0.4640 0.8959
-1.1175 -27.7294 0.4688 0.8949
1.1219 -27.8407 0.4707 0.8945
3.5465 -29.2079 0.4970 0.8890
6.2087 -25.1896 0.4382 0.9014
9.2029 -19.3948 0.3626 0.9177
11.0680 -21.0883 0.4023 0.9091
12.4107 -19.6259 0.3922 0.9113
13.5676 -19.6561 0.4034 0.9089
18.8714 -19.6472 0.4602 0.8967
31.9295 16.7579 0.6091 0.8657
30.1684 17.4178 0.5884 0.8699
21.8045 13.7883 0.4358 0.9019
21.0789 14.5497 0.4326 0.9026
20.5501 16.7787 0.4481 0.8993
18.9611 18.2124 0.4441 0.9002
13.0190 14.6955 0.3316 0.9245
12.0776 14.7924 0.3226 0.9264
9.3459 12.4372 0.2628 0.9397
10.4825 15.1866 0.3117 0.9288
8.8137 13.9377 0.2786 0.9362
10.1576 30.4256 0.5418 0.8796
5.6610 22.9673 0.3996 0.9097
4.7781 23.4045 0.4035 0.9089
3.7323 22.9655 0.3930 0.9111
2.7291 22.4758 0.3824 0.9134
1.4619 18.1086 0.3069 0.9299
0.7054 17.5043 0.2959 0.9323
-0.0000 16.5179 0.2790 0.9361
-1.1770 14.5793 0.2471 0.9432
-1.9794 16.3014 0.2774 0.9364
-2.6104 16.0625 0.2749 0.9370
-9.0084 44.1258 0.7607 0.8351
-12.5106 43.1915 0.7596 0.8354
-5.3546 14.1188 0.2551 0.9414
-6.8268 14.3872 0.2690 0.9383
-14.1136 18.7818 0.3968 0.9103
-14.7533 18.0695 0.3940 0.9109
-29.4299 30.6397 0.7176 0.8437
-35.0148 31.0204 0.7902 0.8293
-16.8387 12.6535 0.3558 0.9192
-16.0886 10.1737 0.3215 0.9267
-16.2834 9.4012 0.3176 0.9275
-33.8586 14.4258 0.6217 0.8631
-33.6611 8.2967 0.5856 0.8705
-22.5424 4.6021 0.3886 0.9121
-46.5107 -17.6391 -0.2801 0.8196
-41.6957 -17.7648 -0.2552 0.8342
-37.6606 -17.8702 -0.2347 0.8464
-34.2199 -17.9600 -0.2176 0.8568
-31.2422 -18.0377 -0.2031 0.8656
-26.8848 -18.5573 -0.1839 0.8775
-26.9286 -20.2355 -0.1896 0.8739
-26.9754 -22.0247 -0.1961 0.8700
-32.7702 -36.9899 -0.2782 0.8206
-30.2549 -37.0555 -0.2693 0.8258
-27.4381 -39.7509 -0.2719 0.8243
-9.8189 -20.6930 -0.1290 0.9125
-3.5018 -21.5476 -0.1229 0.9164
-2.5791 -21.2406 -0.1205 0.9180
-0.8925 -22.1464 -0.1248 0.9152
-0.0001 -28.8594 -0.1625 0.8910
1.1783 -29.2403 -0.1648 0.8895
2.3986 -29.7123 -0.1678 0.8876
3.7873 -31.1911 -0.1769 0.8819
8.4621 -22.3126 -0.1344 0.9090
8.6671 -20.3425 -0.1245 0.9153
9.2029 -19.3948 -0.1209 0.9177
11.7166 -20.2937 -0.1319 0.9105
12.9188 -20.4294 -0.1361 0.9078
13.8368 -20.0460 -0.1371 0.9072
15.4003 -20.4942 -0.1443 0.9025
31.8323 6.4986 -0.1830 0.8781
21.8717 15.0969 -0.1496 0.8991
20.0738 19.2812 -0.1567 0.8946
11.6125 14.2228 -0.1034 0.9292
10.9192 14.5308 -0.1023 0.9299
10.0630 14.5788 -0.0997 0.9316
9.3913 14.8512 -0.0989 0.9321
8.5886 14.8759 -0.0967 0.9336
12.2029 25.7173 -0.1603 0.8924
10.5567 24.7777 -0.1516 0.8979
9.9494 29.8020 -0.1769 0.8819
6.1507 24.9542 -0.1447 0.9023
4.4765 21.9270 -0.1260 0.9144
3.7314 22.9602 -0.1310 0.9112
2.0141 16.5879 -0.0941 0.9353
1.3596 16.8424 -0.0951 0.9346
0.6480 16.0806 -0.0906 0.9377
-1.9243 15.8482 -0.0899 0.9381
-2.7863 17.1448 -0.0978 0.9329
-4.0495 16.4293 -0.0953 0.9346
-4.0800 14.0858 -0.0826 0.9430
-16.9416 24.5442 -0.1679 0.8875
-23.6216 26.6633 -0.2006 0.8672
-29.2282 30.4297 -0.2376 0.8447
-32.1582 30.8884 -0.2510 0.8366
-16.4753 11.3721 -0.1127 0.9230
-16.3843 8.5991 -0.1042 0.9287
-32.1986 13.7185 -0.1971 0.8694
-32.1615 12.1973 -0.1937 0.8715
-33.3768 11.1428 -0.1981 0.8687
-32.1663 9.3171 -0.1885 0.8746
-34.1567 8.4189 -0.1981 0.8687
-46.5106 -17.6391 -1.4007 0.8195
-41.6957 -17.7648 -1.2762 0.8341
-28.6322 -18.1059 -0.9539 0.8732
-26.8848 -18.5573 -0.9198 0.8775
-26.9286 -20.2355 -0.9485 0.8739
-23.5236 -20.8401 -0.8849 0.8818
-32.7702 -36.9899 -1.3915 0.8206
-30.2549 -37.0556 -1.3470 0.8258
-27.3506 -36.3970 -1.2820 0.8334
-27.4381 -39.7510 -1.3600 0.8243
-9.8189 -20.6930 -0.6449 0.9124
-6.4483 -17.0027 -0.5120 0.9298
-5.7802 -17.3138 -0.5140 0.9296
-3.4959 -17.1238 -0.4921 0.9325
-2.7883 -17.1568 -0.4894 0.9328
-2.1612 -17.7995 -0.5049 0.9308
-0.6917 -17.1650 -0.4837 0.9336
-0.0000 -17.5500 -0.4942 0.9322
0.7041 -17.4728 -0.4924 0.9324
4.2500 -17.2425 -0.5000 0.9314
5.8197 -17.4322 -0.5175 0.9291
8.3985 -17.6994 -0.5516 0.9246
9.4684 -18.0405 -0.5737 0.9217
11.7168 -20.2941 -0.6598 0.9105
12.9187 -20.4294 -0.6806 0.9078
13.8368 -20.0460 -0.6859 0.9071
15.4003 -20.4942 -0.7218 0.9025
16.1028 -19.7223 -0.7169 0.9031
18.4886 -20.8693 -0.7851 0.8944
23.1655 -17.4077 -0.8159 0.8905
25.3596 -17.5045 -0.8677 0.8840
11.2430 12.6908 -0.4774 0.9344
9.5842 13.8851 -0.4751 0.9347
7.4856 12.9655 -0.4216 0.9419
12.7006 24.1990 -0.7695 0.8964
10.7740 25.2877 -0.7740 0.8958
11.8807 31.3267 -0.9434 0.8745
5.9144 23.9958 -0.6959 0.9058
2.1920 18.0527 -0.5121 0.9298
-0.0000 15.5112 -0.4368 0.9398
-0.6487 16.0958 -0.4536 0.9376
-1.1983 14.8428 -0.4193 0.9422
-1.7693 14.5713 -0.4133 0.9430
-2.6347 16.2117 -0.4625 0.9364
-3.7509 15.2179 -0.4413 0.9392
-4.3909 15.1592 -0.4444 0.9388
-4.9837 13.1409 -0.3957 0.9453
-6.7004 15.7264 -0.4813 0.9339
-6.7497 14.2248 -0.4433 0.9389
-7.8055 13.5195 -0.4396 0.9394
-21.2561 28.2868 -0.9963 0.8680
-24.6996 25.7149 -1.0040 0.8670
-31.8525 30.5947 -1.2436 0.8380
-16.9629 11.7086 -0.5804 0.9208
-15.6448 9.0325 -0.5087 0.9303
-16.9212 8.8809 -0.5381 0.9264
-31.4404 9.1068 -0.9217 0.8772
-22.5384 4.6012 -0.6477 0.9121
-49.2958 0.0000 -2.5000 0.8208
-49.2558 -1.9850 -2.5000 0.8208
-49.1360 -3.9667 -2.5000 0.8208
-48.9363 -5.9420 -2.5000 0.8208
-48.6574 -7.9075 -2.5000 0.8208
-47.8633 -11.7973 -2.5000 0.8208
-43.3003 -16.4216 -2.3486 0.8307
-42.4615 -18.0911 -2.3407 0.8312
-37.5463 -17.8159 -2.1076 0.8467
-34.2199 -17.9600 -1.9599 0.8566
-28.6322 -18.1059 -1.7180 0.8731
-26.9754 -22.0247 -1.7661 0.8698
-30.3858 -34.2985 -2.3238 0.8323
-24.3739 -38.5442 -2.3128 0.8331
-12.8603 -22.2746 -1.3044 0.9021
-9.8189 -20.6930 -1.1616 0.9123
-19.0239 -44.6508 -2.4614 0.8233
-6.4080 -16.8965 -0.9165 0.9302
-5.7255 -17.1499 -0.9169 0.9301
-4.9297 -17.0191 -0.8986 0.9315
-3.5011 -17.1491 -0.8876 0.9323
-2.7626 -16.9991 -0.8734 0.9333
-1.3610 -16.8586 -0.8578 0.9345
0.6939 -17.2187 -0.8739 0.9333
1.4015 -17.3607 -0.8833 0.9326
2.1003 -17.2977 -0.8837 0.9326
5.7861 -17.3316 -0.9266 0.9294
12.9188 -20.4294 -1.2258 0.9077
13.8368 -20.0460 -1.2353 0.9071
15.4003 -20.4942 -1.3001 0.9024
18.5176 -20.9020 -1.4162 0.8942
23.1748 -24.1275 -1.6966 0.8746
19.6513 -17.4096 -1.3314 0.9002
23.1688 -17.4102 -1.4698 0.8904
28.0193 -17.7183 -1.6813 0.8757
42.6914 -24.6479 -2.5000 0.8208
43.6492 -22.9089 -2.5000 0.8208
45.3511 -19.3223 -2.5000 0.8208
47.3492 -13.7149 -2.5000 0.8208
48.6572 -7.9076 -2.5000 0.8208
49.1357 -3.9666 -2.5000 0.8208
49.1358 3.9667 -2.5000 0.8208
48.9363 5.9420 -2.5000 0.8208
48.6574 7.9076 -2.5000 0.8208
32.1361 7.9208 -1.6786 0.8758
32.1669 9.3172 -1.6984 0.8745
32.2223 10.7574 -1.7228 0.8728
32.3062 15.3295 -1.8137 0.8666
43.6492 22.9088 -2.5000 0.8208
42.6914 24.6479 -2.5000 0.8208
41.6643 26.3469 -2.5000 0.8208
23.3714 22.4485 -1.6435 0.8783
22.2515 23.1663 -1.6290 0.8793
21.2766 24.0163 -1.6272 0.8794
20.4274 25.0190 -1.6380 0.8787
9.6808 15.3089 -0.9186 0.9300
13.8042 23.9097 -1.4001 0.8953
11.5889 24.4233 -1.3710 0.8974
9.9404 26.2108 -1.4216 0.8938
14.8702 44.5416 -2.3815 0.8286
13.0843 45.1721 -2.3850 0.8283
1.3626 16.8793 -0.8588 0.9344
0.6762 16.7803 -0.8517 0.9350
-0.0000 16.3425 -0.8288 0.9366
-0.6461 16.0323 -0.8137 0.9378
-1.2766 15.8138 -0.8046 0.9384
-2.0184 16.6233 -0.8492 0.9351
-3.2184 19.8032 -1.0175 0.9228
-9.5829 46.9402 -2.4296 0.8254
-13.3690 46.1551 -2.4369 0.8249
-15.2391 45.6464 -2.4405 0.8247
-17.0894 45.0610 -2.4441 0.8245
-6.6989 15.7228 -0.8667 0.9338
-20.7183 43.6627 -2.4510 0.8240
-22.4903 42.8517 -2.4543 0.8238
-16.9316 24.5296 -1.5116 0.8875
-30.7588 37.6726 -2.4665 0.8230
-36.0937 31.9762 -2.4455 0.8244
-15.9653 13.0352 -1.0453 0.9208
-15.9985 10.1168 -0.9600 0.9270
-42.0389 22.0637 -2.4078 0.8268
-17.5222 8.3143 -0.9836 0.9253
-34.3474 11.4669 -1.8364 0.8650
-44.6636 12.9369 -2.3582 0.8301
-22.5363 4.6008 -1.1665 0.9120
-45.9531 5.5797 -2.3476 0.8308
-34.0959 0.0000 -2.5000 0.8722
-34.0683 -1.3729 -2.5000 0.8722
-33.8473 -4.1098 -2.5000 0.8722
-32.7497 -9.4861 -2.5000 0.8722
-31.8802 -12.0906 -2.5000 0.8722
-31.0202 -13.2165 -2.4723 0.8735
-28.9270 -13.7261 -2.3477 0.8795
-28.3540 -14.8814 -2.3479 0.8795
-26.8602 -15.5078 -2.2741 0.8830
-26.0139 -17.9561 -2.3177 0.8809
-25.2466 -18.9715 -2.3155 0.8810
-23.5091 -20.8272 -2.3029 0.8816
-21.2309 -26.0032 -2.4614 0.8740
-11.7330 -22.3554 -1.8512 0.9037
-4.9205 -16.9874 -1.2968 0.9315
-4.2155 -17.1027 -1.2915 0.9318
-3.4839 -17.0650 -1.2771 0.9325
-2.7540 -16.9460 -1.2588 0.9335
-2.1114 -17.3892 -1.2844 0.9322
0.6921 -17.1746 -1.2603 0.9334
1.3999 -17.3406 -1.2756 0.9326
3.5624 -17.4493 -1.3058 0.9311
4.2269 -17.1488 -1.2950 0.9316
5.0313 -17.3702 -1.3260 0.9300
6.5801 -17.3504 -1.3606 0.9283
8.3048 -17.5020 -1.4204 0.9252
12.9188 -20.4294 -1.7723 0.9076
13.8368 -20.0460 -1.7860 0.9069
18.5176 -20.9020 -2.0475 0.8940
19.6356 -17.3956 -1.9235 0.9001
27.0608 -17.1122 -2.3476 0.8795
28.3500 -14.8792 -2.3476 0.8795
28.9262 -13.7256 -2.3476 0.8795
31.3675 -13.3644 -2.5000 0.8722
31.8802 -12.0906 -2.5000 0.8722
32.3412 -10.7971 -2.5000 0.8722
32.7497 -9.4861 -2.5000 0.8722
33.1052 -8.1597 -2.5000 0.8722
33.4069 -6.8201 -2.5000 0.8722
33.9854 -2.7436 -2.5000 0.8722
25.0205 -0.0000 -1.8346 0.9045
24.6621 5.0348 -1.8455 0.9040
20.3425 5.0140 -1.5362 0.9194
30.3875 10.1448 -2.3490 0.8794
29.9410 11.3551 -2.3479 0.8795
29.4651 12.5539 -2.3484 0.8795
27.7818 16.0398 -2.3521 0.8793
27.1299 17.1559 -2.3536 0.8792
26.4341 18.2462 -2.3551 0.8791
25.6954 19.3088 -2.3567 0.8791
21.3961 24.1512 -2.3658 0.8786
19.4171 25.8394 -2.3699 0.8784
11.4287 16.5574 -1.4751 0.9225
9.6784 15.3051 -1.3278 0.9299
13.7379 23.7949 -2.0146 0.8957
9.0723 31.3210 -2.3909 0.8774
6.5363 32.0171 -2.3960 0.8772
3.9473 32.5088 -2.4011 0.8769
2.6379 32.6765 -2.4037 0.8768
1.3215 32.7915 -2.4063 0.8767
-2.6493 32.8174 -2.4141 0.8763
-7.9126 32.1025 -2.4243 0.8758
-6.6973 15.7192 -1.2528 0.9338
-14.2447 30.0200 -2.4364 0.8752
-15.4431 29.4243 -2.4365 0.8752
-16.5987 28.7498 -2.4341 0.8753
-22.8261 23.7645 -2.4161 0.8762
-23.7292 22.7922 -2.4125 0.8764
-26.8999 18.5677 -2.3966 0.8771
-27.5770 17.4386 -2.3924 0.8773
-28.2058 16.2846 -2.3880 0.8775
-28.7855 15.1078 -2.3836 0.8778
-29.3154 13.9103 -2.3792 0.8780
-29.7948 12.6944 -2.3746 0.8782
-20.6884 5.0993 -1.5623 0.9181
-31.6182 5.1385 -2.3487 0.8794
-31.7917 3.8602 -2.3482 0.8795
-33.1969 2.6799 -2.4420 0.8750
-34.0683 1.3729 -2.5000 0.8722
-25.7030 -4.1771 -2.5000 0.9006
-25.5139 -5.2087 -2.5000 0.9006
-25.2835 -6.2318 -2.5000 0.9006
-25.0120 -7.2448 -2.5000 0.9006
-24.7000 -8.2461 -2.5000 0.9006
-23.5260 -11.1632 -2.5000 0.9006
-23.0574 -12.1015 -2.5000 0.9006
-22.5515 -13.0201 -2.5000 0.9006
-21.8802 -13.8363 -2.4854 0.9012
-20.5096 -15.4120 -2.4630 0.9020
-19.8691 -16.2226 -2.4626 0.9021
-17.0013 -19.1905 -2.4614 0.9021
-15.4020 -20.4963 -2.4614 0.9021
-13.7027 -21.6691 -2.4614 0.9021
-12.8191 -22.2033 -2.4614 0.9021
-11.8791 -22.6338 -2.4541 0.9024
-9.4396 -22.1555 -2.3120 0.9078
-2.7672 -17.0272 -1.6561 0.9330
-2.1177 -17.4405 -1.6867 0.9318
0.6908 -17.1434 -1.6472 0.9334
2.1041 -17.3288 -1.6759 0.9323
2.7919 -17.1790 -1.6709 0.9325
4.2296 -17.1602 -1.6968 0.9314
5.7838 -17.3247 -1.7535 0.9292
11.7209 -20.3013 -2.2505 0.9101
13.5676 -19.6561 -2.2930 0.9085
15.4818 -18.9617 -2.3501 0.9063
16.2354 -18.3260 -2.3505 0.9063
17.6354 -16.9390 -2.3476 0.9064
18.3031 -16.2152 -2.3476 0.9064
18.9412 -15.4650 -2.3476 0.9064
19.5486 -14.6898 -2.3476 0.9064
20.1242 -13.8908 -2.3476 0.9064
22.5514 -13.0201 -2.5000 0.9006
23.0574 -12.1015 -2.5000 0.9006
23.9564 -10.2069 -2.5000 0.9006
25.0120 -7.2448 -2.5000 0.9006
25.2835 -6.2318 -2.5000 0.9006
25.7029 -4.1771 -2.5000 0.9006
25.8503 -3.1388 -2.5000 0.9006
26.0190 -1.0485 -2.5000 0.9006
26.0401 -0.0000 -2.5000 0.9006
26.0190 1.0485 -2.5000 0.9006
25.9557 2.0954 -2.5000 0.9006
20.3425 5.0140 -2.0114 0.9193
17.3004 5.0111 -1.7292 0.9302
22.9893 8.7187 -2.3605 0.9059
22.6277 9.6407 -2.3613 0.9059
21.7959 11.4394 -2.3632 0.9058
20.8236 13.1681 -2.3654 0.9057
20.2866 14.0028 -2.3665 0.9057
19.1144 15.6064 -2.3690 0.9056
18.4809 16.3727 -2.3704 0.9055
9.6760 15.3013 -1.7381 0.9298
11.5437 21.9947 -2.3848 0.9050
9.7513 22.8871 -2.3884 0.9049
8.8287 23.2793 -2.3903 0.9048
6.9379 23.9522 -2.3941 0.9047
5.9726 24.2317 -2.3960 0.9046
4.0099 24.6738 -2.3999 0.9044
-1.0107 25.0801 -2.4098 0.9041
-2.0214 25.0395 -2.4117 0.9040
-3.0305 24.9581 -2.4137 0.9039
-4.0363 24.8359 -2.4157 0.9038
-7.0059 24.1873 -2.4176 0.9038
-8.9206 23.5217 -2.4151 0.9039
-6.6958 15.7156 -1.6400 0.9337
-11.6682 22.2319 -2.4105 0.9040
-12.5444 21.7275 -2.4086 0.9041
-14.2282 20.6131 -2.4046 0.9043
-15.8110 19.3649 -2.4001 0.9044
-16.5611 18.6936 -2.3977 0.9045
-17.2821 17.9925 -2.3951 0.9046
-17.9725 17.2628 -2.3925 0.9047
-20.4065 14.0856 -2.3805 0.9052
-21.4157 12.3643 -2.3741 0.9054
-21.8655 11.4759 -2.3708 0.9055
-22.2781 10.5711 -2.3674 0.9057
-15.0573 5.0269 -1.5242 0.9382
-20.6884 5.0993 -2.0456 0.9179
-22.4140 4.5758 -2.1962 0.9122
-21.0461 -0.0000 -2.5000 0.9187
-20.9779 -1.6935 -2.5000 0.9187
-20.6208 -4.2098 -2.5000 0.9187
-19.9630 -6.6646 -2.5000 0.9187
-19.6785 -7.4631 -2.5000 0.9187
-19.3620 -8.2494 -2.5000 0.9187
-19.0142 -9.0223 -2.5000 0.9187
-17.7880 -11.2484 -2.5000 0.9187
-16.8252 -12.6433 -2.5000 0.9187
-16.2984 -13.3072 -2.4994 0.9187
-15.6896 -13.8998 -2.4899 0.9190
-14.4122 -15.0046 -2.4713 0.9196
-13.7634 -15.5357 -2.4655 0.9198
-13.1263 -16.0768 -2.4654 0.9198
-12.4489 -16.5665 -2.4615 0.9199
-9.7192 -16.8340 -2.3090 0.9247
-8.3331 -17.5615 -2.3090 0.9247
-7.6368 -17.9241 -2.3143 0.9245
-6.4460 -16.9966 -2.1593 0.9294
-4.2314 -17.1673 -2.1003 0.9313
-3.5001 -17.1444 -2.0785 0.9319
-2.7733 -17.0650 -2.0537 0.9327
-1.3673 -16.9362 -2.0183 0.9338
-0.0000 -17.3934 -2.0661 0.9323
1.4010 -17.3549 -2.0682 0.9323
4.2654 -17.3051 -2.1171 0.9307
5.7665 -17.2727 -2.1631 0.9293
6.6396 -17.5073 -2.2242 0.9274
9.8816 -17.1154 -2.3476 0.9235
10.5627 -16.7036 -2.3476 0.9235
11.8725 -15.7995 -2.3476 0.9235
13.1054 -14.7929 -2.3476 0.9235
13.6904 -14.2532 -2.3476 0.9235
14.2532 -13.6904 -2.3476 0.9235
14.9096 -13.2087 -2.3661 0.9229
16.8252 -12.6433 -2.5000 0.9187
17.3206 -11.9556 -2.5000 0.9187
18.2265 -10.5231 -2.5000 0.9187
18.6354 -9.7806 -2.5000 0.9187
19.9630 -6.6646 -2.5000 0.9187
20.4346 -5.0367 -2.5000 0.9187
20.6208 -4.2098 -2.5000 0.9187
20.7735 -3.3760 -2.5000 0.9187
20.8927 -2.5368 -2.5000 0.9187
21.0461 -0.0000 -2.5000 0.9187
20.9779 1.6935 -2.5000 0.9187
20.8927 2.5368 -2.5000 0.9187
19.5072 3.1702 -2.3476 0.9235
19.1889 4.7296 -2.3476 0.9235
17.6169 9.2461 -2.3634 0.9230
17.2492 9.9588 -2.3659 0.9229
15.9729 12.0028 -2.3733 0.9227
15.4919 12.6487 -2.3757 0.9226
14.9771 13.2685 -2.3768 0.9226
14.4376 13.8675 -2.3780 0.9225
13.8744 14.4448 -2.3791 0.9225
12.6804 15.5306 -2.3816 0.9224
12.0513 16.0374 -2.3829 0.9224
10.0476 17.4031 -2.3870 0.9222
9.3444 17.8042 -2.3885 0.9222
7.1435 18.8358 -2.3929 0.9221
6.3833 19.1203 -2.3945 0.9220
5.6119 19.3744 -2.3960 0.9220
4.8303 19.5974 -2.3976 0.9219
4.0400 19.7890 -2.3991 0.9219
3.2420 19.9487 -2.4007 0.9218
1.6279 20.1636 -2.4030 0.9217
0.0000 20.2313 -2.4032 0.9217
-0.8146 20.2144 -2.4031 0.9217
-1.6278 20.1637 -2.4030 0.9217
-2.4381 20.0793 -2.4027 0.9218
-4.0443 19.8100 -2.4017 0.9218
-4.8373 19.6256 -2.4010 0.9218
-5.6218 19.4086 -2.4002 0.9218
-8.6469 18.2228 -2.3959 0.9220
-9.3683 17.8498 -2.3946 0.9220
-10.0733 17.4475 -2.3931 0.9221
-12.7053 15.5611 -2.3863 0.9223
-13.8931 14.4642 -2.3823 0.9224
-15.4913 12.6482 -2.3756 0.9226
-16.4247 11.3371 -2.3707 0.9228
-16.8497 10.6551 -2.3681 0.9228
-17.2460 9.9570 -2.3655 0.9229
-17.6130 9.2440 -2.3628 0.9230
-18.2574 7.7787 -2.3574 0.9232
-13.1596 4.9908 -1.6718 0.9449
-15.0573 5.0269 -1.8857 0.9381
-19.1894 4.7298 -2.3476 0.9235
-19.5073 3.1702 -2.3476 0.9235
-20.8927 2.5368 -2.5000 0.9187
-20.9779 1.6935 -2.5000 0.9187
-21.0291 0.8475 -2.5000 0.9187
-17.4157 -2.8303 -2.5000 0.9312
-15.6231 -8.1996 -2.5000 0.9312
-15.2803 -8.8221 -2.5000 0.9312
-14.9126 -9.4302 -2.5000 0.9312
-13.6672 -11.1589 -2.5000 0.9312
-12.7250 -12.2225 -2.5000 0.9312
-11.7002 -13.2068 -2.5000 0.9312
-11.1484 -13.6542 -2.4976 0.9313
-10.5672 -14.0623 -2.4923 0.9314
-9.2258 -14.5894 -2.4458 0.9326
-7.6998 -14.6707 -2.3476 0.9353
-6.4943 -15.2427 -2.3476 0.9353
-5.8753 -15.4919 -2.3476 0.9353
-5.2467 -15.7159 -2.3476 0.9353
-3.9651 -16.0871 -2.3476 0.9353
-1.9971 -16.4477 -2.3476 0.9353
-1.3332 -16.5148 -2.3476 0.9353
1.3332 -16.5148 -2.3476 0.9353
1.9971 -16.4477 -2.3476 0.9353
2.6578 -16.3540 -2.3476 0.9353
3.3141 -16.2337 -2.3476 0.9353
3.9651 -16.0871 -2.3476 0.9353
4.6096 -15.9144 -2.3476 0.9353
5.8753 -15.4918 -2.3476 0.9353
7.6998 -14.6707 -2.3476 0.9353
8.8553 -14.0036 -2.3476 0.9353
9.9534 -13.2456 -2.3476 0.9353
10.7795 -13.2023 -2.4149 0.9335
13.6672 -11.1589 -2.5000 0.9312
14.1055 -10.5996 -2.5000 0.9312
14.9126 -9.4302 -2.5000 0.9312
15.2802 -8.8221 -2.5000 0.9312
15.6231 -8.1996 -2.5000 0.9312
16.7361 -5.5873 -2.5000 0.9312
16.9475 -4.9089 -2.5000 0.9312
17.4156 -2.8303 -2.5000 0.9312
17.5155 -2.1268 -2.5000 0.9312
7.5903 -0.6128 -1.0790 0.9697
7.3855 -0.0000 -1.0465 0.9706
7.5575 0.3046 -1.0717 0.9699
16.0871 3.9651 -2.3476 0.9353
15.9144 4.6096 -2.3476 0.9353
13.1603 4.9911 -1.9943 0.9447
11.7035 4.9864 -1.8025 0.9499
10.4757 4.9708 -1.6429 0.9542
9.4873 4.9793 -1.5181 0.9576
8.6288 4.9819 -1.4118 0.9605
14.0904 8.9102 -2.3621 0.9349
13.3507 10.0324 -2.3662 0.9348
12.9466 10.5705 -2.3682 0.9347
12.5204 11.0921 -2.3701 0.9347
11.6048 12.0819 -2.3736 0.9346
11.1168 12.5483 -2.3753 0.9345
9.5418 13.8237 -2.3800 0.9344
8.4079 14.5630 -2.3826 0.9343
7.2159 15.2073 -2.3850 0.9343
5.9738 15.7516 -2.3870 0.9342
5.3366 15.9851 -2.3878 0.9342
4.6901 16.1921 -2.3886 0.9342
4.0354 16.3723 -2.3892 0.9341
3.3737 16.5254 -2.3898 0.9341
2.7060 16.6510 -2.3902 0.9341
2.0337 16.7489 -2.3906 0.9341
-0.0000 16.8752 -2.3910 0.9341
-0.6795 16.8612 -2.3910 0.9341
-1.3578 16.8191 -2.3908 0.9341
-2.0337 16.7490 -2.3906 0.9341
-4.0355 16.3724 -2.3892 0.9341
-4.6901 16.1922 -2.3886 0.9342
-5.3367 15.9852 -2.3878 0.9342
-6.6007 15.4924 -2.3860 0.9342
-7.2160 15.2075 -2.3850 0.9343
-7.8189 14.8976 -2.3839 0.9343
-8.9828 14.2052 -2.3814 0.9344
-9.5420 13.8239 -2.3800 0.9344
-11.1171 12.5486 -2.3754 0.9345
-12.0732 11.5965 -2.3719 0.9346
-12.5205 11.0922 -2.3701 0.9347
-12.9462 10.5702 -2.3681 0.9347
-13.7310 9.4778 -2.3640 0.9348
-14.0888 8.9092 -2.3619 0.9349
-8.5622 4.9434 -1.4009 0.9608
-9.4404 4.9547 -1.5106 0.9578
-10.4443 4.9559 -1.6380 0.9544
-15.2772 6.5090 -2.3529 0.9351
-13.1916 5.0029 -1.9989 0.9446
-15.9532 4.6209 -2.3533 0.9351
-16.6196 2.7010 -2.3857 0.9342
-17.6299 0.7105 -2.5000 0.9312
-15.1755 0.0000 -2.5000 0.9403
-15.1631 -0.6110 -2.5000 0.9403
-15.1262 -1.2211 -2.5000 0.9403
-15.0648 -1.8292 -2.5000 0.9403
-14.9789 -2.4343 -2.5000 0.9403
-14.8687 -3.0355 -2.5000 0.9403
-14.1893 -5.3813 -2.5000 0.9403
-13.9611 -5.9483 -2.5000 0.9403
-13.1423 -7.5877 -2.5000 0.9403
-12.8261 -8.1107 -2.5000 0.9403
-10.9445 -10.5124 -2.5000 0.9403
-9.5976 -11.7550 -2.5000 0.9403
-8.6206 -12.4891 -2.5000 0.9403
-8.1108 -12.8261 -2.5000 0.9403
-7.5877 -13.1423 -2.5000 0.9403
-6.2736 -13.2214 -2.4108 0.9424
-4.5126 -13.5169 -2.3476 0.9439
-3.9647 -13.6877 -2.3476 0.9439
-2.8504 -13.9623 -2.3476 0.9439
-0.5738 -14.2387 -2.3476 0.9439
-0.0000 -14.2503 -2.3476 0.9439
0.5738 -14.2387 -2.3476 0.9439
1.1467 -14.2041 -2.3476 0.9439
1.7124 -14.1029 -2.3404 0.9440
2.2859 -14.0658 -2.3476 0.9439
2.8504 -13.9623 -2.3476 0.9439
3.4104 -13.8362 -2.3476 0.9439
4.5126 -13.5169 -2.3476 0.9439
5.0532 -13.3243 -2.3476 0.9439
5.6302 -13.2146 -2.3663 0.9434
6.2665 -13.2065 -2.4081 0.9425
6.9265 -13.1973 -2.4554 0.9414
8.1107 -12.8261 -2.5000 0.9403
8.6206 -12.4891 -2.5000 0.9403
9.1165 -12.1319 -2.5000 0.9403
10.0632 -11.3590 -2.5000 0.9403
10.5124 -10.9445 -2.5000 0.9403
10.9445 -10.5124 -2.5000 0.9403
11.7549 -9.5976 -2.5000 0.9403
12.1319 -9.1165 -2.5000 0.9403
12.4891 -8.6206 -2.5000 0.9403
12.8261 -8.1107 -2.5000 0.9403
13.1423 -7.5877 -2.5000 0.9403
13.7102 -6.5056 -2.5000 0.9403
14.1892 -5.3813 -2.5000 0.9403
14.3944 -4.8056 -2.5000 0.9403
14.7344 -3.6317 -2.5000 0.9403
14.9789 -2.4343 -2.5000 0.9403
8.6740 -1.0532 -1.4394 0.9652
7.0495 -0.5691 -1.1651 0.9717
6.8680 0.0000 -1.1314 0.9725
15.0648 1.8292 -2.5000 0.9403
13.5169 4.5126 -2.3476 0.9439
10.5005 4.9826 -1.9147 0.9540
8.6196 4.9766 -1.6397 0.9605
7.8659 4.9742 -1.5332 0.9630
11.7865 8.1356 -2.3593 0.9436
11.4577 8.6099 -2.3611 0.9436
11.1096 9.0707 -2.3627 0.9435
10.7427 9.5172 -2.3644 0.9435
9.9549 10.3642 -2.3674 0.9434
9.5353 10.7632 -2.3689 0.9434
9.0996 11.1449 -2.3703 0.9433
8.6482 11.5087 -2.3716 0.9433
6.7030 12.7716 -2.3762 0.9432
6.1858 13.0364 -2.3771 0.9432
5.6580 13.2798 -2.3780 0.9432
4.5740 13.7008 -2.3795 0.9431
4.0197 13.8777 -2.3802 0.9431
3.4584 14.0316 -2.3807 0.9431
2.8912 14.1623 -2.3812 0.9431
-0.0000 14.4610 -2.3823 0.9431
-1.7428 14.3532 -2.3819 0.9431
-2.3191 14.2696 -2.3816 0.9431
-2.8913 14.1623 -2.3812 0.9431
-4.0198 13.8778 -2.3802 0.9431
-5.1205 13.5016 -2.3788 0.9431
-5.6581 13.2800 -2.3780 0.9432
-6.1859 13.0365 -2.3771 0.9432
-7.7021 12.1800 -2.3740 0.9433
-8.1823 11.8541 -2.3729 0.9433
-9.0997 11.1451 -2.3703 0.9433
-10.7428 9.5173 -2.3644 0.9435
-11.1094 9.0705 -2.3627 0.9435
-11.4572 8.6095 -2.3610 0.9436
-8.5622 4.9434 -1.6287 0.9607
-9.4404 4.9547 -1.7564 0.9577
-10.4697 4.9679 -1.9091 0.9541
-12.2676 5.2267 -2.1967 0.9474
-13.1596 4.9908 -2.3186 0.9445
-13.6877 3.9647 -2.3476 0.9439
-14.9789 2.4343 -2.5000 0.9403
-15.0648 1.8292 -2.5000 0.9403
-15.1262 1.2211 -2.5000 0.9403
-13.2898 -0.5356 -2.5000 0.9473
-13.2574 -1.0703 -2.5000 0.9473
-12.7754 -3.7005 -2.5000 0.9473
-12.6160 -4.2119 -2.5000 0.9473
-12.2362 -5.2134 -2.5000 0.9473
-11.7771 -6.1811 -2.5000 0.9473
-11.5187 -6.6503 -2.5000 0.9473
-11.2415 -7.1087 -2.5000 0.9473
-10.9462 -7.5556 -2.5000 0.9473
-10.6330 -7.9902 -2.5000 0.9473
-10.3027 -8.4119 -2.5000 0.9473
-9.5924 -9.2136 -2.5000 0.9473
-9.2136 -9.5924 -2.5000 0.9473
-8.4119 -10.3027 -2.5000 0.9473
-6.6503 -11.5186 -2.5000 0.9473
-5.2134 -12.2362 -2.5000 0.9473
-4.2119 -12.6161 -2.5000 0.9473
-3.7005 -12.7754 -2.5000 0.9473
-2.6605 -13.0318 -2.5000 0.9473
-1.0653 -13.1963 -2.4885 0.9475
1.0652 -13.1950 -2.4882 0.9475
2.1336 -13.1283 -2.5000 0.9473
3.1830 -12.9141 -2.5000 0.9473
3.7004 -12.7754 -2.5000 0.9473
4.7164 -12.4362 -2.5000 0.9473
5.2126 -12.2362 -2.5000 0.9473
6.1811 -11.7771 -2.5000 0.9473
6.6503 -11.5186 -2.5000 0.9473
7.1087 -11.2415 -2.5000 0.9473
7.5556 -10.9462 -2.5000 0.9473
7.9902 -10.6330 -2.5000 0.9473
8.8199 -9.9556 -2.5000 0.9473
9.5924 -9.2136 -2.5000 0.9473
9.9556 -8.8199 -2.5000 0.9473
10.6330 -7.9902 -2.5000 0.9473
12.4362 -4.7164 -2.5000 0.9473
12.7754 -3.7005 -2.5000 0.9473
12.9141 -3.1830 -2.5000 0.9473
13.0318 -2.6605 -2.5000 0.9473
13.1283 -2.1336 -2.5000 0.9473
13.2036 -1.6032 -2.5000 0.9473
6.6617 -0.2685 -1.2532 0.9732
6.6720 0.0000 -1.2541 0.9732
13.1283 2.1336 -2.5000 0.9473
11.9966 3.4749 -2.3476 0.9504
11.8470 3.9551 -2.3476 0.9504
11.4903 4.8956 -2.3476 0.9504
9.4873 4.9793 -2.0139 0.9573
8.6196 4.9766 -1.8708 0.9603
6.1107 4.9893 -1.4828 0.9684
5.6200 4.9789 -1.4113 0.9699
8.7077 9.0657 -2.3627 0.9501
7.9583 9.7472 -2.3652 0.9501
6.7347 10.6501 -2.3685 0.9500
6.3030 10.9171 -2.3694 0.9500
4.9464 11.6095 -2.3719 0.9499
3.9984 11.9767 -2.3733 0.9499
2.5271 12.3789 -2.3747 0.9499
2.0269 12.4724 -2.3751 0.9499
1.0169 12.5975 -2.3755 0.9499
-0.5089 12.6288 -2.3757 0.9499
-1.5233 12.5453 -2.3754 0.9499
-2.0270 12.4724 -2.3751 0.9499
-3.5138 12.1309 -2.3739 0.9499
-3.9984 11.9767 -2.3733 0.9499
-4.4763 11.8029 -2.3727 0.9499
-4.9464 11.6097 -2.3720 0.9499
-6.3031 10.9172 -2.3695 0.9500
-6.7348 10.6502 -2.3685 0.9500
-7.5632 10.0648 -2.3664 0.9500
-8.7079 9.0659 -2.3628 0.9501
-6.0378 4.9298 -1.4651 0.9688
-7.1647 4.9455 -1.6363 0.9652
-8.5622 4.9434 -1.8583 0.9606
-10.4697 4.9679 -2.1782 0.9539
-11.4905 4.8956 -2.3476 0.9504
-11.6781 4.4289 -2.3476 0.9504
-11.8470 3.9551 -2.3476 0.9504
-12.1268 2.9890 -2.3476 0.9504
-13.1283 2.1336 -2.5000 0.9473
-13.2036 1.6032 -2.5000 0.9473
-11.8174 -0.4762 -2.5000 0.9528
-11.7886 -0.9517 -2.5000 0.9528
-11.7408 -1.4256 -2.5000 0.9528
-11.6738 -1.8972 -2.5000 0.9528
-11.5880 -2.3657 -2.5000 0.9528
-11.4833 -2.8304 -2.5000 0.9528
-10.8806 -4.6358 -2.5000 0.9528
-10.6851 -5.0701 -2.5000 0.9528
-10.2425 -5.9135 -2.5000 0.9528
-9.9960 -6.3211 -2.5000 0.9528
-9.4550 -7.1050 -2.5000 0.9528
-9.1612 -7.4799 -2.5000 0.9528
-8.8526 -7.8428 -2.5000 0.9528
-8.1929 -8.5296 -2.5000 0.9528
-7.4799 -9.1612 -2.5000 0.9528
-6.7185 -9.7334 -2.5000 0.9528
-6.3211 -9.9960 -2.5000 0.9528
-5.9135 -10.2425 -2.5000 0.9528
-4.6358 -10.8806 -2.5000 0.9528
-4.1939 -11.0584 -2.5000 0.9528
-3.7452 -11.2183 -2.5000 0.9528
-2.8304 -11.4833 -2.5000 0.9528
-2.3657 -11.5879 -2.5000 0.9528
-1.8972 -11.6738 -2.5000 0.9528
-1.4256 -11.7407 -2.5000 0.9528
-0.4762 -11.8174 -2.5000 0.9528
-0.0000 -11.8270 -2.5000 0.9528
0.9517 -11.7886 -2.5000 0.9528
2.3657 -11.5879 -2.5000 0.9528
2.8304 -11.4833 -2.5000 0.9528
3.2905 -11.3600 -2.5000 0.9528
3.7452 -11.2183 -2.5000 0.9528
4.1939 -11.0584 -2.5000 0.9528
5.9135 -10.2425 -2.5000 0.9528
8.1928 -8.5296 -2.5000 0.9528
8.8526 -7.8427 -2.5000 0.9528
9.4550 -7.1050 -2.5000 0.9528
9.7334 -6.7185 -2.5000 0.9528
9.9960 -6.3211 -2.5000 0.9528
10.4723 -5.4963 -2.5000 0.9528
11.2183 -3.7452 -2.5000 0.9528
11.3600 -3.2905 -2.5000 0.9528
11.4833 -2.8304 -2.5000 0.9528
11.6738 -1.8972 -2.5000 0.9528
7.3438 -0.8917 -1.5637 0.9702
6.4726 -0.2608 -1.3693 0.9739
6.4832 0.0000 -1.3704 0.9738
6.5049 0.2621 -1.3761 0.9737
6.6354 0.5357 -1.4071 0.9732
11.0199 2.7162 -2.3991 0.9547
10.5344 3.5169 -2.3476 0.9556
10.3843 3.9382 -2.3476 0.9556
9.4873 4.9793 -2.2649 0.9571
8.6196 4.9766 -2.1039 0.9601
7.8660 4.9742 -1.9672 0.9627
6.6140 4.9702 -1.7488 0.9667
5.1697 4.9656 -1.5152 0.9711
4.7770 4.9734 -1.4577 0.9722
7.0647 8.6528 -2.3612 0.9554
6.7135 8.9341 -2.3622 0.9553
6.3509 9.2009 -2.3632 0.9553
5.9776 9.4528 -2.3641 0.9553
5.2012 9.9101 -2.3658 0.9553
3.1179 10.7643 -2.3689 0.9552
1.7985 11.0668 -2.3700 0.9552
0.9023 11.1775 -2.3704 0.9552
-0.0000 11.2145 -2.3705 0.9552
-0.4516 11.2053 -2.3705 0.9552
-1.3516 11.1314 -2.3702 0.9552
-1.7986 11.0668 -2.3700 0.9552
-2.2424 10.9840 -2.3697 0.9552
-2.6825 10.8832 -2.3693 0.9552
-3.1179 10.7644 -2.3689 0.9552
-3.5481 10.6279 -2.3684 0.9552
-5.2013 9.9102 -2.3658 0.9553
-6.3510 9.2010 -2.3632 0.9553
-6.7136 8.9342 -2.3623 0.9553
-4.0302 4.9362 -1.3470 0.9743
-4.3721 4.9351 -1.3937 0.9734
-5.5662 4.9313 -1.5719 0.9701
-6.5581 4.9281 -1.7340 0.9670
-7.1648 4.9456 -1.8403 0.9650
-9.4014 5.9451 -2.3513 0.9555
-8.5622 4.9434 -2.0899 0.9604
-9.4404 4.9547 -2.2536 0.9573
-10.0337 4.7611 -2.3476 0.9556
-10.2173 4.3532 -2.3476 0.9556
-11.5879 2.3657 -2.5000 0.9528
-11.6738 1.8972 -2.5000 0.9528
-11.8174 0.4762 -2.5000 0.9528
-10.6027 -0.8559 -2.5000 0.9572
-10.5596 -1.2822 -2.5000 0.9572
-10.4222 -2.1277 -2.5000 0.9572
-10.2172 -2.9595 -2.5000 0.9572
-10.0898 -3.3684 -2.5000 0.9572
-9.9460 -3.7720 -2.5000 0.9572
-9.6102 -4.5601 -2.5000 0.9572
-9.4188 -4.9433 -2.5000 0.9572
-8.7542 -6.0426 -2.5000 0.9572
-7.6716 -7.3687 -2.5000 0.9572
-7.3687 -7.6716 -2.5000 0.9572
-7.0538 -7.9621 -2.5000 0.9572
-6.7274 -8.2396 -2.5000 0.9572
-6.3902 -8.5038 -2.5000 0.9572
-6.0426 -8.7542 -2.5000 0.9572
-5.6852 -8.9905 -2.5000 0.9572
-4.9434 -9.4188 -2.5000 0.9572
-4.5601 -9.6102 -2.5000 0.9572
-3.3685 -10.0898 -2.5000 0.9572
-2.9595 -10.2172 -2.5000 0.9572
-2.1277 -10.4222 -2.5000 0.9572
-1.7063 -10.4994 -2.5000 0.9572
-1.2822 -10.5596 -2.5000 0.9572
-0.4283 -10.6286 -2.5000 0.9572
0.8559 -10.6027 -2.5000 0.9572
1.2821 -10.5596 -2.5000 0.9572
1.7063 -10.4994 -2.5000 0.9572
2.1277 -10.4222 -2.5000 0.9572
2.9594 -10.2172 -2.5000 0.9572
3.7720 -9.9459 -2.5000 0.9572
4.1694 -9.7860 -2.5000 0.9572
4.5601 -9.6102 -2.5000 0.9572
4.9433 -9.4188 -2.5000 0.9572
5.3186 -9.2121 -2.5000 0.9572
6.3902 -8.5038 -2.5000 0.9572
7.3686 -7.6716 -2.5000 0.9572
8.2396 -6.7274 -2.5000 0.9572
8.5038 -6.3902 -2.5000 0.9572
8.9904 -5.6852 -2.5000 0.9572
9.6102 -4.5601 -2.5000 0.9572
9.7860 -4.1694 -2.5000 0.9572
9.9459 -3.7720 -2.5000 0.9572
10.4994 -1.7063 -2.5000 0.9572
6.4814 -0.7870 -1.5345 0.9735
6.3125 -0.5096 -1.4884 0.9743
6.3083 -0.2542 -1.4838 0.9744
10.5596 1.2822 -2.5000 0.9572
9.5944 2.7791 -2.3476 0.9598
9.4747 3.1631 -2.3476 0.9598
9.3396 3.5420 -2.3476 0.9598
9.1894 3.9153 -2.3476 0.9598
7.8659 4.9742 -2.1873 0.9625
6.6140 4.9702 -1.9444 0.9666
5.6065 4.9669 -1.7604 0.9697
5.1574 4.9538 -1.6807 0.9710
4.7769 4.9733 -1.6207 0.9721
6.6505 7.5069 -2.3571 0.9596
6.3454 7.7718 -2.3580 0.9596
4.6707 8.8994 -2.3621 0.9595
3.9416 9.2514 -2.3634 0.9595
3.1858 9.5428 -2.3645 0.9595
2.7996 9.6651 -2.3649 0.9595
2.4085 9.7717 -2.3653 0.9595
1.6148 9.9363 -2.3659 0.9595
0.4054 10.0604 -2.3663 0.9595
-0.4054 10.0604 -2.3663 0.9595
-0.8102 10.0355 -2.3663 0.9595
-2.0134 9.8621 -2.3656 0.9595
-2.4085 9.7717 -2.3653 0.9595
-2.7996 9.6652 -2.3649 0.9595
-3.9417 9.2514 -2.3634 0.9595
-4.6708 8.8995 -2.3621 0.9595
-5.3684 8.4894 -2.3607 0.9596
-5.7039 8.2635 -2.3598 0.9596
-4.0302 4.9362 -1.4977 0.9742
-7.1650 4.9456 -2.0461 0.9649
-8.4479 5.3421 -2.3491 0.9598
-8.5415 4.9315 -2.3180 0.9603
-8.8446 4.6420 -2.3476 0.9598
-9.0243 4.2821 -2.3476 0.9598
-9.3396 3.5421 -2.3476 0.9598
-9.4747 3.1631 -2.3476 0.9598
-9.5944 2.7790 -2.3476 0.9598
-10.5596 1.2822 -2.5000 0.9572
-10.6027 0.8559 -2.5000 0.9572
-9.6555 0.0000 -2.5000 0.9609
-9.6477 -0.3888 -2.5000 0.9609
-9.5851 -1.1638 -2.5000 0.9609
-9.5305 -1.5489 -2.5000 0.9609
-9.3750 -2.3107 -2.5000 0.9609
-9.1586 -3.0576 -2.5000 0.9609
-8.7233 -4.1393 -2.5000 0.9609
-8.5495 -4.4871 -2.5000 0.9609
-6.9636 -6.6886 -2.5000 0.9609
-6.6886 -6.9636 -2.5000 0.9609
-6.1066 -7.4792 -2.5000 0.9609
-5.8005 -7.7190 -2.5000 0.9609
-5.4850 -7.9463 -2.5000 0.9609
-5.1606 -8.1608 -2.5000 0.9609
-4.8278 -8.3619 -2.5000 0.9609
-4.4872 -8.5495 -2.5000 0.9609
-4.1393 -8.7233 -2.5000 0.9609
-3.7846 -8.8829 -2.5000 0.9609
-3.4239 -9.0281 -2.5000 0.9609
-2.6863 -9.2743 -2.5000 0.9609
-2.3107 -9.3749 -2.5000 0.9609
-1.5489 -9.5305 -2.5000 0.9609
-0.7769 -9.6242 -2.5000 0.9609
-0.3888 -9.6477 -2.5000 0.9609
0.7769 -9.6242 -2.5000 0.9609
1.1638 -9.5851 -2.5000 0.9609
1.5488 -9.5305 -2.5000 0.9609
2.3107 -9.3750 -2.5000 0.9609
2.6863 -9.2743 -2.5000 0.9609
3.4239 -9.0281 -2.5000 0.9609
4.4871 -8.5495 -2.5000 0.9609
4.8278 -8.3619 -2.5000 0.9609
5.1605 -8.1607 -2.5000 0.9609
5.4850 -7.9463 -2.5000 0.9609
6.1066 -7.4792 -2.5000 0.9609
6.6886 -6.9636 -2.5000 0.9609
6.9636 -6.6886 -2.5000 0.9609
7.2272 -6.4028 -2.5000 0.9609
8.1607 -5.1605 -2.5000 0.9609
8.5495 -4.4871 -2.5000 0.9609
8.7233 -4.1392 -2.5000 0.9609
8.8829 -3.7846 -2.5000 0.9609
9.0281 -3.4239 -2.5000 0.9609
9.1586 -3.0576 -2.5000 0.9609
9.2743 -2.6863 -2.5000 0.9609
9.3749 -2.3107 -2.5000 0.9609
6.3239 -0.7679 -1.6494 0.9740
6.2414 0.0000 -1.6160 0.9745
6.2649 0.2525 -1.6234 0.9744
6.3111 0.5095 -1.6394 0.9742
9.5851 1.1638 -2.5000 0.9609
9.5305 1.5488 -2.5000 0.9609
9.4604 1.9313 -2.5000 0.9609
9.3749 2.3107 -2.5000 0.9609
8.3414 3.5539 -2.3476 0.9632
8.1915 3.8869 -2.3476 0.9632
8.0284 4.2136 -2.3476 0.9632
7.8522 4.5335 -2.3476 0.9632
7.6627 4.8456 -2.3474 0.9632
7.4650 5.1527 -2.3485 0.9632
6.6140 4.9702 -2.1421 0.9664
6.1104 4.9890 -2.0424 0.9679
5.6065 4.9669 -1.9393 0.9695
3.4346 4.9759 -1.5655 0.9753
3.1359 4.9591 -1.5192 0.9760
2.6092 4.9714 -1.4537 0.9771
3.9070 8.2338 -2.3597 0.9630
2.1128 4.9590 -1.3956 0.9780
3.2332 8.5253 -2.3608 0.9630
1.8250 8.9393 -2.3623 0.9630
0.7343 9.0963 -2.3628 0.9630
-0.3675 9.1188 -2.3629 0.9630
-0.7343 9.0963 -2.3629 0.9630
-1.0999 9.0588 -2.3627 0.9630
-2.1832 8.8575 -2.3620 0.9630
-3.2333 8.5254 -2.3608 0.9630
-3.5732 8.3865 -2.3603 0.9630
-2.3448 4.9416 -1.4162 0.9777
-2.8521 4.9399 -1.4769 0.9767
-4.8670 7.6966 -2.3578 0.9631
-3.4086 4.9382 -1.5536 0.9755
-3.7100 4.9372 -1.5990 0.9748
-4.7391 4.9339 -1.7713 0.9721
-5.5662 4.9313 -1.9254 0.9697
-6.0378 4.9298 -2.0182 0.9683
-6.5581 4.9281 -2.1240 0.9667
-7.1651 4.9457 -2.2542 0.9647
-7.8522 4.5334 -2.3476 0.9632
-8.0284 4.2136 -2.3476 0.9632
-8.1915 3.8869 -2.3476 0.9632
-9.2689 2.6848 -2.4985 0.9609
-9.3750 2.3107 -2.5000 0.9609
-9.5305 1.5488 -2.5000 0.9609
-9.5851 1.1638 -2.5000 0.9609
-9.6242 0.7769 -2.5000 0.9609
-8.8238 -0.3556 -2.5000 0.9640
-8.7666 -1.0645 -2.5000 0.9640
-8.6525 -1.7664 -2.5000 0.9640
-8.5744 -2.1134 -2.5000 0.9640
-8.4823 -2.4569 -2.5000 0.9640
-8.1243 -3.4614 -2.5000 0.9640
-7.9783 -3.7858 -2.5000 0.9640
-7.8195 -4.1040 -2.5000 0.9640
-7.4639 -4.7199 -2.5000 0.9640
-6.6101 -5.8560 -2.5000 0.9640
-6.1175 -6.3689 -2.5000 0.9640
-5.5851 -6.8405 -2.5000 0.9640
-3.4615 -8.1243 -2.5000 0.9640
-2.1134 -8.5743 -2.5000 0.9640
-1.7664 -8.6525 -2.5000 0.9640
-1.0645 -8.7666 -2.5000 0.9640
-0.7106 -8.8023 -2.5000 0.9640
-0.0000 -8.8310 -2.5000 0.9640
1.0645 -8.7666 -2.5000 0.9640
1.7664 -8.6525 -2.5000 0.9640
2.1134 -8.5744 -2.5000 0.9640
3.7858 -7.9783 -2.5000 0.9640
4.1039 -7.8194 -2.5000 0.9640
4.7198 -7.4639 -2.5000 0.9640
5.0165 -7.2677 -2.5000 0.9640
5.5851 -6.8405 -2.5000 0.9640
5.8560 -6.6101 -2.5000 0.9640
6.6101 -5.8560 -2.5000 0.9640
6.8405 -5.5851 -2.5000 0.9640
7.0598 -5.3051 -2.5000 0.9640
7.2677 -5.0166 -2.5000 0.9640
7.4638 -4.7199 -2.5000 0.9640
7.9783 -3.7858 -2.5000 0.9640
8.3765 -2.7965 -2.5000 0.9640
8.4823 -2.4569 -2.5000 0.9640
8.5744 -2.1134 -2.5000 0.9640
8.6525 -1.7664 -2.5000 0.9640
8.7166 -1.4166 -2.5000 0.9640
6.2317 0.0000 -1.7642 0.9744
6.2987 0.5085 -1.7889 0.9741
8.7166 1.4166 -2.5000 0.9640
8.6523 1.7664 -2.5000 0.9640
8.5744 2.1134 -2.5000 0.9640
8.4823 2.4569 -2.5000 0.9640
8.1173 2.7099 -2.4226 0.9650
7.6291 3.2504 -2.3476 0.9661
7.4920 3.5550 -2.3476 0.9661
7.3427 3.8538 -2.3476 0.9661
7.1816 4.1463 -2.3476 0.9661
6.8247 4.7107 -2.3476 0.9661
6.1103 4.9889 -2.2331 0.9677
5.6065 4.9669 -2.1204 0.9693
4.9953 6.6475 -2.3540 0.9660
3.1285 4.9473 -1.6571 0.9760
4.1612 7.2073 -2.3560 0.9660
2.6091 4.9713 -1.5894 0.9769
2.9538 7.7885 -2.3581 0.9660
1.6540 4.9543 -1.4786 0.9785
1.4348 4.9536 -1.4600 0.9788
1.9944 8.0915 -2.3592 0.9659
1.0110 4.9523 -1.4309 0.9792
0.3357 8.3300 -2.3601 0.9659
-0.1994 4.9484 -1.4020 0.9796
-0.6708 8.3094 -2.3600 0.9659
-2.3183 8.0036 -2.3589 0.9660
-1.6505 4.9438 -1.4755 0.9786
-1.8747 4.9431 -1.4966 0.9783
-3.2644 7.6618 -2.3577 0.9660
-2.8521 4.9399 -1.6148 0.9766
-3.4005 4.9265 -1.6946 0.9754
-3.7100 4.9372 -1.7483 0.9747
-4.3721 4.9351 -1.8665 0.9730
-4.7391 4.9339 -1.9367 0.9720
-5.5662 4.9313 -2.1052 0.9696
-6.5426 4.9164 -2.3168 0.9666
-6.8247 4.7108 -2.3476 0.9661
-7.0089 4.4321 -2.3476 0.9661
-7.3428 3.8538 -2.3476 0.9661
-7.4920 3.5550 -2.3476 0.9661
-7.7537 2.9406 -2.3476 0.9661
-8.0906 2.7010 -2.4147 0.9652
-8.4823 2.4569 -2.5000 0.9640
-8.5744 2.1134 -2.5000 0.9640
-8.6525 1.7664 -2.5000 0.9640
-8.1214 -0.3273 -2.5000 0.9666
-8.0227 -1.3038 -2.5000 0.9666
-7.8918 -1.9452 -2.5000 0.9666
-7.8071 -2.2613 -2.5000 0.9666
-7.4776 -3.1859 -2.5000 0.9666
-7.3432 -3.4844 -2.5000 0.9666
-7.1970 -3.7773 -2.5000 0.9666
-6.4978 -4.8828 -2.5000 0.9666
-5.6304 -5.8619 -2.5000 0.9666
-5.1405 -6.2960 -2.5000 0.9666
-4.8828 -6.4978 -2.5000 0.9666
-4.3441 -6.8697 -2.5000 0.9666
-4.0640 -7.0390 -2.5000 0.9666
-3.7772 -7.1969 -2.5000 0.9666
-3.1859 -7.4776 -2.5000 0.9666
-2.5739 -7.7097 -2.5000 0.9666
-1.9452 -7.8918 -2.5000 0.9666
-1.6258 -7.9637 -2.5000 0.9666
0.0000 -8.1279 -2.5000 0.9666
0.6540 -8.1016 -2.5000 0.9666
0.9797 -8.0687 -2.5000 0.9666
1.3038 -8.0227 -2.5000 0.9666
1.6258 -7.9637 -2.5000 0.9666
1.9451 -7.8918 -2.5000 0.9666
2.2613 -7.8071 -2.5000 0.9666
2.5738 -7.7097 -2.5000 0.9666
2.8822 -7.5998 -2.5000 0.9666
4.0640 -7.0390 -2.5000 0.9666
4.6172 -6.6892 -2.5000 0.9666
4.8828 -6.4978 -2.5000 0.9666
5.3898 -6.0839 -2.5000 0.9666
6.4978 -4.8828 -2.5000 0.9666
6.8697 -4.3441 -2.5000 0.9666
7.1969 -3.7772 -2.5000 0.9666
7.5998 -2.8822 -2.5000 0.9666
7.7097 -2.5739 -2.5000 0.9666
7.8918 -1.9452 -2.5000 0.9666
7.9637 -1.6258 -2.5000 0.9666
6.2386 -0.7575 -1.9330 0.9740
6.1969 -0.5003 -1.9122 0.9743
6.2282 0.2510 -1.9172 0.9743
8.0687 0.9797 -2.5000 0.9666
8.0227 1.3038 -2.5000 0.9666
7.8918 1.9451 -2.5000 0.9666
7.8070 2.2613 -2.5000 0.9666
7.0217 2.9917 -2.3476 0.9686
6.8956 3.2720 -2.3476 0.9686
6.7582 3.5470 -2.3476 0.9686
6.6099 3.8162 -2.3476 0.9686
6.2814 4.3357 -2.3476 0.9686
6.1017 4.5851 -2.3476 0.9686
5.6065 4.9669 -2.3038 0.9691
4.7766 4.9730 -2.1209 0.9716
4.8348 5.9216 -2.3513 0.9685
2.6090 4.9711 -1.7268 0.9768
2.7160 7.1616 -2.3558 0.9685
0.6011 4.9510 -1.5340 0.9793
0.6168 7.6401 -2.3576 0.9684
0.3086 7.6589 -2.3576 0.9684
-0.0000 4.9490 -1.5222 0.9795
-0.1994 4.9484 -1.5232 0.9795
-0.9239 7.6087 -2.3575 0.9684
-1.0097 4.9458 -1.5526 0.9791
-1.2189 4.9452 -1.5665 0.9789
-1.6505 4.9438 -1.6031 0.9784
-2.3392 4.9299 -1.6784 0.9774
-2.8521 4.9399 -1.7545 0.9764
-4.0893 6.4667 -2.3533 0.9685
-4.3721 4.9351 -2.0279 0.9728
-5.1565 4.9529 -2.1992 0.9705
-5.5662 4.9313 -2.2873 0.9694
-6.1017 4.5851 -2.3476 0.9686
-6.2814 4.3357 -2.3476 0.9686
-6.6099 3.8162 -2.3476 0.9686
-7.0217 2.9917 -2.3476 0.9686
-7.8071 2.2613 -2.5000 0.9666
-7.8918 1.9452 -2.5000 0.9666
-7.9637 1.6258 -2.5000 0.9666
-8.0687 0.9797 -2.5000 0.9666
-8.1016 0.6540 -2.5000 0.9666
-7.5148 -0.3028 -2.5000 0.9688
-7.4965 -0.6052 -2.5000 0.9688
-7.4235 -1.2064 -2.5000 0.9688
-7.3023 -1.7999 -2.5000 0.9688
-7.2240 -2.0925 -2.5000 0.9688
-7.1338 -2.3816 -2.5000 0.9688
-6.6594 -3.4951 -2.5000 0.9688
-6.1896 -4.2724 -2.5000 0.9688
-6.0125 -4.5181 -2.5000 0.9688
-5.8257 -4.7566 -2.5000 0.9688
-5.6295 -4.9873 -2.5000 0.9688
-5.2099 -5.4241 -2.5000 0.9688
-4.5181 -6.0125 -2.5000 0.9688
-4.2724 -6.1896 -2.5000 0.9688
-4.0197 -6.3566 -2.5000 0.9688
-2.6670 -7.0321 -2.5000 0.9688
-1.7999 -7.3024 -2.5000 0.9688
-1.5044 -7.3689 -2.5000 0.9688
-0.0000 -7.5209 -2.5000 0.9688
0.3027 -7.5148 -2.5000 0.9688
0.6052 -7.4965 -2.5000 0.9688
1.5044 -7.3689 -2.5000 0.9688
2.9479 -6.9191 -2.5000 0.9688
3.2241 -6.7948 -2.5000 0.9688
3.4951 -6.6594 -2.5000 0.9688
4.2723 -6.1896 -2.5000 0.9688
4.5181 -6.0125 -2.5000 0.9688
4.7566 -5.8257 -2.5000 0.9688
4.9873 -5.6295 -2.5000 0.9688
5.2099 -5.4241 -2.5000 0.9688
5.6294 -4.9873 -2.5000 0.9688
5.8257 -4.7566 -2.5000 0.9688
6.7947 -3.2241 -2.5000 0.9688
6.9191 -2.9479 -2.5000 0.9688
7.0321 -2.6669 -2.5000 0.9688
7.1338 -2.3816 -2.5000 0.9688
7.3023 -1.7999 -2.5000 0.9688
7.4235 -1.2064 -2.5000 0.9688
6.1978 -0.5003 -2.0669 0.9741
6.2009 -0.2499 -2.0629 0.9742
6.2140 0.0000 -2.0656 0.9741
6.2721 0.5063 -2.0917 0.9738
7.4661 0.9065 -2.5000 0.9688
7.4235 1.2064 -2.5000 0.9688
7.3689 1.5044 -2.5000 0.9688
7.3023 1.7999 -2.5000 0.9688
7.2239 2.0924 -2.5000 0.9688
7.1338 2.3816 -2.5000 0.9688
7.0321 2.6669 -2.5000 0.9688
6.4973 2.7682 -2.3476 0.9707
6.3805 3.0276 -2.3476 0.9707
6.2535 3.2821 -2.3476 0.9707
5.9691 3.7746 -2.3476 0.9707
5.8122 4.0119 -2.3476 0.9707
5.4706 4.4666 -2.3476 0.9707
3.4344 4.9756 -2.0096 0.9748
3.1359 4.9591 -1.9503 0.9756
3.5380 6.1279 -2.3521 0.9706
2.6089 4.9709 -1.8661 0.9766
2.1114 4.9558 -1.7906 0.9775
2.5111 6.6212 -2.3539 0.9706
1.0086 4.9406 -1.6761 0.9790
0.1990 4.9380 -1.6427 0.9794
-0.0000 4.9373 -1.6412 0.9794
-0.1990 4.9367 -1.6423 0.9794
-0.3985 4.9361 -1.6461 0.9793
-0.5993 4.9354 -1.6526 0.9793
-0.8020 4.9348 -1.6619 0.9791
-1.2160 4.9335 -1.6890 0.9788
-1.6505 4.9438 -1.7325 0.9783
-2.3448 4.9416 -1.8181 0.9772
-3.2891 6.2668 -2.3526 0.9706
-3.7810 5.9792 -2.3516 0.9706
-3.4086 4.9382 -1.9945 0.9750
-3.7100 4.9372 -2.0529 0.9743
-4.0302 4.9362 -2.1182 0.9735
-4.3721 4.9351 -2.1916 0.9726
-5.0935 4.8924 -2.3476 0.9707
-5.2863 4.6832 -2.3476 0.9707
-5.4706 4.4666 -2.3476 0.9707
-5.9691 3.7746 -2.3476 0.9707
-6.1162 3.5312 -2.3476 0.9707
-6.2535 3.2821 -2.3476 0.9707
-6.3805 3.0276 -2.3476 0.9707
-6.4973 2.7682 -2.3476 0.9707
-7.0321 2.6669 -2.5000 0.9688
-7.3023 1.7999 -2.5000 0.9688
-7.4235 1.2064 -2.5000 0.9688
-7.4661 0.9065 -2.5000 0.9688
-6.9852 -0.2815 -2.5000 0.9707
-6.9399 -0.8427 -2.5000 0.9707
-6.9003 -1.1214 -2.5000 0.9707
-6.7149 -1.9450 -2.5000 0.9707
-6.5366 -2.4790 -2.5000 0.9707
-6.3159 -2.9969 -2.5000 0.9707
-5.7534 -3.9713 -2.5000 0.9707
-5.4152 -4.4213 -2.5000 0.9707
-5.2327 -4.6358 -2.5000 0.9707
-4.8428 -5.0418 -2.5000 0.9707
-4.6358 -5.2327 -2.5000 0.9707
-3.9713 -5.7534 -2.5000 0.9707
-3.7364 -5.9086 -2.5000 0.9707
-3.4954 -6.0543 -2.5000 0.9707
-3.2488 -6.1901 -2.5000 0.9707
-2.7402 -6.4315 -2.5000 0.9707
-1.9450 -6.7149 -2.5000 0.9707
-1.6730 -6.7877 -2.5000 0.9707
-1.3984 -6.8496 -2.5000 0.9707
-1.1214 -6.9004 -2.5000 0.9707
-0.8427 -6.9399 -2.5000 0.9707
-0.5625 -6.9682 -2.5000 0.9707
0.0000 -6.9909 -2.5000 0.9707
0.2815 -6.9852 -2.5000 0.9707
1.1214 -6.9003 -2.5000 0.9707
1.3983 -6.8496 -2.5000 0.9707
1.6730 -6.7877 -2.5000 0.9707
2.2138 -6.6311 -2.5000 0.9707
2.4790 -6.5366 -2.5000 0.9707
3.2488 -6.1901 -2.5000 0.9707
3.9712 -5.7534 -2.5000 0.9707
4.1997 -5.5888 -2.5000 0.9707
4.4213 -5.4152 -2.5000 0.9707
5.2327 -4.6358 -2.5000 0.9707
5.7533 -3.9713 -2.5000 0.9707
5.9086 -3.7364 -2.5000 0.9707
6.0543 -3.4954 -2.5000 0.9707
6.1901 -3.2488 -2.5000 0.9707
6.5366 -2.4790 -2.5000 0.9707
6.6311 -2.2138 -2.5000 0.9707
6.7148 -1.9450 -2.5000 0.9707
6.5272 -0.7925 -2.3513 0.9725
6.9682 -0.5625 -2.5000 0.9707
6.9003 1.1214 -2.5000 0.9707
6.7877 1.6730 -2.5000 0.9707
6.7148 1.9450 -2.5000 0.9707
6.6311 2.2138 -2.5000 0.9707
6.3397 2.7011 -2.4643 0.9712
5.9309 2.8142 -2.3476 0.9725
5.2481 3.9437 -2.3476 0.9725
4.9137 4.3532 -2.3476 0.9725
4.7345 4.5475 -2.3476 0.9725
4.5475 4.7345 -2.3476 0.9725
4.1531 5.0866 -2.3483 0.9725
3.4343 4.9755 -2.1619 0.9746
3.1359 4.9591 -2.0982 0.9754
3.2864 5.6923 -2.3505 0.9725
2.6088 4.9708 -2.0076 0.9764
2.3519 4.9566 -1.9619 0.9770
2.1114 4.9558 -1.9264 0.9774
2.3324 6.1501 -2.3522 0.9724
1.6540 4.9543 -1.8678 0.9781
1.0110 4.9523 -1.8075 0.9788
0.8047 4.9516 -1.7940 0.9789
-0.0000 4.9490 -1.7698 0.9792
-0.3994 4.9478 -1.7751 0.9791
-0.7933 6.5334 -2.3536 0.9724
-1.0097 4.9458 -1.8051 0.9788
-1.6505 4.9438 -1.8638 0.9781
-1.8747 4.9431 -1.8905 0.9778
-2.5778 6.0503 -2.3518 0.9724
-2.3448 4.9416 -1.9560 0.9770
-3.5123 5.5542 -2.3500 0.9725
-3.4086 4.9382 -2.1457 0.9748
-3.7100 4.9372 -2.2085 0.9741
-4.0302 4.9362 -2.2788 0.9733
-4.3534 4.9140 -2.3477 0.9725
-4.5475 4.7345 -2.3476 0.9725
-4.7345 4.5475 -2.3476 0.9725
-4.9138 4.3532 -2.3476 0.9725
-5.2481 3.9437 -2.3476 0.9725
-5.4026 3.7292 -2.3476 0.9725
-5.5484 3.5086 -2.3476 0.9725
