ply
format ascii 1.0
element vertex 1558
property float32 x
property float32 y
property float32 z
property float32 I
end_header
9.4596 13.7046 1.7882 0.9352
8.3596 14.4794 1.7953 0.9350
7.8278 14.9147 1.8087 0.9345
10.6778 36.8642 4.1213 0.8569
5.2319 25.6273 2.8087 0.9001
3.7991 23.3767 2.5432 0.9091
2.9228 24.0712 2.6038 0.9071
0.9609 23.8445 2.5625 0.9085
-0.6281 15.5871 1.6751 0.9392
-1.2954 16.0467 1.7287 0.9373
-1.9726 16.2454 1.7573 0.9363
-7.2062 15.1868 1.8051 0.9346
-13.8643 24.0136 2.9775 0.8944
-15.1746 20.1936 2.7124 0.9034
-14.8712 18.2139 2.5250 0.9097
-15.6443 17.6588 2.5333 0.9095
-20.0753 15.0856 2.6965 0.9039
-15.9529 10.0880 2.0268 0.9269
-17.1883 9.9237 2.1312 0.9233
-29.6737 12.6428 3.4636 0.8783
-29.6478 11.2439 3.4049 0.8802
-32.7909 10.9472 3.7122 0.8702
-22.4821 4.5898 2.4640 0.9118
-22.5340 -16.9332 2.3861 0.8930
-22.5067 -18.3762 2.4596 0.8899
-20.1450 -19.3495 2.3646 0.8939
-19.0116 -19.7931 2.3233 0.8957
-20.3580 -22.9794 2.5989 0.8841
-19.1229 -23.4213 2.5596 0.8857
-10.5907 -20.1789 1.9292 0.9126
-8.2003 -24.5629 2.1921 0.9013
-7.5300 -25.9967 2.2912 0.8970
-5.0950 -24.9571 2.1563 0.9028
-1.1398 -28.2820 2.3961 0.8926
-0.0001 -28.5970 2.4208 0.8915
4.0825 -25.1203 2.1544 0.9029
4.9687 -24.3383 2.1028 0.9051
6.2053 -25.1757 2.1950 0.9011
7.9204 -23.7244 2.1173 0.9045
9.6966 -20.4353 1.9148 0.9132
10.2697 -19.5673 1.8707 0.9151
13.0351 -18.8846 1.9425 0.9120
14.2949 -19.0230 2.0143 0.9089
18.8666 -19.6422 2.3056 0.8964
31.0695 -14.7426 2.9112 0.8711
19.1784 8.1711 1.7647 0.9197
27.1638 18.7498 2.7941 0.8759
22.7427 21.8446 2.6695 0.8811
21.1358 22.0047 2.5828 0.8847
11.5048 14.0908 1.5399 0.9296
10.2150 13.5936 1.4394 0.9340
10.1167 14.6566 1.5076 0.9310
8.2748 14.3324 1.4010 0.9357
7.6957 14.6628 1.4018 0.9357
10.0775 30.1857 2.6939 0.8801
8.9009 43.5996 3.7670 0.8364
3.9325 24.1976 2.0753 0.9063
2.9388 24.2032 2.0639 0.9068
1.8817 23.3083 1.9795 0.9104
-0.0000 16.0255 1.3566 0.9377
-1.3144 16.2819 1.3828 0.9365
-7.6975 47.3643 4.0621 0.8248
-5.1671 25.3101 2.1868 0.9015
-6.2786 25.4733 2.2209 0.9000
-7.7321 26.6944 2.3526 0.8944
-5.4898 14.4753 1.3105 0.9397
-6.0663 14.2381 1.3101 0.9398
-6.6424 13.9985 1.3116 0.9397
-7.8554 14.9672 1.4309 0.9344
-23.0909 39.9945 3.9094 0.8308
-8.8144 13.9388 1.3961 0.9359
-9.6159 13.9310 1.4330 0.9343
-15.8392 17.8788 2.0220 0.9086
-17.2006 16.5214 2.0190 0.9087
-34.5487 25.9616 3.6584 0.8407
-16.1990 11.1814 1.6662 0.9240
-16.0143 10.1268 1.6040 0.9268
-17.3630 10.0245 1.6972 0.9227
-28.7762 13.6544 2.6963 0.8800
-25.3155 -19.0234 1.9636 0.8808
-10.5277 -20.0589 1.4048 0.9132
-5.2269 -25.6031 1.6204 0.9006
-4.1851 -25.7522 1.6179 0.9007
-2.2475 -27.8399 1.7320 0.8941
3.2444 -26.7204 1.6691 0.8977
5.8331 -23.6659 1.5114 0.9069
7.9204 -23.7244 1.5510 0.9046
11.9358 -18.8749 1.3848 0.9144
14.2949 -19.0230 1.4756 0.9090
15.4707 -18.9481 1.5169 0.9066
17.5021 -19.7558 1.6367 0.8996
20.1348 8.5786 1.3572 0.9160
22.1761 14.0233 1.6270 0.9002
21.4252 14.7887 1.6144 0.9009
20.9688 15.7570 1.6265 0.9002
20.7250 16.9214 1.6591 0.8983
18.5159 16.4036 1.5340 0.9056
19.9890 19.1997 1.7187 0.8949
10.5290 14.0115 1.0868 0.9322
9.2459 14.6212 1.0727 0.9330
8.7698 15.1898 1.0876 0.9321
7.2899 13.8897 0.9727 0.9391
9.1287 19.2383 1.3205 0.9182
12.0575 28.3000 1.9075 0.8840
11.4555 30.2056 2.0032 0.8786
10.0012 29.9573 1.9585 0.8811
10.6606 36.8049 2.3761 0.8576
5.5548 22.5364 1.4393 0.9112
3.9402 24.2448 1.5232 0.9062
1.4594 18.0780 1.1247 0.9299
-0.0000 16.4242 1.0185 0.9363
-0.6531 16.2072 1.0058 0.9371
-1.3097 16.2239 1.0093 0.9369
-1.8815 15.4951 0.9679 0.9394
-7.6115 46.8352 2.9424 0.8268
-5.3080 26.0005 1.6456 0.8991
-5.0225 15.0441 0.9835 0.9384
-5.6990 12.0104 0.8244 0.9481
-7.4636 12.9273 0.9256 0.9419
-12.7367 18.4522 1.3903 0.9141
-13.6725 18.1948 1.4113 0.9128
-14.3863 17.6200 1.4106 0.9129
-16.3855 18.4954 1.5323 0.9057
-16.4860 15.8350 1.4175 0.9125
-34.5345 30.5949 2.8610 0.8312
-16.3913 9.4635 1.1737 0.9270
-17.7037 9.2916 1.2398 0.9230
-28.0452 10.6361 1.8600 0.8867
-30.7871 8.9176 1.9876 0.8795
-37.4492 -19.6549 1.6677 0.8443
-36.2056 -20.9033 1.6485 0.8459
-29.2720 -21.9965 1.4438 0.8637
-29.4164 -24.0178 1.4974 0.8590
-20.6735 -23.3355 1.2293 0.8827
-20.1048 -24.6240 1.2535 0.8805
-5.6697 -46.6944 1.8547 0.8284
-1.0738 -26.6451 1.0515 0.8988
-0.0001 -27.4375 1.0819 0.8960
1.1331 -28.1199 1.1097 0.8935
2.3225 -28.7700 1.1381 0.8909
3.6527 -30.0829 1.1949 0.8858
5.8343 -23.6706 0.9613 0.9070
6.9161 -23.8772 0.9802 0.9053
7.9232 -23.7330 0.9866 0.9047
9.2008 -19.3904 0.8463 0.9177
11.0691 -21.0905 0.9392 0.9091
12.4078 -19.6213 0.9154 0.9113
13.5644 -19.6515 0.9415 0.9088
14.7911 -19.6834 0.9708 0.9061
18.8666 -19.6422 1.0739 0.8967
20.4223 5.9154 0.8384 0.9184
20.0138 7.5902 0.8440 0.9179
21.2983 16.0046 1.0505 0.8988
20.4829 16.7238 1.0427 0.8996
9.9696 13.2672 0.6544 0.9357
9.3992 13.6172 0.6524 0.9359
8.4286 13.3287 0.6218 0.9388
9.6841 22.7294 0.9742 0.9058
10.9389 28.8435 1.2164 0.8838
3.6542 22.4851 0.8982 0.9128
1.8403 22.7961 0.9018 0.9125
0.6417 15.9234 0.6284 0.9382
-0.0000 15.7328 0.6204 0.9390
-1.2481 15.4604 0.6116 0.9398
-1.8434 15.1821 0.6030 0.9406
-8.9685 43.9305 1.7680 0.8357
-5.8641 13.7635 0.5899 0.9419
-6.7364 12.8352 0.5716 0.9436
-18.9481 25.2154 1.2437 0.8814
-15.3062 18.7466 0.9543 0.9077
-16.6165 17.2996 0.9458 0.9084
-15.5631 10.7424 0.7457 0.9271
-29.2670 12.4695 1.2544 0.8804
-29.6598 11.2485 1.2508 0.8807
-31.7350 10.5947 1.3192 0.8747
-22.4698 4.5872 0.9043 0.9123
-41.5808 -17.7159 0.7635 0.8346
-34.1954 -17.9471 0.6523 0.8568
-31.2382 -18.0354 0.6093 0.8656
-28.6282 -18.1034 0.5722 0.8733
-26.7992 -20.1382 0.5663 0.8745
-26.8455 -21.9187 0.5854 0.8705
-23.4295 -20.7567 0.5287 0.8823
-27.1672 -36.1530 0.7639 0.8345
-3.6295 -22.3335 0.3822 0.9135
-0.0001 -28.2160 0.4766 0.8933
3.6513 -30.0713 0.5117 0.8859
4.8270 -23.6444 0.4076 0.9080
6.2076 -25.1853 0.4382 0.9014
8.6186 -20.2287 0.3714 0.9158
9.2008 -19.3904 0.3625 0.9177
11.0662 -21.0848 0.4022 0.9091
12.4078 -19.6213 0.3921 0.9113
14.7911 -19.6834 0.4159 0.9062
18.0314 -20.3533 0.4593 0.8969
18.8666 -19.6422 0.4601 0.8968
30.2136 17.4438 0.5893 0.8697
21.2159 13.4161 0.4240 0.9045
21.1475 14.5971 0.4341 0.9023
20.9608 15.7510 0.4429 0.9004
20.6387 16.8510 0.4501 0.8989
19.8549 17.5899 0.4481 0.8993
9.3883 12.4935 0.2640 0.9394
10.5167 15.2361 0.3127 0.9286
8.8911 15.3998 0.3004 0.9313
7.3046 13.9178 0.2655 0.9391
7.9142 16.6789 0.3118 0.9288
6.4261 16.9442 0.3061 0.9301
10.2573 30.7244 0.5471 0.8785
5.6756 23.0266 0.4006 0.9095
1.4555 18.0298 0.3055 0.9302
0.6842 16.9792 0.2870 0.9343
-0.0000 16.4557 0.2780 0.9363
-1.3152 16.2911 0.2761 0.9367
-1.9757 16.2713 0.2769 0.9365
-3.3550 16.4338 0.2833 0.9351
-4.8482 14.5220 0.2586 0.9406
-5.9619 13.9930 0.2569 0.9410
-6.8167 14.3658 0.2686 0.9384
-14.2603 16.0965 0.3633 0.9176
-29.4946 30.7071 0.7192 0.8434
-32.2235 30.9512 0.7547 0.8363
-33.6962 14.3566 0.6187 0.8637
-33.3986 12.6664 0.6034 0.8668
-32.7891 10.9466 0.5839 0.8708
-33.9772 9.8416 0.5975 0.8680
-33.5361 8.2659 0.5834 0.8709
-22.4658 4.5864 0.3873 0.9124
-41.6912 -17.7630 -0.2551 0.8342
-34.1954 -17.9471 -0.2174 0.8569
-31.2382 -18.0354 -0.2031 0.8656
-28.6282 -18.1034 -0.1907 0.8733
-23.4239 -20.7518 -0.1762 0.8823
-3.5258 -21.6949 -0.1237 0.9158
-2.5783 -21.2345 -0.1204 0.9180
-1.7335 -21.4739 -0.1213 0.9174
-0.0001 -26.5858 -0.1497 0.8991
2.3988 -29.7156 -0.1678 0.8876
3.7868 -31.1870 -0.1769 0.8819
3.8675 -23.7977 -0.1357 0.9081
4.8637 -23.8237 -0.1369 0.9073
6.8627 -23.6927 -0.1389 0.9060
8.5533 -22.5533 -0.1358 0.9080
8.7867 -20.6232 -0.1262 0.9142
9.2008 -19.3904 -0.1208 0.9177
11.4327 -21.7832 -0.1385 0.9063
11.8370 -20.5022 -0.1333 0.9096
13.9590 -20.2231 -0.1384 0.9064
15.3968 -20.4894 -0.1443 0.9026
18.1773 -20.5179 -0.1543 0.8961
26.4744 16.7414 -0.1764 0.8822
21.9801 15.1717 -0.1504 0.8987
12.8815 12.3729 -0.1006 0.9310
21.7322 24.5306 -0.1845 0.8771
11.6587 14.2794 -0.1038 0.9289
10.9312 14.5467 -0.1024 0.9298
10.0584 14.5721 -0.0997 0.9316
9.4109 14.8821 -0.0991 0.9320
12.2234 25.7604 -0.1605 0.8922
7.4250 19.5782 -0.1179 0.9197
8.1962 24.5504 -0.1457 0.9016
2.0214 16.6479 -0.0944 0.9351
0.6468 16.0493 -0.0904 0.9378
-1.2616 15.6271 -0.0883 0.9392
-1.9688 16.2145 -0.0920 0.9368
-2.8149 17.3209 -0.0988 0.9322
-5.3831 14.1940 -0.0855 0.9411
-6.2698 13.2132 -0.0823 0.9432
-7.1782 13.6769 -0.0870 0.9401
-26.3226 41.6258 -0.2773 0.8212
-16.9092 24.4972 -0.1676 0.8877
-21.9919 29.2658 -0.2061 0.8638
-21.4624 26.2866 -0.1911 0.8731
-29.2149 30.4159 -0.2374 0.8448
-16.7949 12.6206 -0.1183 0.9194
-15.1477 10.4557 -0.1036 0.9290
-16.3995 9.4682 -0.1066 0.9271
-18.5992 8.8254 -0.1159 0.9210
-32.0904 13.6724 -0.1964 0.8698
-32.0687 12.1620 -0.1931 0.8718
-32.1800 10.7433 -0.1910 0.8731
-22.4617 4.5856 -0.1291 0.9124
-46.5063 -17.6375 -1.4005 0.8195
-41.6912 -17.7630 -1.2760 0.8341
-37.6563 -17.8681 -1.1736 0.8464
-34.1954 -17.9471 -1.0874 0.8568
-31.2381 -18.0354 -1.0157 0.8656
-28.6282 -18.1034 -0.9538 0.8732
-26.8456 -21.9187 -0.9759 0.8705
-23.4184 -20.7469 -0.8810 0.8823
-26.9489 -25.8848 -1.0522 0.8611
-32.7680 -36.9875 -1.3914 0.8206
-30.2529 -37.0530 -1.3469 0.8258
-6.4424 -16.9872 -0.5116 0.9299
-5.7918 -17.3485 -0.5150 0.9294
-4.9651 -17.1412 -0.5025 0.9311
-2.8241 -17.3776 -0.4957 0.9320
-2.1193 -17.4537 -0.4951 0.9321
-1.3694 -16.9626 -0.4792 0.9342
0.7009 -17.3922 -0.4901 0.9327
1.4154 -17.5328 -0.4953 0.9320
2.1219 -17.4756 -0.4957 0.9320
2.8165 -17.3307 -0.4944 0.9322
3.6292 -17.7772 -0.5109 0.9300
5.1069 -17.6311 -0.5169 0.9292
5.7920 -17.3492 -0.5150 0.9294
9.2701 -17.6627 -0.5617 0.9233
11.8372 -20.5027 -0.6666 0.9096
12.9158 -20.4247 -0.6805 0.9078
18.4842 -20.8643 -0.7849 0.8945
28.9730 -30.1640 -1.1777 0.8459
18.0193 -17.3078 -0.7035 0.9049
21.6006 -17.6363 -0.7852 0.8944
27.6287 -17.4714 -0.9205 0.8774
21.0885 14.5563 -0.7215 0.9025
18.8319 18.0883 -0.7353 0.9008
10.8260 13.2594 -0.4820 0.9338
10.3462 13.7683 -0.4849 0.9334
12.7766 24.3439 -0.7741 0.8958
10.8230 25.4028 -0.7775 0.8954
7.9225 23.7307 -0.7045 0.9047
5.9170 24.0062 -0.6962 0.9058
4.8621 23.8161 -0.6844 0.9073
3.8015 23.3910 -0.6673 0.9095
2.1914 18.0475 -0.5119 0.9298
1.2292 15.2268 -0.4301 0.9407
-0.0000 15.6459 -0.4406 0.9393
-0.6519 16.1755 -0.4558 0.9373
-1.1966 14.8225 -0.4187 0.9422
-1.9856 16.3530 -0.4638 0.9362
-2.6211 16.1279 -0.4601 0.9367
-3.3723 16.5184 -0.4747 0.9348
-4.3799 15.1213 -0.4433 0.9389
-4.9140 14.7193 -0.4369 0.9398
-6.7346 14.1929 -0.4423 0.9391
-16.9052 24.4913 -0.8380 0.8877
-22.1706 27.1541 -0.9871 0.8691
-31.8287 30.5719 -1.2427 0.8381
-15.4157 11.5841 -0.5430 0.9257
-15.5070 8.9529 -0.5042 0.9309
-16.8979 8.8687 -0.5374 0.9265
-32.6648 12.3881 -0.9837 0.8695
-32.4827 10.8443 -0.9643 0.8719
-31.2698 9.0574 -0.9167 0.8779
-49.2958 -0.0000 -2.5000 0.8208
-49.2558 -1.9849 -2.5000 0.8208
-49.1359 -3.9667 -2.5000 0.8208
-48.2995 -9.8605 -2.5000 0.8208
-43.3003 -16.4216 -2.3486 0.8307
-42.4646 -18.0924 -2.3409 0.8312
-37.5420 -17.8139 -2.1074 0.8467
-31.2381 -18.0354 -1.8293 0.8655
-26.8455 -21.9187 -1.7576 0.8704
-30.3882 -34.3012 -2.3240 0.8323
-28.9578 -35.4668 -2.3221 0.8324
-25.9534 -37.6000 -2.3170 0.8328
-24.3773 -38.5497 -2.3131 0.8330
-19.0239 -44.6508 -2.4614 0.8233
-4.9271 -17.0101 -0.8981 0.9315
-3.4818 -17.0550 -0.8828 0.9327
-0.6906 -17.1358 -0.8697 0.9336
0.6936 -17.2108 -0.8735 0.9333
1.4143 -17.5189 -0.8914 0.9320
2.0907 -17.2185 -0.8796 0.9329
2.8161 -17.3282 -0.8903 0.9321
4.2021 -17.0484 -0.8905 0.9321
5.7863 -17.3321 -0.9267 0.9294
8.3411 -17.5784 -0.9867 0.9250
12.9158 -20.4247 -1.2256 0.9077
13.9590 -20.2231 -1.2462 0.9063
15.3968 -20.4894 -1.2998 0.9024
18.0350 -17.3229 -1.2682 0.9047
23.1317 -17.3824 -1.4674 0.8906
43.6493 -22.9089 -2.5000 0.8208
44.5363 -21.1327 -2.5000 0.8208
46.7587 -15.6103 -2.5000 0.8208
47.3492 -13.7149 -2.5000 0.8208
48.2993 -9.8604 -2.5000 0.8208
49.1357 -3.9666 -2.5000 0.8208
49.2556 -1.9849 -2.5000 0.8208
49.1358 3.9667 -2.5000 0.8208
31.8206 6.4962 -1.6470 0.8780
32.2623 7.9519 -1.6851 0.8754
32.3249 10.7916 -1.7283 0.8724
31.8747 13.5805 -1.7571 0.8704
32.4261 15.3864 -1.8202 0.8661
32.4625 17.0376 -1.8593 0.8634
32.5404 20.5774 -1.9525 0.8571
28.5101 19.6791 -1.7569 0.8704
32.6748 26.6782 -2.1393 0.8446
22.2944 23.2109 -1.6322 0.8791
11.5339 16.7099 -1.0297 0.9219
9.6908 15.3247 -0.9195 0.9300
12.5702 23.9507 -1.3718 0.8973
11.6154 24.4791 -1.3741 0.8972
10.6509 24.9986 -1.3781 0.8969
14.8717 44.5461 -2.3817 0.8285
13.0856 45.1767 -2.3853 0.8283
9.4367 46.2239 -2.3926 0.8278
7.5795 46.6383 -2.3963 0.8276
2.0309 16.7257 -0.8545 0.9347
0.0000 16.2105 -0.8221 0.9371
-0.6399 15.8796 -0.8060 0.9383
-2.0288 16.7087 -0.8536 0.9348
-6.7264 15.7875 -0.8703 0.9336
-20.7203 43.6671 -2.4512 0.8240
-25.9363 41.0150 -2.4610 0.8234
-30.7588 37.6727 -2.4665 0.8230
-32.1873 36.3320 -2.4616 0.8233
-33.5550 34.9344 -2.4566 0.8237
-33.8179 32.4826 -2.3780 0.8288
-16.3558 12.2905 -1.0376 0.9213
-15.8292 10.0098 -0.9498 0.9277
-18.7281 9.8292 -1.0726 0.9188
-17.6371 8.3689 -0.9900 0.9248
-43.9815 16.6800 -2.3855 0.8283
-44.5393 12.9009 -2.3516 0.8305
-44.9456 11.0781 -2.3476 0.8308
-46.1404 3.7248 -2.3476 0.8308
-34.0959 -0.0000 -2.5000 0.8722
-33.9854 -2.7436 -2.5000 0.8722
-33.8473 -4.1098 -2.5000 0.8722
-32.7497 -9.4861 -2.5000 0.8722
-32.3412 -10.7971 -2.5000 0.8722
-31.0223 -13.2173 -2.4725 0.8735
-28.3540 -14.8813 -2.3479 0.8795
-26.8419 -15.4971 -2.2726 0.8831
-27.0617 -17.1128 -2.3477 0.8795
-26.0177 -17.9588 -2.3180 0.8809
-22.5866 -23.5151 -2.3907 0.8774
-22.2608 -25.1272 -2.4614 0.8740
-19.0697 -27.6272 -2.4614 0.8740
-12.4147 -21.5029 -1.8205 0.9052
-11.5691 -22.0432 -1.8253 0.9050
-14.3911 -30.3285 -2.4614 0.8740
-13.1582 -30.8833 -2.4614 0.8740
-6.4025 -16.8818 -1.3238 0.9301
-4.1709 -16.9220 -1.2779 0.9325
-3.4623 -16.9594 -1.2691 0.9329
-1.3691 -16.9591 -1.2475 0.9340
0.6855 -17.0095 -1.2482 0.9340
2.0913 -17.2236 -1.2721 0.9328
4.2156 -17.1031 -1.2916 0.9318
5.0633 -17.4803 -1.3344 0.9296
6.5709 -17.3261 -1.3587 0.9284
9.1833 -17.4973 -1.4489 0.9238
11.8404 -20.5081 -1.7363 0.9094
12.9158 -20.4247 -1.7719 0.9076
22.1952 -23.1076 -2.3493 0.8794
18.0295 -17.3175 -1.8330 0.9046
19.6924 -17.4459 -1.9290 0.8999
21.6681 -17.6914 -2.0510 0.8939
23.2751 -17.4901 -2.1347 0.8898
27.0608 -17.1122 -2.3476 0.8795
28.3500 -14.8792 -2.3476 0.8795
28.9261 -13.7256 -2.3476 0.8795
31.3675 -13.3645 -2.5000 0.8722
31.8802 -12.0906 -2.5000 0.8722
32.3412 -10.7971 -2.5000 0.8722
32.7497 -9.4863 -2.5000 0.8722
33.4069 -6.8201 -2.5000 0.8722
33.6544 -5.4694 -2.5000 0.8722
33.8474 -4.1098 -2.5000 0.8722
34.0684 1.3729 -2.5000 0.8722
33.9855 2.7436 -2.5000 0.8722
31.7840 3.8593 -2.3476 0.8795
24.6342 5.0291 -1.8435 0.9041
30.3842 10.1437 -2.3487 0.8794
29.4681 12.5552 -2.3486 0.8794
28.9531 13.7384 -2.3498 0.8794
27.7846 16.0414 -2.3524 0.8793
25.6980 19.3108 -2.3569 0.8790
24.9173 20.3443 -2.3586 0.8790
24.0958 21.3470 -2.3604 0.8789
20.4258 25.0171 -2.3681 0.8785
19.4191 25.8421 -2.3701 0.8784
11.5300 16.7042 -1.4882 0.9218
9.6884 15.3209 -1.3291 0.9299
12.5500 23.9122 -1.9801 0.8973
11.5975 24.4412 -1.9836 0.8972
10.6273 24.9432 -1.9880 0.8970
10.3164 30.9012 -2.3887 0.8775
6.5370 32.0204 -2.3962 0.8772
5.2480 32.2921 -2.3988 0.8770
-0.0000 14.7587 -1.0821 0.9425
-2.6496 32.8207 -2.4143 0.8763
-3.9732 32.7223 -2.4169 0.8762
-6.6538 26.9956 -2.0386 0.8945
-9.2092 31.7937 -2.4270 0.8757
-5.8197 15.3453 -1.2033 0.9363
-6.7239 15.7817 -1.2578 0.9335
-17.7238 28.0280 -2.4315 0.8755
-16.8971 24.4796 -2.1810 0.8875
-20.8970 25.5942 -2.4227 0.8759
-21.8813 24.6989 -2.4194 0.8760
-23.7291 22.7921 -2.4125 0.8764
-24.5889 21.7838 -2.4087 0.8766
-25.4047 20.7423 -2.4047 0.8767
-26.1754 19.6695 -2.4007 0.8769
-29.3153 13.9103 -2.3792 0.8780
-29.7947 12.6943 -2.3746 0.8782
-30.6002 10.2158 -2.3654 0.8786
-20.6939 5.1006 -1.5628 0.9181
-22.4494 4.5831 -1.6800 0.9122
-34.0683 1.3729 -2.5000 0.8722
-26.0402 0.0000 -2.5000 0.9006
-26.0190 -1.0485 -2.5000 0.9006
-25.9557 -2.0954 -2.5000 0.9006
-25.2834 -6.2318 -2.5000 0.9006
-25.0120 -7.2448 -2.5000 0.9006
-24.7000 -8.2461 -2.5000 0.9006
-23.9564 -10.2069 -2.5000 0.9006
-23.5260 -11.1632 -2.5000 0.9006
-23.0574 -12.1015 -2.5000 0.9006
-22.5514 -13.0201 -2.5000 0.9006
-21.8795 -13.8358 -2.4853 0.9012
-21.1773 -14.6177 -2.4704 0.9018
-15.4020 -20.4963 -2.4614 0.9021
-13.7028 -21.6691 -2.4614 0.9021
-12.8191 -22.2033 -2.4614 0.9021
-11.7308 -22.3512 -2.4234 0.9035
-9.7627 -20.5744 -2.1863 0.9126
-4.9189 -16.9819 -1.6974 0.9314
-3.4896 -17.0932 -1.6749 0.9323
-2.7780 -17.0939 -1.6626 0.9328
-2.0942 -17.2470 -1.6680 0.9326
-1.3745 -17.0259 -1.6399 0.9337
-0.6885 -17.0859 -1.6417 0.9336
-0.0000 -17.3303 -1.6638 0.9327
1.4069 -17.4280 -1.6786 0.9322
2.0853 -17.1741 -1.6609 0.9328
2.8008 -17.2343 -1.6763 0.9322
3.5907 -17.5883 -1.7234 0.9304
5.0500 -17.4345 -1.7426 0.9297
7.3915 -17.3483 -1.8104 0.9270
8.3628 -17.6242 -1.8728 0.9246
9.2740 -17.6700 -1.9159 0.9229
12.5406 -19.8314 -2.2526 0.9100
14.7031 -19.5664 -2.3497 0.9063
15.4816 -18.9616 -2.3501 0.9063
16.9630 -17.6603 -2.3509 0.9063
17.6354 -16.9390 -2.3476 0.9064
18.3031 -16.2152 -2.3476 0.9064
20.1242 -13.8908 -2.3476 0.9064
22.5514 -13.0201 -2.5000 0.9006
23.5260 -11.1632 -2.5000 0.9006
23.9564 -10.2069 -2.5000 0.9006
25.0120 -7.2448 -2.5000 0.9006
25.7029 -4.1771 -2.5000 0.9006
25.8503 -3.1388 -2.5000 0.9006
25.9557 -2.0954 -2.5000 0.9006
26.0401 0.0000 -2.5000 0.9006
25.9557 2.0954 -2.5000 0.9006
24.2744 2.9474 -2.3476 0.9064
23.9582 4.8911 -2.3476 0.9064
17.2802 5.0053 -1.7272 0.9303
14.9702 4.9978 -1.5152 0.9385
21.3292 12.3144 -2.3645 0.9058
20.8258 13.1694 -2.3656 0.9057
20.2886 14.0042 -2.3668 0.9057
19.7185 14.8175 -2.3680 0.9056
19.1163 15.6080 -2.3693 0.9056
17.8191 17.1154 -2.3720 0.9055
17.1260 17.8300 -2.3735 0.9054
11.5261 16.6985 -1.9480 0.9217
9.6860 15.3171 -1.7399 0.9298
12.4121 21.4983 -2.3832 0.9051
11.5449 21.9970 -2.3850 0.9050
10.6578 22.4609 -2.3868 0.9049
8.8296 23.2817 -2.3905 0.9048
5.9732 24.2341 -2.3962 0.9046
4.0103 24.6763 -2.4001 0.9044
2.0150 24.9599 -2.4041 0.9043
-2.0216 25.0420 -2.4120 0.9040
-5.0375 24.6755 -2.4178 0.9038
-6.0288 24.4597 -2.4185 0.9037
-7.0060 24.1873 -2.4175 0.9038
-6.7215 15.7760 -1.6463 0.9334
-11.6682 22.2319 -2.4105 0.9040
-12.5444 21.7275 -2.4087 0.9041
-13.3982 21.1876 -2.4067 0.9042
-15.0329 20.0052 -2.4024 0.9043
-16.5611 18.6936 -2.3977 0.9045
-17.9724 17.2627 -2.3925 0.9047
-20.4064 14.0856 -2.3805 0.9052
-20.9290 13.2347 -2.3773 0.9053
-21.8654 11.4758 -2.3707 0.9055
-22.2780 10.5710 -2.3674 0.9057
-22.6527 9.6514 -2.3639 0.9058
-15.0622 5.0285 -1.5245 0.9382
-17.4666 5.0593 -1.7458 0.9295
-26.0190 1.0485 -2.5000 0.9006
-21.0291 -0.8475 -2.5000 0.9187
-20.9779 -1.6935 -2.5000 0.9187
-20.8927 -2.5368 -2.5000 0.9187
-20.6208 -4.2098 -2.5000 0.9187
-20.4346 -5.0367 -2.5000 0.9187
-18.6354 -9.7806 -2.5000 0.9187
-18.2265 -10.5231 -2.5000 0.9187
-15.6891 -13.8992 -2.4898 0.9190
-13.7631 -15.5354 -2.4654 0.9198
-13.1260 -16.0765 -2.4653 0.9198
-11.0748 -17.5134 -2.4614 0.9199
-9.0334 -17.2118 -2.3090 0.9247
-6.4376 -16.9746 -2.1565 0.9295
-5.7144 -17.1167 -2.1435 0.9299
-4.9433 -17.0661 -2.1106 0.9309
-4.2397 -17.2008 -2.1044 0.9311
-2.1125 -17.3983 -2.0818 0.9318
2.8091 -17.2851 -2.0802 0.9319
5.7712 -17.2869 -2.1649 0.9292
7.4033 -17.3763 -2.2436 0.9267
9.1931 -17.5160 -2.3498 0.9234
9.8816 -17.1154 -2.3476 0.9235
10.5627 -16.7036 -2.3476 0.9235
11.2267 -16.2648 -2.3476 0.9235
11.8726 -15.7995 -2.3476 0.9235
12.4991 -15.3086 -2.3476 0.9235
13.6904 -14.2532 -2.3476 0.9235
14.2533 -13.6904 -2.3476 0.9235
16.8252 -12.6433 -2.5000 0.9187
17.3206 -11.9556 -2.5000 0.9187
19.3620 -8.2494 -2.5000 0.9187
19.6785 -7.4631 -2.5000 0.9187
20.2152 -5.8554 -2.5000 0.9187
20.6208 -4.2098 -2.5000 0.9187
20.8927 -2.5368 -2.5000 0.9187
20.9779 -1.6935 -2.5000 0.9187
21.0291 -0.8475 -2.5000 0.9187
21.0461 0.0000 -2.5000 0.9187
20.9779 1.6935 -2.5000 0.9187
19.5072 3.1702 -2.3476 0.9235
19.1889 4.7296 -2.3476 0.9235
17.2802 5.0053 -2.1370 0.9301
11.7509 5.0066 -1.5172 0.9498
17.6169 9.2461 -2.3633 0.9230
17.2492 9.9588 -2.3659 0.9229
16.4265 11.3384 -2.3709 0.9227
14.4391 13.8689 -2.3782 0.9225
13.2897 15.0010 -2.3806 0.9224
12.0525 16.0390 -2.3832 0.9224
10.0487 17.4048 -2.3873 0.9222
9.3453 17.8060 -2.3887 0.9222
7.8919 18.5231 -2.3917 0.9221
7.1442 18.8377 -2.3932 0.9221
5.6124 19.3763 -2.3962 0.9220
2.4380 20.0785 -2.4026 0.9218
0.8146 20.2144 -2.4031 0.9217
-0.6972 17.3022 -2.0569 0.9326
-3.2441 19.9613 -2.4022 0.9218
-5.6218 19.4086 -2.4002 0.9218
-6.3963 19.1592 -2.3993 0.9219
-10.0733 17.4475 -2.3931 0.9221
-10.7607 17.0166 -2.3916 0.9221
-11.4292 16.5580 -2.3899 0.9222
-13.3107 15.0247 -2.3844 0.9223
-13.8931 14.4642 -2.3823 0.9224
-14.4514 13.8807 -2.3802 0.9225
-15.4912 12.6481 -2.3756 0.9226
-16.4246 11.3371 -2.3707 0.9228
-16.8496 10.6550 -2.3681 0.9228
-10.4793 4.9725 -1.3778 0.9544
-11.7013 4.9855 -1.5108 0.9501
-19.1894 4.7298 -2.3477 0.9235
-19.5073 3.1702 -2.3476 0.9235
-20.9779 1.6935 -2.5000 0.9187
-21.0291 0.8475 -2.5000 0.9187
-17.6441 0.0000 -2.5000 0.9312
-17.6298 -0.7104 -2.5000 0.9312
-16.9475 -4.9089 -2.5000 0.9312
-16.7361 -5.5873 -2.5000 0.9312
-16.4975 -6.2567 -2.5000 0.9312
-16.2322 -6.9159 -2.5000 0.9312
-15.9406 -7.5639 -2.5000 0.9312
-15.2803 -8.8221 -2.5000 0.9312
-14.5208 -10.0230 -2.5000 0.9312
-14.1055 -10.5996 -2.5000 0.9312
-13.6672 -11.1589 -2.5000 0.9312
-13.2066 -11.7003 -2.5000 0.9312
-12.2225 -12.7250 -2.5000 0.9312
-11.1480 -13.6539 -2.4975 0.9313
-10.5667 -14.0617 -2.4922 0.9314
-8.2795 -14.3405 -2.3462 0.9353
-6.4943 -15.2427 -2.3476 0.9353
-5.8753 -15.4918 -2.3476 0.9353
-5.2467 -15.7159 -2.3476 0.9353
-3.9651 -16.0871 -2.3476 0.9353
-3.3141 -16.2337 -2.3476 0.9353
-1.9971 -16.4478 -2.3476 0.9353
-1.3332 -16.5148 -2.3476 0.9353
0.6671 -16.5551 -2.3476 0.9353
1.3332 -16.5148 -2.3476 0.9353
1.9971 -16.4477 -2.3476 0.9353
3.3141 -16.2337 -2.3476 0.9353
5.2467 -15.7159 -2.3476 0.9353
7.6998 -14.6707 -2.3476 0.9353
8.8553 -14.0036 -2.3476 0.9353
9.9534 -13.2456 -2.3476 0.9353
10.7785 -13.2013 -2.4148 0.9335
11.6815 -13.1856 -2.4960 0.9313
12.2225 -12.7250 -2.5000 0.9312
13.2068 -11.7002 -2.5000 0.9312
14.1055 -10.5996 -2.5000 0.9312
14.9126 -9.4302 -2.5000 0.9312
15.2803 -8.8221 -2.5000 0.9312
15.6231 -8.1996 -2.5000 0.9312
15.9406 -7.5639 -2.5000 0.9312
16.2322 -6.9159 -2.5000 0.9312
17.1314 -4.2225 -2.5000 0.9312
17.2875 -3.5293 -2.5000 0.9312
7.2359 -0.0000 -1.0253 0.9712
7.4465 0.3001 -1.0559 0.9703
17.5155 2.1268 -2.5000 0.9312
16.7398 2.7205 -2.4030 0.9338
16.2337 3.3141 -2.3476 0.9353
13.1626 4.9920 -1.9946 0.9447
11.7508 5.0066 -1.8098 0.9497
8.6208 4.9772 -1.4104 0.9606
13.3507 10.0324 -2.3662 0.9348
12.5204 11.0921 -2.3700 0.9347
11.6048 12.0819 -2.3736 0.9346
10.6097 12.9946 -2.3769 0.9345
10.0844 13.4200 -2.3785 0.9344
9.5418 13.8237 -2.3800 0.9344
8.9826 14.2049 -2.3813 0.9344
8.4079 14.5630 -2.3826 0.9343
4.6901 16.1921 -2.3885 0.9342
4.0354 16.3723 -2.3892 0.9341
3.3737 16.5253 -2.3898 0.9341
2.0337 16.7489 -2.3906 0.9341
1.3578 16.8190 -2.3908 0.9341
0.6795 16.8611 -2.3910 0.9341
-0.0000 16.8752 -2.3910 0.9341
-2.0337 16.7490 -2.3906 0.9341
-2.7061 16.6511 -2.3902 0.9341
-3.3737 16.5255 -2.3898 0.9341
-4.0355 16.3724 -2.3892 0.9341
-5.8157 15.3346 -2.3238 0.9359
-6.6007 15.4924 -2.3860 0.9342
-7.2161 15.2075 -2.3850 0.9343
-7.8189 14.8976 -2.3839 0.9343
-8.4081 14.5633 -2.3827 0.9343
-9.5420 13.8239 -2.3800 0.9344
-10.0847 13.4203 -2.3785 0.9344
-10.6100 12.9949 -2.3770 0.9345
-11.1171 12.5486 -2.3754 0.9345
-12.9462 10.5702 -2.3681 0.9347
-13.7309 9.4778 -2.3640 0.9348
-8.5901 4.9595 -1.4054 0.9607
-9.4439 4.9566 -1.5112 0.9578
-13.1960 5.0046 -1.9997 0.9446
-15.9144 4.6097 -2.3476 0.9353
-16.0871 3.9651 -2.3476 0.9353
-16.2337 3.3142 -2.3476 0.9353
-16.6185 2.7008 -2.3856 0.9342
-15.1754 -0.0000 -2.5000 0.9403
-15.1631 -0.6111 -2.5000 0.9403
-15.1262 -1.2211 -2.5000 0.9403
-15.0648 -1.8292 -2.5000 0.9403
-14.9789 -2.4343 -2.5000 0.9403
-14.1893 -5.3813 -2.5000 0.9403
-13.9611 -5.9483 -2.5000 0.9403
-13.7102 -6.5056 -2.5000 0.9403
-13.1423 -7.5877 -2.5000 0.9403
-12.1319 -9.1165 -2.5000 0.9403
-11.7550 -9.5976 -2.5000 0.9403
-10.5124 -10.9445 -2.5000 0.9403
-9.5976 -11.7550 -2.5000 0.9403
-9.1165 -12.1319 -2.5000 0.9403
-8.1107 -12.8261 -2.5000 0.9403
-7.5877 -13.1423 -2.5000 0.9403
-5.6331 -13.2213 -2.3675 0.9434
-4.5126 -13.5169 -2.3476 0.9439
-3.9647 -13.6877 -2.3476 0.9439
-3.4103 -13.8362 -2.3476 0.9439
-1.7177 -14.1464 -2.3476 0.9439
-1.1467 -14.2041 -2.3476 0.9439
-0.5738 -14.2387 -2.3476 0.9439
-0.0000 -14.2503 -2.3476 0.9439
0.5738 -14.2387 -2.3476 0.9439
1.1467 -14.2041 -2.3476 0.9439
2.8504 -13.9623 -2.3476 0.9439
3.9647 -13.6877 -2.3476 0.9439
4.5126 -13.5169 -2.3476 0.9439
6.2660 -13.2057 -2.4080 0.9425
6.9260 -13.1965 -2.4552 0.9414
8.1108 -12.8261 -2.5000 0.9403
9.5976 -11.7550 -2.5000 0.9403
10.0632 -11.3589 -2.5000 0.9403
10.5124 -10.9446 -2.5000 0.9403
10.9445 -10.5124 -2.5000 0.9403
11.3590 -10.0632 -2.5000 0.9403
11.7550 -9.5976 -2.5000 0.9403
12.8261 -8.1107 -2.5000 0.9403
13.1423 -7.5877 -2.5000 0.9403
13.4372 -7.0524 -2.5000 0.9403
14.1892 -5.3813 -2.5000 0.9403
14.5763 -4.2221 -2.5000 0.9403
15.0648 -1.8292 -2.5000 0.9403
6.7365 -0.5438 -1.1134 0.9730
6.5934 -0.2657 -1.0871 0.9736
6.5920 -0.0000 -1.0860 0.9736
6.6345 0.2674 -1.0938 0.9734
14.9789 2.4343 -2.5000 0.9403
13.9623 2.8504 -2.3476 0.9439
13.6877 3.9647 -2.3476 0.9439
13.1372 4.9823 -2.3146 0.9446
11.4899 5.4520 -2.0951 0.9497
9.4886 4.9800 -1.7654 0.9575
10.3576 9.9486 -2.3659 0.9434
9.5354 10.7632 -2.3689 0.9434
9.0996 11.1449 -2.3702 0.9433
8.6482 11.5087 -2.3716 0.9433
8.1821 11.8538 -2.3728 0.9433
7.7020 12.1797 -2.3740 0.9433
7.2087 12.4858 -2.3751 0.9432
6.7030 12.7716 -2.3761 0.9432
6.1858 13.0364 -2.3771 0.9432
5.6580 13.2798 -2.3780 0.9432
5.1204 13.5014 -2.3788 0.9431
4.5740 13.7008 -2.3795 0.9431
4.0197 13.8776 -2.3802 0.9431
3.4585 14.0315 -2.3807 0.9431
2.3190 14.2695 -2.3816 0.9431
1.7428 14.3531 -2.3819 0.9431
1.1636 14.4130 -2.3821 0.9431
0.5823 14.4490 -2.3822 0.9431
0.0000 14.4610 -2.3823 0.9431
-0.5823 14.4490 -2.3822 0.9431
-1.1636 14.4130 -2.3821 0.9431
-2.8913 14.1623 -2.3812 0.9431
-3.4585 14.0316 -2.3807 0.9431
-5.6581 13.2800 -2.3780 0.9432
-6.1859 13.0365 -2.3771 0.9432
-7.7022 12.1800 -2.3740 0.9433
-8.1822 11.8540 -2.3729 0.9433
-9.5356 10.7634 -2.3689 0.9434
-9.9552 10.3644 -2.3675 0.9434
-10.7428 9.5172 -2.3644 0.9435
-6.5754 4.9411 -1.3550 0.9672
-11.7857 8.1350 -2.3592 0.9436
-7.8050 4.9356 -1.5213 0.9633
-9.4439 4.9566 -1.7570 0.9577
-10.4735 4.9697 -1.9098 0.9541
-13.1641 4.9925 -2.3194 0.9445
-13.6877 3.9647 -2.3476 0.9439
-13.9623 2.8504 -2.3476 0.9439
-14.9789 2.4343 -2.5000 0.9403
-15.0648 1.8292 -2.5000 0.9403
-15.1262 1.2211 -2.5000 0.9403
-15.1631 0.6110 -2.5000 0.9403
-13.2574 -1.0703 -2.5000 0.9473
-13.2036 -1.6032 -2.5000 0.9473
-12.7754 -3.7004 -2.5000 0.9473
-12.6161 -4.2119 -2.5000 0.9473
-12.0164 -5.7018 -2.5000 0.9473
-11.7771 -6.1811 -2.5000 0.9473
-11.2415 -7.1087 -2.5000 0.9473
-10.9461 -7.5556 -2.5000 0.9473
-9.9556 -8.8199 -2.5000 0.9473
-7.9902 -10.6330 -2.5000 0.9473
-7.5556 -10.9461 -2.5000 0.9473
-6.6503 -11.5186 -2.5000 0.9473
-6.1811 -11.7771 -2.5000 0.9473
-5.7019 -12.0164 -2.5000 0.9473
-5.2134 -12.2362 -2.5000 0.9473
-3.1830 -12.9141 -2.5000 0.9473
-0.0000 -13.1966 -2.4804 0.9477
0.5318 -13.1958 -2.4823 0.9477
1.6018 -13.1922 -2.4978 0.9473
2.1336 -13.1283 -2.5000 0.9473
2.6605 -13.0318 -2.5000 0.9473
3.1830 -12.9141 -2.5000 0.9473
5.2131 -12.2362 -2.5000 0.9473
6.1811 -11.7771 -2.5000 0.9473
6.6503 -11.5186 -2.5000 0.9473
7.5556 -10.9462 -2.5000 0.9473
7.9902 -10.6330 -2.5000 0.9473
8.4119 -10.3027 -2.5000 0.9473
8.8199 -9.9556 -2.5000 0.9473
9.5924 -9.2136 -2.5000 0.9473
10.3027 -8.4119 -2.5000 0.9473
10.6330 -7.9902 -2.5000 0.9473
11.2415 -7.1087 -2.5000 0.9473
11.5186 -6.6503 -2.5000 0.9473
11.7771 -6.1811 -2.5000 0.9473
12.0164 -5.7019 -2.5000 0.9473
12.7754 -3.7005 -2.5000 0.9473
12.9141 -3.1830 -2.5000 0.9473
13.1283 -2.1336 -2.5000 0.9473
13.2036 -1.6032 -2.5000 0.9473
6.2861 -0.5075 -1.1854 0.9747
6.2745 -0.2529 -1.1803 0.9748
6.2781 -0.0000 -1.1800 0.9748
6.3011 0.2539 -1.1853 0.9747
13.2036 1.6032 -2.5000 0.9473
13.1283 2.1336 -2.5000 0.9473
13.0318 2.6604 -2.5000 0.9473
11.9966 3.4749 -2.3476 0.9504
11.8470 3.9551 -2.3476 0.9504
11.4903 4.8956 -2.3476 0.9504
8.6208 4.9772 -1.8710 0.9603
7.1870 4.9609 -1.6414 0.9651
5.6071 4.9675 -1.4081 0.9700
8.7077 9.0657 -2.3627 0.9501
6.7347 10.6501 -2.3685 0.9500
5.4080 11.3972 -2.3712 0.9500
4.9464 11.6095 -2.3719 0.9499
4.4762 11.8028 -2.3726 0.9499
3.5137 12.1308 -2.3738 0.9499
2.5272 12.3789 -2.3747 0.9499
2.0270 12.4724 -2.3751 0.9499
0.5089 12.6288 -2.3756 0.9499
-1.5233 12.5453 -2.3753 0.9499
-2.5272 12.3789 -2.3747 0.9499
-3.0231 12.2650 -2.3743 0.9499
-3.5137 12.1309 -2.3739 0.9499
-5.4081 11.3974 -2.3712 0.9500
-5.8606 11.1664 -2.3704 0.9500
-6.3031 10.9172 -2.3695 0.9500
-7.1551 10.3659 -2.3675 0.9500
-8.3402 9.4142 -2.3640 0.9501
-8.7079 9.0659 -2.3628 0.9501
-9.0608 8.7030 -2.3614 0.9502
-6.0465 4.9369 -1.4672 0.9687
-6.5580 4.9280 -1.5419 0.9672
-7.8050 4.9356 -1.7357 0.9631
-8.5720 4.9491 -1.8604 0.9605
-11.4904 4.8956 -2.3476 0.9504
-11.8470 3.9551 -2.3476 0.9504
-13.0318 2.6604 -2.5000 0.9473
-13.1283 2.1335 -2.5000 0.9473
-13.2574 1.0702 -2.5000 0.9473
-13.2898 0.5356 -2.5000 0.9473
-11.8174 -0.4762 -2.5000 0.9528
-11.5880 -2.3657 -2.5000 0.9528
-11.0584 -4.1939 -2.5000 0.9528
-10.8806 -4.6358 -2.5000 0.9528
-10.4722 -5.4963 -2.5000 0.9528
-9.9960 -6.3211 -2.5000 0.9528
-9.7334 -6.7185 -2.5000 0.9528
-9.4550 -7.1050 -2.5000 0.9528
-9.1612 -7.4799 -2.5000 0.9528
-8.8526 -7.8427 -2.5000 0.9528
-8.5296 -8.1928 -2.5000 0.9528
-8.1928 -8.5296 -2.5000 0.9528
-5.0701 -10.6851 -2.5000 0.9528
-3.7452 -11.2183 -2.5000 0.9528
-3.2905 -11.3600 -2.5000 0.9528
-2.8304 -11.4833 -2.5000 0.9528
-1.8972 -11.6738 -2.5000 0.9528
-0.9517 -11.7886 -2.5000 0.9528
-0.4762 -11.8174 -2.5000 0.9528
0.0000 -11.8270 -2.5000 0.9528
1.8972 -11.6738 -2.5000 0.9528
2.3657 -11.5880 -2.5000 0.9528
3.2905 -11.3600 -2.5000 0.9528
3.7452 -11.2183 -2.5000 0.9528
4.1939 -11.0584 -2.5000 0.9528
4.6358 -10.8806 -2.5000 0.9528
5.4962 -10.4723 -2.5000 0.9528
5.9135 -10.2425 -2.5000 0.9528
6.3211 -9.9960 -2.5000 0.9528
6.7185 -9.7334 -2.5000 0.9528
7.1050 -9.4550 -2.5000 0.9528
8.5296 -8.1928 -2.5000 0.9528
9.7334 -6.7185 -2.5000 0.9528
9.9961 -6.3211 -2.5000 0.9528
10.2425 -5.9135 -2.5000 0.9528
10.8806 -4.6358 -2.5000 0.9528
11.2183 -3.7452 -2.5000 0.9528
11.4833 -2.8304 -2.5000 0.9528
11.6738 -1.8972 -2.5000 0.9528
6.1062 -0.4930 -1.2949 0.9753
11.7408 1.4256 -2.5000 0.9528
11.5880 2.3657 -2.5000 0.9528
11.0237 2.7171 -2.3999 0.9546
10.6675 3.0899 -2.3476 0.9556
10.5345 3.5169 -2.3476 0.9556
10.3843 3.9382 -2.3476 0.9556
9.4886 4.9800 -2.2652 0.9571
8.6208 4.9772 -2.1043 0.9601
9.4020 5.9454 -2.3514 0.9555
7.2286 4.9896 -1.8566 0.9647
6.6148 4.9707 -1.7490 0.9667
4.7687 4.9647 -1.4551 0.9722
7.4040 8.3575 -2.3602 0.9554
5.5941 9.6894 -2.3650 0.9553
4.7995 10.1147 -2.3665 0.9553
3.9722 10.4738 -2.3678 0.9552
3.5481 10.6278 -2.3684 0.9552
2.2424 10.9840 -2.3697 0.9552
1.7985 11.0668 -2.3700 0.9552
0.9023 11.1775 -2.3704 0.9552
-0.0000 11.2145 -2.3705 0.9552
-0.4516 11.2053 -2.3705 0.9552
-0.9023 11.1775 -2.3704 0.9552
-1.3516 11.1313 -2.3702 0.9552
-3.1179 10.7644 -2.3689 0.9552
-3.9722 10.4739 -2.3679 0.9552
-4.7995 10.1148 -2.3666 0.9553
-5.2013 9.9102 -2.3658 0.9553
-6.3510 9.2010 -2.3632 0.9553
-7.0649 8.6529 -2.3613 0.9554
-5.5662 4.9312 -1.5719 0.9701
-8.5718 4.9489 -2.0922 0.9603
-10.0337 4.7610 -2.3476 0.9556
-10.2173 4.3532 -2.3476 0.9556
-10.3843 3.9382 -2.3476 0.9556
-10.5344 3.5169 -2.3476 0.9556
-10.6675 3.0899 -2.3476 0.9556
-11.5879 2.3657 -2.5000 0.9528
-11.6738 1.8972 -2.5000 0.9528
-11.7886 0.9517 -2.5000 0.9528
-10.6286 -0.4283 -2.5000 0.9572
-10.6027 -0.8560 -2.5000 0.9572
-10.5596 -1.2822 -2.5000 0.9572
-10.4222 -2.1277 -2.5000 0.9572
-10.2172 -2.9595 -2.5000 0.9572
-10.0898 -3.3685 -2.5000 0.9572
-9.9459 -3.7720 -2.5000 0.9572
-9.7860 -4.1694 -2.5000 0.9572
-8.5038 -6.3902 -2.5000 0.9572
-7.3687 -7.6716 -2.5000 0.9572
-7.0538 -7.9621 -2.5000 0.9572
-6.7274 -8.2396 -2.5000 0.9572
-5.6852 -8.9904 -2.5000 0.9572
-5.3186 -9.2121 -2.5000 0.9572
-4.5601 -9.6102 -2.5000 0.9572
-4.1694 -9.7860 -2.5000 0.9572
-3.3685 -10.0898 -2.5000 0.9572
-2.9595 -10.2172 -2.5000 0.9572
-2.5457 -10.3281 -2.5000 0.9572
-2.1277 -10.4222 -2.5000 0.9572
-1.2822 -10.5596 -2.5000 0.9572
-0.8559 -10.6027 -2.5000 0.9572
1.2822 -10.5596 -2.5000 0.9572
1.7063 -10.4994 -2.5000 0.9572
2.1277 -10.4222 -2.5000 0.9572
3.3685 -10.0898 -2.5000 0.9572
4.5601 -9.6102 -2.5000 0.9572
5.3186 -9.2121 -2.5000 0.9572
5.6852 -8.9904 -2.5000 0.9572
6.0426 -8.7542 -2.5000 0.9572
6.3902 -8.5038 -2.5000 0.9572
6.7275 -8.2396 -2.5000 0.9572
7.0538 -7.9621 -2.5000 0.9572
7.3686 -7.6716 -2.5000 0.9572
7.6716 -7.3687 -2.5000 0.9572
7.9621 -7.0538 -2.5000 0.9572
8.2396 -6.7274 -2.5000 0.9572
9.2121 -5.3186 -2.5000 0.9572
9.4188 -4.9433 -2.5000 0.9572
9.6102 -4.5601 -2.5000 0.9572
9.9460 -3.7720 -2.5000 0.9572
10.0898 -3.3685 -2.5000 0.9572
10.3281 -2.5457 -2.5000 0.9572
10.4222 -2.1277 -2.5000 0.9572
10.4994 -1.7063 -2.5000 0.9572
5.9347 -0.4791 -1.3993 0.9758
5.9262 -0.2388 -1.3939 0.9759
5.9339 -0.0000 -1.3946 0.9759
5.9790 0.4827 -1.4098 0.9757
10.4995 1.7063 -2.5000 0.9572
10.4222 2.1277 -2.5000 0.9572
10.3281 2.5456 -2.5000 0.9572
9.5944 2.7790 -2.3476 0.9598
9.4747 3.1631 -2.3476 0.9598
9.0243 4.2821 -2.3476 0.9598
8.8446 4.6420 -2.3476 0.9598
8.6004 4.9655 -2.3340 0.9600
8.4483 5.3424 -2.3492 0.9598
6.0859 4.9690 -1.8465 0.9682
5.6071 4.9675 -1.7605 0.9697
3.7282 4.9614 -1.4586 0.9748
3.4239 4.9604 -1.4166 0.9755
5.0238 8.7014 -2.3614 0.9596
4.6707 8.8994 -2.3621 0.9595
4.3098 9.0828 -2.3628 0.9595
3.9416 9.2513 -2.3634 0.9595
3.5668 9.4048 -2.3640 0.9595
2.7995 9.6651 -2.3649 0.9595
2.4085 9.7716 -2.3653 0.9595
2.0133 9.8621 -2.3656 0.9595
1.2135 9.9941 -2.3661 0.9595
0.8102 10.0355 -2.3662 0.9595
-0.4054 10.0604 -2.3663 0.9595
-0.8102 10.0355 -2.3663 0.9595
-1.2135 9.9942 -2.3661 0.9595
-2.0134 9.8621 -2.3656 0.9595
-2.4085 9.7717 -2.3653 0.9595
-2.7996 9.6652 -2.3649 0.9595
-3.1859 9.5429 -2.3645 0.9595
-3.5668 9.4049 -2.3640 0.9595
-3.9417 9.2514 -2.3634 0.9595
-4.3099 9.0829 -2.3628 0.9595
-4.6708 8.8995 -2.3621 0.9595
-5.3684 8.4894 -2.3607 0.9596
-3.4086 4.9383 -1.4102 0.9756
-4.0303 4.9362 -1.4977 0.9742
-5.1232 4.9210 -1.6695 0.9712
-5.5662 4.9312 -1.7477 0.9699
-6.0467 4.9370 -1.8346 0.9684
-8.2303 5.6810 -2.3504 0.9597
-7.8050 4.9356 -2.1703 0.9628
-9.0243 4.2821 -2.3476 0.9598
-9.1894 3.9153 -2.3476 0.9598
-9.4747 3.1631 -2.3476 0.9598
-9.5944 2.7790 -2.3476 0.9598
-10.3281 2.5456 -2.5000 0.9572
-10.4222 2.1277 -2.5000 0.9572
-10.4994 1.7063 -2.5000 0.9572
-10.5596 1.2822 -2.5000 0.9572
-10.6027 0.8559 -2.5000 0.9572
-10.6286 0.4283 -2.5000 0.9572
-9.6477 -0.3888 -2.5000 0.9609
-9.6242 -0.7770 -2.5000 0.9609
-9.4604 -1.9313 -2.5000 0.9609
-9.2743 -2.6863 -2.5000 0.9609
-9.1586 -3.0576 -2.5000 0.9609
-8.8829 -3.7846 -2.5000 0.9609
-8.7233 -4.1392 -2.5000 0.9609
-8.5495 -4.4872 -2.5000 0.9609
-8.3619 -4.8278 -2.5000 0.9609
-8.1607 -5.1605 -2.5000 0.9609
-6.6886 -6.9636 -2.5000 0.9609
-6.1066 -7.4792 -2.5000 0.9609
-5.8005 -7.7190 -2.5000 0.9609
-5.1605 -8.1607 -2.5000 0.9609
-4.8277 -8.3619 -2.5000 0.9609
-4.4871 -8.5495 -2.5000 0.9609
-3.7847 -8.8829 -2.5000 0.9609
-3.4239 -9.0281 -2.5000 0.9609
-3.0576 -9.1586 -2.5000 0.9609
-2.3107 -9.3749 -2.5000 0.9609
-1.5488 -9.5305 -2.5000 0.9609
1.1639 -9.5851 -2.5000 0.9609
1.9313 -9.4604 -2.5000 0.9609
2.6863 -9.2743 -2.5000 0.9609
3.7846 -8.8829 -2.5000 0.9609
5.4849 -7.9463 -2.5000 0.9609
5.8005 -7.7190 -2.5000 0.9609
6.1066 -7.4792 -2.5000 0.9609
6.6886 -6.9636 -2.5000 0.9609
7.2273 -6.4028 -2.5000 0.9609
7.7190 -5.8005 -2.5000 0.9609
7.9463 -5.4850 -2.5000 0.9609
8.3619 -4.8278 -2.5000 0.9609
8.8829 -3.7846 -2.5000 0.9609
9.0281 -3.4239 -2.5000 0.9609
9.2743 -2.6863 -2.5000 0.9609
9.3749 -2.3107 -2.5000 0.9609
9.4604 -1.9313 -2.5000 0.9609
9.5305 -1.5488 -2.5000 0.9609
5.8513 -0.7105 -1.5261 0.9759
5.7939 -0.4677 -1.5050 0.9763
5.7898 -0.2333 -1.5003 0.9763
5.7974 -0.0000 -1.5010 0.9763
5.8078 0.2340 -1.5050 0.9763
5.8272 0.4704 -1.5137 0.9761
9.5851 1.1638 -2.5000 0.9609
9.4604 1.9314 -2.5000 0.9609
9.2743 2.6863 -2.5000 0.9609
8.3414 3.5539 -2.3476 0.9632
7.6627 4.8456 -2.3474 0.9632
7.2284 4.9894 -2.2741 0.9644
6.6148 4.9707 -2.1424 0.9664
6.0859 4.9690 -2.0343 0.9681
6.5533 6.2945 -2.3527 0.9632
4.7687 4.9647 -1.7824 0.9720
4.4059 4.9733 -1.7203 0.9729
4.0421 4.9507 -1.6548 0.9739
3.1362 4.9595 -1.5193 0.9760
4.5545 7.8885 -2.3585 0.9631
3.9070 8.2338 -2.3597 0.9630
2.1116 4.9562 -1.3948 0.9780
3.2332 8.5253 -2.3608 0.9630
2.8879 8.6503 -2.3612 0.9630
2.5377 8.7610 -2.3616 0.9630
2.1832 8.8574 -2.3620 0.9630
1.8250 8.9393 -2.3623 0.9630
1.0999 9.0588 -2.3627 0.9630
0.3675 9.1188 -2.3629 0.9630
-0.7343 9.0963 -2.3628 0.9630
-1.0999 9.0588 -2.3627 0.9630
-1.4637 9.0064 -2.3625 0.9630
-2.5377 8.7611 -2.3616 0.9630
-3.2333 8.5254 -2.3608 0.9630
-3.5732 8.3865 -2.3603 0.9630
-3.9070 8.2339 -2.3597 0.9630
-2.5932 4.9409 -1.4448 0.9772
-3.1233 4.9392 -1.5131 0.9761
-3.4086 4.9382 -1.5536 0.9755
-4.3618 4.9235 -1.7031 0.9732
-4.7391 4.9339 -1.7713 0.9721
-5.5662 4.9313 -1.9254 0.9697
-6.0468 4.9371 -2.0212 0.9683
-6.5580 4.9280 -2.1240 0.9667
-7.4647 5.1525 -2.3485 0.9632
-7.6633 4.8460 -2.3476 0.9632
-8.6003 2.8712 -2.3476 0.9632
-9.2693 2.6849 -2.4986 0.9609
-9.3749 2.3107 -2.5000 0.9609
-9.4604 1.9313 -2.5000 0.9609
-9.5305 1.5488 -2.5000 0.9609
-9.6242 0.7769 -2.5000 0.9609
-9.6477 0.3888 -2.5000 0.9609
-8.8238 -0.3556 -2.5000 0.9640
-8.8023 -0.7106 -2.5000 0.9640
-8.7666 -1.0645 -2.5000 0.9640
-8.5743 -2.1134 -2.5000 0.9640
-8.4823 -2.4569 -2.5000 0.9640
-8.1243 -3.4614 -2.5000 0.9640
-7.8194 -4.1040 -2.5000 0.9640
-6.8405 -5.5851 -2.5000 0.9640
-6.6101 -5.8560 -2.5000 0.9640
-6.3689 -6.1174 -2.5000 0.9640
-5.8560 -6.6101 -2.5000 0.9640
-5.5851 -6.8405 -2.5000 0.9640
-5.3051 -7.0599 -2.5000 0.9640
-4.7198 -7.4639 -2.5000 0.9640
-4.4155 -7.6478 -2.5000 0.9640
-4.1039 -7.8194 -2.5000 0.9640
-3.7858 -7.9783 -2.5000 0.9640
-3.4614 -8.1243 -2.5000 0.9640
-2.7965 -8.3765 -2.5000 0.9640
-2.4569 -8.4823 -2.5000 0.9640
-1.7664 -8.6525 -2.5000 0.9640
-1.4166 -8.7166 -2.5000 0.9640
-1.0645 -8.7666 -2.5000 0.9640
-0.7106 -8.8023 -2.5000 0.9640
-0.3556 -8.8238 -2.5000 0.9640
0.0000 -8.8310 -2.5000 0.9640
0.7106 -8.8023 -2.5000 0.9640
2.4569 -8.4823 -2.5000 0.9640
2.7965 -8.3765 -2.5000 0.9640
3.1315 -8.2571 -2.5000 0.9640
4.1039 -7.8194 -2.5000 0.9640
4.4155 -7.6478 -2.5000 0.9640
4.7199 -7.4638 -2.5000 0.9640
5.0166 -7.2678 -2.5000 0.9640
5.5851 -6.8405 -2.5000 0.9640
5.8560 -6.6101 -2.5000 0.9640
6.1174 -6.3689 -2.5000 0.9640
6.3689 -6.1174 -2.5000 0.9640
6.6101 -5.8560 -2.5000 0.9640
6.8405 -5.5851 -2.5000 0.9640
7.0598 -5.3051 -2.5000 0.9640
7.4638 -4.7199 -2.5000 0.9640
7.6479 -4.4155 -2.5000 0.9640
7.9784 -3.7858 -2.5000 0.9640
8.2571 -3.1315 -2.5000 0.9640
8.3765 -2.7965 -2.5000 0.9640
8.4823 -2.4569 -2.5000 0.9640
8.7166 -1.4166 -2.5000 0.9640
5.7849 -0.7024 -1.6497 0.9761
5.7480 0.2316 -1.6285 0.9764
8.6525 1.7664 -2.5000 0.9640
8.5744 2.1134 -2.5000 0.9640
7.7537 2.9406 -2.3476 0.9661
7.4920 3.5550 -2.3476 0.9661
7.3428 3.8538 -2.3476 0.9661
7.0088 4.4321 -2.3476 0.9661
6.8247 4.7107 -2.3476 0.9661
5.6071 4.9675 -2.1207 0.9693
4.4058 4.9732 -1.8809 0.9728
4.0567 4.9686 -1.8158 0.9737
3.7282 4.9614 -1.7569 0.9745
3.4158 4.9487 -1.7022 0.9753
3.1287 4.9477 -1.6572 0.9760
4.1612 7.2073 -2.3560 0.9660
3.5695 7.5225 -2.3571 0.9660
2.1116 4.9562 -1.5251 0.9779
1.6541 4.9547 -1.4787 0.9785
1.4349 4.9539 -1.4601 0.9788
1.2246 4.9683 -1.4486 0.9790
-0.0000 8.3368 -2.3601 0.9659
-0.3357 8.3300 -2.3601 0.9659
-0.3995 4.9480 -1.4053 0.9796
-1.2189 4.9454 -1.4419 0.9790
-1.4322 4.9447 -1.4573 0.9788
-2.6383 7.9025 -2.3585 0.9660
-1.8747 4.9432 -1.4966 0.9783
-2.1058 4.9425 -1.5209 0.9779
-4.1612 7.2074 -2.3560 0.9660
-3.7101 4.9373 -1.7483 0.9747
-4.0303 4.9362 -1.8040 0.9739
-4.7391 4.9339 -1.9367 0.9720
-5.5662 4.9313 -2.1052 0.9696
-6.5425 4.9164 -2.3168 0.9666
-7.1816 4.1463 -2.3476 0.9661
-7.4920 3.5550 -2.3476 0.9661
-7.6290 3.2504 -2.3476 0.9661
-7.7537 2.9406 -2.3476 0.9661
-8.4823 2.4569 -2.5000 0.9640
-8.6525 1.7664 -2.5000 0.9640
-8.7166 1.4166 -2.5000 0.9640
-8.8023 0.7106 -2.5000 0.9640
-8.1280 -0.0000 -2.5000 0.9666
-8.0227 -1.3038 -2.5000 0.9666
-7.9637 -1.6258 -2.5000 0.9666
-7.8918 -1.9451 -2.5000 0.9666
-7.7097 -2.5739 -2.5000 0.9666
-7.5998 -2.8822 -2.5000 0.9666
-7.4776 -3.1859 -2.5000 0.9666
-7.1970 -3.7772 -2.5000 0.9666
-6.6892 -4.6172 -2.5000 0.9666
-6.2960 -5.1405 -2.5000 0.9666
-6.0839 -5.3898 -2.5000 0.9666
-5.8619 -5.6304 -2.5000 0.9666
-5.3898 -6.0839 -2.5000 0.9666
-5.1405 -6.2960 -2.5000 0.9666
-4.8828 -6.4978 -2.5000 0.9666
-4.3441 -6.8697 -2.5000 0.9666
-4.0640 -7.0390 -2.5000 0.9666
-3.7772 -7.1970 -2.5000 0.9666
-2.8822 -7.5998 -2.5000 0.9666
-1.3038 -8.0227 -2.5000 0.9666
-0.6540 -8.1016 -2.5000 0.9666
0.0000 -8.1280 -2.5000 0.9666
0.3273 -8.1214 -2.5000 0.9666
0.9797 -8.0687 -2.5000 0.9666
1.3038 -8.0227 -2.5000 0.9666
2.2613 -7.8071 -2.5000 0.9666
2.5739 -7.7097 -2.5000 0.9666
2.8822 -7.5998 -2.5000 0.9666
3.4844 -7.3432 -2.5000 0.9666
4.0640 -7.0390 -2.5000 0.9666
4.3441 -6.8697 -2.5000 0.9666
5.1405 -6.2960 -2.5000 0.9666
5.3898 -6.0839 -2.5000 0.9666
5.8619 -5.6304 -2.5000 0.9666
6.4978 -4.8828 -2.5000 0.9666
7.0390 -4.0640 -2.5000 0.9666
7.1970 -3.7772 -2.5000 0.9666
7.4775 -3.1859 -2.5000 0.9666
5.7181 -0.4616 -1.7645 0.9763
5.7213 -0.0000 -1.7598 0.9763
5.7374 0.2312 -1.7661 0.9763
5.9925 0.7276 -1.8567 0.9751
7.9637 1.6258 -2.5000 0.9666
7.8918 1.9451 -2.5000 0.9666
7.7097 2.5739 -2.5000 0.9666
6.8956 3.2720 -2.3476 0.9686
6.6099 3.8162 -2.3476 0.9686
6.2814 4.3357 -2.3476 0.9686
5.6071 4.9675 -2.3042 0.9691
5.5080 5.2905 -2.3490 0.9685
4.7687 4.9647 -2.1174 0.9716
4.0566 4.9685 -1.9728 0.9735
3.1362 4.9595 -1.8048 0.9757
2.6020 4.9577 -1.7221 0.9768
2.7160 7.1616 -2.3558 0.9685
1.4349 4.9539 -1.5864 0.9786
1.2230 4.9618 -1.5718 0.9788
0.8048 4.9519 -1.5431 0.9792
0.3996 4.9506 -1.5276 0.9794
0.3086 7.6589 -2.3576 0.9684
-0.1994 4.9487 -1.5233 0.9795
-0.3995 4.9480 -1.5268 0.9794
-0.6007 4.9473 -1.5329 0.9794
-1.2294 7.5648 -2.3573 0.9684
-1.2189 4.9454 -1.5666 0.9789
-1.4322 4.9447 -1.5834 0.9787
-2.4259 7.2663 -2.3562 0.9684
-1.8747 4.9432 -1.6261 0.9781
-2.3393 4.9300 -1.6784 0.9774
-3.1233 4.9392 -1.7974 0.9758
-3.4086 4.9382 -1.8456 0.9752
-4.7391 4.9339 -2.1042 0.9718
-5.5080 5.2905 -2.3491 0.9685
-5.9121 4.8271 -2.3476 0.9686
-6.1017 4.5851 -2.3476 0.9686
-6.4509 4.0793 -2.3476 0.9686
-6.7582 3.5470 -2.3476 0.9686
-7.1650 2.7173 -2.3570 0.9684
-7.8070 2.2613 -2.5000 0.9666
-7.9637 1.6258 -2.5000 0.9666
-8.0227 1.3038 -2.5000 0.9666
-8.1016 0.6540 -2.5000 0.9666
-8.1214 0.3273 -2.5000 0.9666
-7.5148 -0.3028 -2.5000 0.9688
-7.4235 -1.2064 -2.5000 0.9688
-7.1338 -2.3816 -2.5000 0.9688
-7.0321 -2.6669 -2.5000 0.9688
-6.7947 -3.2242 -2.5000 0.9688
-6.5133 -3.7604 -2.5000 0.9688
-6.3566 -4.0197 -2.5000 0.9688
-6.1896 -4.2723 -2.5000 0.9688
-6.0125 -4.5181 -2.5000 0.9688
-5.8257 -4.7566 -2.5000 0.9688
-5.6295 -4.9873 -2.5000 0.9688
-5.4241 -5.2099 -2.5000 0.9688
-4.2724 -6.1896 -2.5000 0.9688
-3.7605 -6.5133 -2.5000 0.9688
-3.2242 -6.7948 -2.5000 0.9688
-1.7999 -7.3023 -2.5000 0.9688
-1.5044 -7.3689 -2.5000 0.9688
-0.9066 -7.4661 -2.5000 0.9688
-0.6052 -7.4965 -2.5000 0.9688
-0.3028 -7.5148 -2.5000 0.9688
0.9065 -7.4661 -2.5000 0.9688
1.5044 -7.3689 -2.5000 0.9688
1.7999 -7.3023 -2.5000 0.9688
2.0925 -7.2240 -2.5000 0.9688
2.9479 -6.9191 -2.5000 0.9688
3.2241 -6.7947 -2.5000 0.9688
3.4951 -6.6594 -2.5000 0.9688
4.0197 -6.3566 -2.5000 0.9688
4.5181 -6.0125 -2.5000 0.9688
5.2099 -5.4241 -2.5000 0.9688
5.6295 -4.9873 -2.5000 0.9688
5.8257 -4.7566 -2.5000 0.9688
6.0125 -4.5181 -2.5000 0.9688
6.1896 -4.2724 -2.5000 0.9688
6.3566 -4.0197 -2.5000 0.9688
6.9191 -2.9479 -2.5000 0.9688
7.0321 -2.6669 -2.5000 0.9688
7.2239 -2.0925 -2.5000 0.9688
7.3024 -1.7999 -2.5000 0.9688
7.3689 -1.5044 -2.5000 0.9688
7.4235 -1.2064 -2.5000 0.9688
5.7154 -0.6940 -1.9138 0.9760
5.6960 -0.2296 -1.8949 0.9763
5.9424 0.7215 -1.9898 0.9751
7.1338 2.3816 -2.5000 0.9688
6.2535 3.2821 -2.3476 0.9707
6.1162 3.5312 -2.3476 0.9707
5.6460 4.2427 -2.3476 0.9707
5.2863 4.6832 -2.3476 0.9707
5.0934 4.8923 -2.3476 0.9707
4.4057 4.9730 -2.2084 0.9724
4.0565 4.9684 -2.1320 0.9733
3.4239 4.9604 -2.0035 0.9749
3.1362 4.9595 -1.9505 0.9756
2.6020 4.9577 -1.8612 0.9767
1.4349 4.9539 -1.7144 0.9785
0.1990 4.9382 -1.6428 0.9794
-0.1990 4.9369 -1.6424 0.9794
-0.8020 4.9350 -1.6619 0.9791
-1.2160 4.9337 -1.6890 0.9788
-2.2428 6.7179 -2.3542 0.9706
-1.8747 4.9432 -1.7573 0.9780
-3.0347 6.3954 -2.3531 0.9706
-3.1233 4.9392 -1.9425 0.9757
-3.4086 4.9383 -1.9946 0.9750
-3.7101 4.9373 -2.0529 0.9743
-4.0303 4.9362 -2.1183 0.9735
-5.0935 4.8924 -2.3476 0.9707
-5.2863 4.6832 -2.3476 0.9707
-5.4706 4.4666 -2.3476 0.9707
-5.6460 4.2427 -2.3476 0.9707
-5.8123 4.0119 -2.3476 0.9707
-6.2534 3.2821 -2.3476 0.9707
-6.4973 2.7682 -2.3476 0.9707
-7.1338 2.3816 -2.5000 0.9688
-7.2239 2.0924 -2.5000 0.9688
-7.3023 1.7999 -2.5000 0.9688
-7.3689 1.5044 -2.5000 0.9688
-6.9909 -0.0000 -2.5000 0.9707
-6.9852 -0.2815 -2.5000 0.9707
-6.8496 -1.3984 -2.5000 0.9707
-6.7877 -1.6730 -2.5000 0.9707
-6.7149 -1.9450 -2.5000 0.9707
-6.6311 -2.2138 -2.5000 0.9707
-6.5366 -2.4790 -2.5000 0.9707
-6.3159 -2.9969 -2.5000 0.9707
-5.9086 -3.7364 -2.5000 0.9707
-5.5888 -4.1997 -2.5000 0.9707
-5.0418 -4.8427 -2.5000 0.9707
-4.8427 -5.0418 -2.5000 0.9707
-3.7364 -5.9086 -2.5000 0.9707
-3.4954 -6.0543 -2.5000 0.9707
-2.9969 -6.3159 -2.5000 0.9707
-2.7402 -6.4315 -2.5000 0.9707
-2.2138 -6.6311 -2.5000 0.9707
-1.9450 -6.7149 -2.5000 0.9707
-1.6730 -6.7877 -2.5000 0.9707
-1.3984 -6.8496 -2.5000 0.9707
-0.8427 -6.9399 -2.5000 0.9707
-0.2815 -6.9852 -2.5000 0.9707
0.0000 -6.9909 -2.5000 0.9707
0.5625 -6.9682 -2.5000 0.9707
0.8427 -6.9399 -2.5000 0.9707
1.3984 -6.8496 -2.5000 0.9707
2.4790 -6.5366 -2.5000 0.9707
2.7402 -6.4315 -2.5000 0.9707
3.2488 -6.1901 -2.5000 0.9707
3.7364 -5.9086 -2.5000 0.9707
3.9713 -5.7534 -2.5000 0.9707
4.1997 -5.5888 -2.5000 0.9707
5.4152 -4.4213 -2.5000 0.9707
5.5888 -4.1997 -2.5000 0.9707
5.9086 -3.7364 -2.5000 0.9707
6.0543 -3.4954 -2.5000 0.9707
6.1901 -3.2488 -2.5000 0.9707
6.3159 -2.9969 -2.5000 0.9707
6.4314 -2.7402 -2.5000 0.9707
6.7149 -1.9450 -2.5000 0.9707
5.6912 -0.4594 -2.0418 0.9760
5.6939 -0.2295 -2.0378 0.9761
6.9003 1.1214 -2.5000 0.9707
6.3415 2.7018 -2.4650 0.9711
5.6852 3.2823 -2.3476 0.9725
5.2481 3.9437 -2.3476 0.9725
4.9138 4.3532 -2.3476 0.9725
4.7345 4.5475 -2.3476 0.9725
3.4239 4.9604 -2.1554 0.9747
2.6020 4.9577 -2.0023 0.9765
2.1116 4.9562 -1.9265 0.9774
2.3324 6.1501 -2.3522 0.9724
1.4349 4.9539 -1.8444 0.9783
1.2228 4.9613 -1.8273 0.9785
1.3163 6.4475 -2.3532 0.9724
0.8048 4.9519 -1.7941 0.9789
0.3996 4.9506 -1.7761 0.9791
0.2650 6.5765 -2.3537 0.9724
0.0000 6.5819 -2.3537 0.9724
-0.1994 4.9487 -1.7711 0.9792
-1.0557 6.4958 -2.3534 0.9724
-1.3163 6.4476 -2.3533 0.9724
-1.4322 4.9447 -1.8409 0.9784
-3.2865 5.6923 -2.3505 0.9725
-3.1233 4.9392 -2.0898 0.9755
-3.4086 4.9382 -2.1458 0.9748
-3.7101 4.9373 -2.2085 0.9741
-4.3534 4.9140 -2.3477 0.9725
-4.5475 4.7345 -2.3476 0.9725
-4.9137 4.3532 -2.3476 0.9725
-5.0850 4.1518 -2.3476 0.9725
-5.8128 3.0508 -2.3476 0.9725
-5.9309 2.8142 -2.3476 0.9725
-6.3240 2.6944 -2.4582 0.9712
-6.5366 2.4790 -2.5000 0.9707
-6.6311 2.2138 -2.5000 0.9707
-6.7149 1.9450 -2.5000 0.9707
-6.7877 1.6730 -2.5000 0.9707
-6.8496 1.3983 -2.5000 0.9707
-6.9003 1.1214 -2.5000 0.9707
-6.9399 0.8426 -2.5000 0.9707
-6.9682 0.5625 -2.5000 0.9707
-6.5025 -0.5249 -2.5000 0.9724
-6.4761 -0.7863 -2.5000 0.9724
-6.3918 -1.3049 -2.5000 0.9724
-6.3341 -1.5612 -2.5000 0.9724
-6.1879 -2.0658 -2.5000 0.9724
-6.0997 -2.3133 -2.5000 0.9724
-6.0016 -2.5571 -2.5000 0.9724
-5.8938 -2.7967 -2.5000 0.9724
-5.6496 -3.2618 -2.5000 0.9724
-5.5137 -3.4867 -2.5000 0.9724
-5.3689 -3.7059 -2.5000 0.9724
-5.0533 -4.1259 -2.5000 0.9724
-4.8830 -4.3260 -2.5000 0.9724
-4.7049 -4.5191 -2.5000 0.9724
-4.5191 -4.7049 -2.5000 0.9724
-4.3260 -4.8830 -2.5000 0.9724
-4.1259 -5.0533 -2.5000 0.9724
