ply
format ascii 1.0
element vertex 1574
property float32 x
property float32 y
property float32 z
property float32 I
end_header
12.9105 -20.4163 -1.7712 0.9077
15.3903 -20.4807 -1.8784 0.9024
16.4197 -20.1105 -1.9036 0.9011
18.8628 -21.2917 -2.0857 0.8922
22.1948 -23.1073 -2.3492 0.8794
18.2075 -17.4885 -1.8511 0.9037
21.5774 -17.6174 -2.0425 0.8943
23.3422 -17.5405 -2.1409 0.8895
25.6589 -17.7111 -2.2860 0.8825
27.0608 -17.1122 -2.3476 0.8795
31.3675 -13.3644 -2.5000 0.8722
31.8802 -12.0906 -2.5000 0.8722
32.3412 -10.7971 -2.5000 0.8722
32.7497 -9.4861 -2.5000 0.8722
33.6544 -5.4694 -2.5000 0.8722
34.0684 1.3729 -2.5000 0.8722
33.9854 2.7436 -2.5000 0.8722
31.7840 3.8593 -2.3476 0.8795
31.6029 5.1360 -2.3476 0.8795
20.3565 5.0175 -1.5373 0.9194
29.9414 11.3553 -2.3479 0.8795
28.9584 13.7409 -2.3502 0.8794
27.7897 16.0444 -2.3528 0.8792
25.7027 19.3143 -2.3574 0.8790
24.9218 20.3481 -2.3590 0.8789
24.1002 21.3509 -2.3608 0.8789
23.2388 22.3212 -2.3626 0.8788
21.4022 24.1581 -2.3665 0.8786
20.4296 25.0217 -2.3685 0.8785
18.3827 26.6320 -2.3727 0.8783
11.5424 30.4349 -2.3866 0.8776
10.3182 30.9068 -2.3891 0.8775
6.5382 32.0262 -2.3967 0.8771
3.9484 32.5180 -2.4018 0.8769
1.3218 32.8008 -2.4070 0.8766
-1.3247 32.8715 -2.4122 0.8764
-5.2942 32.5762 -2.4199 0.8760
-9.2108 31.7995 -2.4274 0.8757
-14.2487 30.0286 -2.4371 0.8752
-15.4431 29.4243 -2.4365 0.8752
-16.5987 28.7498 -2.4341 0.8753
-18.8165 27.2604 -2.4287 0.8756
-20.8971 25.5942 -2.4227 0.8759
-21.8814 24.6989 -2.4194 0.8760
-23.7290 22.7920 -2.4124 0.8764
-26.1753 19.6694 -2.4007 0.8769
-26.8996 18.5675 -2.3966 0.8771
-28.7853 15.1076 -2.3836 0.8778
-29.3152 13.9102 -2.3792 0.8780
-30.9252 8.9576 -2.3607 0.8789
-31.6187 5.1385 -2.3488 0.8794
-33.1679 2.6776 -2.4399 0.8751
-25.9557 -2.0954 -2.5000 0.9006
-25.8503 -3.1388 -2.5000 0.9006
-25.7030 -4.1772 -2.5000 0.9006
-25.5139 -5.2087 -2.5000 0.9006
-25.0120 -7.2448 -2.5000 0.9006
-24.7000 -8.2461 -2.5000 0.9006
-24.3479 -9.2340 -2.5000 0.9006
-23.5260 -11.1632 -2.5000 0.9006
-23.0574 -12.1015 -2.5000 0.9006
-21.8780 -13.8348 -2.4851 0.9012
-21.1755 -14.6164 -2.4702 0.9018
-19.1971 -17.0071 -2.4622 0.9021
-18.4924 -17.7621 -2.4617 0.9021
-17.7602 -18.4903 -2.4614 0.9021
-17.0013 -19.1905 -2.4614 0.9021
-14.5642 -21.0998 -2.4614 0.9021
-13.7028 -21.6691 -2.4614 0.9021
-10.3104 -21.7287 -2.3090 0.9079
-4.2145 -17.0986 -1.6907 0.9317
-3.4761 -17.0272 -1.6684 0.9325
-1.3828 -17.1290 -1.6498 0.9333
-0.6951 -17.2476 -1.6572 0.9330
-0.0000 -17.0166 -1.6337 0.9339
0.6898 -17.1159 -1.6446 0.9335
1.3975 -17.3110 -1.6673 0.9326
2.3218 -14.2868 -1.3896 0.9435
3.5318 -17.2996 -1.6951 0.9315
4.2237 -17.1360 -1.6944 0.9315
5.0796 -17.5369 -1.7528 0.9293
5.7908 -17.3458 -1.7556 0.9292
9.1508 -17.4353 -1.8904 0.9239
12.5408 -19.8316 -2.2527 0.9100
13.5585 -19.6430 -2.2914 0.9085
14.7029 -19.5661 -2.3497 0.9063
16.9627 -17.6601 -2.3509 0.9063
18.3031 -16.2152 -2.3476 0.9064
20.1242 -13.8907 -2.3476 0.9064
20.8736 -13.1996 -2.3710 0.9055
23.5260 -11.1632 -2.5000 0.9006
24.3479 -9.2340 -2.5000 0.9006
24.7000 -8.2461 -2.5000 0.9006
25.5139 -5.2087 -2.5000 0.9006
25.8503 -3.1388 -2.5000 0.9006
25.9557 -2.0954 -2.5000 0.9006
26.0190 -1.0485 -2.5000 0.9006
26.0401 -0.0000 -2.5000 0.9006
26.0190 1.0485 -2.5000 0.9006
24.1361 3.9225 -2.3476 0.9064
23.9581 4.8911 -2.3475 0.9064
17.3184 5.0164 -1.7310 0.9301
14.9873 5.0035 -1.5169 0.9385
22.6341 9.6435 -2.3620 0.9059
22.2360 10.5511 -2.3629 0.9058
21.8021 11.4426 -2.3639 0.9058
20.8296 13.1718 -2.3660 0.9057
20.2923 14.0068 -2.3672 0.9057
18.4862 16.3774 -2.3711 0.9055
16.4075 18.5203 -2.3754 0.9054
15.6588 19.1785 -2.3770 0.9053
9.7773 15.4616 -1.7563 0.9291
10.2970 21.7004 -2.3060 0.9080
9.7541 22.8936 -2.3891 0.9048
8.8312 23.2860 -2.3909 0.9048
7.8926 23.6413 -2.3928 0.9047
5.9743 24.2386 -2.3967 0.9046
4.9975 24.4793 -2.3986 0.9045
4.0110 24.6808 -2.4006 0.9044
1.0093 25.0460 -2.4065 0.9042
-3.0313 24.9652 -2.4144 0.9039
-6.0288 24.4597 -2.4185 0.9037
-7.0060 24.1873 -2.4175 0.9038
-8.9206 23.5217 -2.4151 0.9039
-10.7711 22.6996 -2.4122 0.9040
-11.6682 22.2319 -2.4105 0.9040
-13.3983 21.1876 -2.4067 0.9042
-14.2282 20.6131 -2.4046 0.9043
-16.5611 18.6936 -2.3977 0.9045
-17.9723 17.2626 -2.3924 0.9047
-19.2563 15.7223 -2.3866 0.9049
-17.1239 10.8285 -1.9451 0.9218
-21.8653 11.4758 -2.3707 0.9055
-22.2779 10.5709 -2.3673 0.9057
-22.6525 9.6513 -2.3639 0.9058
-23.5452 6.8200 -2.3534 0.9062
-20.7040 5.1031 -2.0472 0.9179
-22.0722 4.5061 -2.1627 0.9135
-24.2746 2.9475 -2.3476 0.9064
-25.9557 2.0954 -2.5000 0.9006
-26.0191 1.0485 -2.5000 0.9006
-20.6208 -4.2098 -2.5000 0.9187
-19.9630 -6.6646 -2.5000 0.9187
-19.6785 -7.4630 -2.5000 0.9187
-19.0142 -9.0223 -2.5000 0.9187
-18.2263 -10.5231 -2.5000 0.9187
-16.8252 -12.6433 -2.5000 0.9187
-16.2984 -13.3071 -2.4993 0.9187
-14.4108 -15.0032 -2.4711 0.9196
-11.7710 -17.0533 -2.4614 0.9199
-11.0748 -17.5134 -2.4614 0.9199
-9.7192 -16.8341 -2.3090 0.9247
-8.3331 -17.5615 -2.3090 0.9247
-5.7166 -17.1231 -2.1443 0.9299
-4.9566 -17.1121 -2.1162 0.9308
-4.2079 -17.0721 -2.0886 0.9316
-3.4946 -17.1176 -2.0753 0.9320
-2.0579 -16.9486 -2.0280 0.9335
-1.3807 -17.1030 -2.0382 0.9332
-0.7005 -17.3816 -2.0664 0.9323
1.4011 -17.3554 -2.0683 0.9323
3.5511 -17.3947 -2.1089 0.9310
4.2538 -17.2581 -2.1114 0.9309
5.7823 -17.3203 -2.1690 0.9291
6.6271 -17.4743 -2.2200 0.9275
9.8816 -17.1154 -2.3476 0.9235
11.2267 -16.2648 -2.3476 0.9235
12.4991 -15.3086 -2.3476 0.9235
13.6904 -14.2532 -2.3476 0.9235
16.1472 -13.1838 -2.4762 0.9195
16.8252 -12.6433 -2.5000 0.9187
17.3206 -11.9556 -2.5000 0.9187
17.7880 -11.2484 -2.5000 0.9187
18.6354 -9.7806 -2.5000 0.9187
19.0141 -9.0223 -2.5000 0.9187
19.3620 -8.2494 -2.5000 0.9187
19.9630 -6.6646 -2.5000 0.9187
20.2152 -5.8554 -2.5000 0.9187
20.7736 -3.3760 -2.5000 0.9187
21.0291 -0.8475 -2.5000 0.9187
21.0461 0.0000 -2.5000 0.9187
21.0291 0.8474 -2.5000 0.9187
20.8927 2.5368 -2.5000 0.9187
19.5072 3.1703 -2.3476 0.9235
19.1889 4.7296 -2.3476 0.9235
17.3182 5.0163 -2.1417 0.9299
14.9871 5.0035 -1.8769 0.9383
13.1358 4.9818 -1.6688 0.9450
10.5050 4.9847 -1.3812 0.9542
17.2491 9.9588 -2.3659 0.9229
16.8521 10.6566 -2.3685 0.9228
16.4264 11.3384 -2.3709 0.9227
15.9728 12.0028 -2.3733 0.9227
15.4918 12.6487 -2.3757 0.9226
14.4417 13.8715 -2.3786 0.9225
13.2921 15.0037 -2.3810 0.9224
12.6839 15.5350 -2.3823 0.9224
9.7746 15.4573 -2.1724 0.9290
10.0505 17.4080 -2.3877 0.9222
9.3470 17.8093 -2.3892 0.9222
8.6276 18.1823 -2.3906 0.9221
7.8934 18.5265 -2.3921 0.9221
4.8317 19.6030 -2.3982 0.9219
4.0411 19.7946 -2.3998 0.9218
3.2429 19.9544 -2.4014 0.9218
1.6278 20.1636 -2.4029 0.9217
-0.0000 20.2313 -2.4032 0.9217
-0.8146 20.2144 -2.4031 0.9217
-4.0442 19.8099 -2.4017 0.9218
-5.6218 19.4086 -2.4002 0.9218
-6.3963 19.1592 -2.3993 0.9219
-7.1596 18.8782 -2.3983 0.9219
-7.9102 18.5658 -2.3972 0.9219
-9.3683 17.8498 -2.3946 0.9220
-12.7053 15.5611 -2.3863 0.9223
-13.3107 15.0247 -2.3844 0.9223
-15.9715 12.0018 -2.3731 0.9227
-16.4245 11.3370 -2.3706 0.9228
-16.8495 10.6550 -2.3681 0.9228
-17.6129 9.2439 -2.3628 0.9230
-13.1723 4.9956 -1.6734 0.9448
-15.0710 5.0315 -1.8874 0.9380
-19.1895 4.7298 -2.3477 0.9235
-20.9779 1.6935 -2.5000 0.9187
-21.0291 0.8475 -2.5000 0.9187
-17.6441 -0.0000 -2.5000 0.9312
-17.6298 -0.7105 -2.5000 0.9312
-17.4156 -2.8303 -2.5000 0.9312
-16.4976 -6.2567 -2.5000 0.9312
-16.2323 -6.9159 -2.5000 0.9312
-14.5208 -10.0230 -2.5000 0.9312
-14.1055 -10.5996 -2.5000 0.9312
-13.6672 -11.1589 -2.5000 0.9312
-12.7250 -12.2225 -2.5000 0.9312
-11.1475 -13.6532 -2.4974 0.9313
-10.5658 -14.0605 -2.4920 0.9314
-7.6968 -14.6651 -2.3467 0.9353
-7.1028 -14.9689 -2.3476 0.9353
-6.4943 -15.2427 -2.3476 0.9353
-5.8753 -15.4919 -2.3476 0.9353
-5.2467 -15.7159 -2.3476 0.9353
-4.6097 -15.9144 -2.3476 0.9353
-0.0000 -16.5685 -2.3476 0.9353
0.6671 -16.5551 -2.3476 0.9353
1.3332 -16.5148 -2.3476 0.9353
2.3103 -14.2158 -2.0407 0.9435
3.3141 -16.2337 -2.3476 0.9353
3.9651 -16.0871 -2.3476 0.9353
4.6096 -15.9144 -2.3476 0.9353
5.2467 -15.7158 -2.3476 0.9353
5.8753 -15.4918 -2.3476 0.9353
6.4943 -15.2427 -2.3476 0.9353
7.1028 -14.9688 -2.3476 0.9353
8.2843 -14.3488 -2.3476 0.9353
8.8553 -14.0035 -2.3476 0.9353
9.9534 -13.2456 -2.3476 0.9353
11.6797 -13.1836 -2.4956 0.9313
12.2225 -12.7250 -2.5000 0.9312
12.7243 -12.2225 -2.5000 0.9312
13.2068 -11.7002 -2.5000 0.9312
13.6672 -11.1589 -2.5000 0.9312
14.5208 -10.0230 -2.5000 0.9312
15.6231 -8.1996 -2.5000 0.9312
15.9406 -7.5639 -2.5000 0.9312
16.7361 -5.5873 -2.5000 0.9312
16.9475 -4.9089 -2.5000 0.9312
17.1314 -4.2225 -2.5000 0.9312
17.4156 -2.8303 -2.5000 0.9312
17.5155 -2.1268 -2.5000 0.9312
17.6298 -0.7104 -2.5000 0.9312
17.6441 -0.0000 -2.5000 0.9312
17.6298 0.7104 -2.5000 0.9312
17.5869 1.4198 -2.5000 0.9312
16.0871 3.9651 -2.3476 0.9353
15.9144 4.6097 -2.3476 0.9353
14.9869 5.0034 -2.2387 0.9382
13.1669 4.9936 -1.9953 0.9447
10.4801 4.9729 -1.6436 0.9542
9.4911 4.9813 -1.5188 0.9576
13.7321 9.4786 -2.3642 0.9348
13.3506 10.0323 -2.3662 0.9348
12.9465 10.5705 -2.3682 0.9347
12.5204 11.0921 -2.3700 0.9347
12.0729 11.5962 -2.3719 0.9346
11.6048 12.0818 -2.3736 0.9346
11.1168 12.5483 -2.3753 0.9345
10.0844 13.4199 -2.3785 0.9344
9.5417 13.8236 -2.3799 0.9344
8.9826 14.2049 -2.3813 0.9344
8.4079 14.5630 -2.3826 0.9343
7.8187 14.8973 -2.3838 0.9343
7.2159 15.2072 -2.3850 0.9343
6.6006 15.4922 -2.3860 0.9342
5.3366 15.9850 -2.3878 0.9342
4.6901 16.1920 -2.3885 0.9342
4.0354 16.3722 -2.3892 0.9341
3.3737 16.5253 -2.3898 0.9341
2.0337 16.7489 -2.3906 0.9341
1.3578 16.8190 -2.3908 0.9341
-0.6795 16.8611 -2.3910 0.9341
-1.3578 16.8191 -2.3908 0.9341
-2.0337 16.7490 -2.3906 0.9341
-2.7061 16.6510 -2.3902 0.9341
-3.3737 16.5254 -2.3898 0.9341
-4.6902 16.1922 -2.3886 0.9342
-5.3367 15.9852 -2.3878 0.9342
-5.9739 15.7518 -2.3870 0.9342
-6.6007 15.4924 -2.3860 0.9342
-7.2161 15.2075 -2.3850 0.9343
-7.8189 14.8976 -2.3839 0.9343
-9.5420 13.8239 -2.3800 0.9344
-10.0847 13.4203 -2.3785 0.9344
-10.6100 12.9949 -2.3770 0.9345
-12.0732 11.5965 -2.3719 0.9346
-12.5203 11.0920 -2.3700 0.9347
-12.9461 10.5701 -2.3681 0.9347
-13.7308 9.4777 -2.3640 0.9348
-14.0886 8.9091 -2.3618 0.9349
-8.5715 4.9488 -1.4024 0.9608
-10.4552 4.9611 -1.6397 0.9543
-15.0710 5.0315 -2.2513 0.9378
-16.2338 3.3141 -2.3476 0.9353
-16.6166 2.7005 -2.3853 0.9343
-17.6298 0.7105 -2.5000 0.9312
-15.1754 0.0000 -2.5000 0.9403
-15.0648 -1.8292 -2.5000 0.9403
-14.8687 -3.0355 -2.5000 0.9403
-14.7345 -3.6317 -2.5000 0.9403
-14.5763 -4.2221 -2.5000 0.9403
-13.9611 -5.9483 -2.5000 0.9403
-13.7102 -6.5056 -2.5000 0.9403
-12.8261 -8.1107 -2.5000 0.9403
-12.1319 -9.1165 -2.5000 0.9403
-11.7549 -9.5976 -2.5000 0.9403
-11.3590 -10.0632 -2.5000 0.9403
-10.5124 -10.9445 -2.5000 0.9403
-10.0632 -11.3589 -2.5000 0.9403
-9.1165 -12.1319 -2.5000 0.9403
-8.6206 -12.4891 -2.5000 0.9403
-7.5877 -13.1423 -2.5000 0.9403
-7.0400 -13.4137 -2.4956 0.9404
-6.2885 -13.2527 -2.4166 0.9423
-5.6329 -13.2208 -2.3674 0.9434
-4.5126 -13.5169 -2.3476 0.9439
-3.9647 -13.6877 -2.3476 0.9439
-3.4104 -13.8362 -2.3476 0.9439
-2.2859 -14.0658 -2.3476 0.9439
-1.7177 -14.1464 -2.3476 0.9439
-1.1467 -14.2041 -2.3476 0.9439
2.2859 -14.0658 -2.3476 0.9439
2.8504 -13.9623 -2.3476 0.9439
3.4103 -13.8362 -2.3476 0.9439
4.5126 -13.5169 -2.3476 0.9439
5.0529 -13.3243 -2.3476 0.9439
5.6293 -13.2123 -2.3659 0.9434
6.9252 -13.1949 -2.4549 0.9414
7.5877 -13.1423 -2.5000 0.9403
8.6206 -12.4891 -2.5000 0.9403
10.5124 -10.9445 -2.5000 0.9403
11.3589 -10.0631 -2.5000 0.9403
11.7549 -9.5976 -2.5000 0.9403
12.1319 -9.1165 -2.5000 0.9403
13.9611 -5.9483 -2.5000 0.9403
14.1892 -5.3813 -2.5000 0.9403
14.3944 -4.8056 -2.5000 0.9403
14.5762 -4.2221 -2.5000 0.9403
15.1631 -0.6111 -2.5000 0.9403
15.1262 1.2211 -2.5000 0.9403
13.9623 2.8504 -2.3476 0.9439
13.6877 3.9647 -2.3476 0.9439
13.5169 4.5126 -2.3476 0.9439
13.1365 4.9820 -2.3145 0.9446
10.5050 4.9847 -1.9155 0.9540
7.8688 4.9759 -1.5337 0.9630
7.2056 4.9737 -1.4424 0.9651
11.4576 8.6099 -2.3610 0.9436
10.7426 9.5171 -2.3643 0.9435
10.3575 9.9486 -2.3659 0.9434
9.9549 10.3642 -2.3674 0.9434
8.6482 11.5087 -2.3716 0.9433
7.7020 12.1797 -2.3740 0.9433
6.7030 12.7715 -2.3761 0.9432
6.1858 13.0363 -2.3771 0.9432
5.6580 13.2798 -2.3780 0.9432
5.1204 13.5014 -2.3788 0.9431
4.0197 13.8776 -2.3802 0.9431
2.8912 14.1622 -2.3812 0.9431
2.3190 14.2695 -2.3816 0.9431
1.1635 14.4130 -2.3821 0.9431
0.5823 14.4489 -2.3822 0.9431
-0.0000 14.4609 -2.3823 0.9431
-2.3191 14.2696 -2.3816 0.9431
-3.4585 14.0316 -2.3807 0.9431
-4.5741 13.7009 -2.3795 0.9431
-5.6581 13.2800 -2.3780 0.9432
-6.1859 13.0365 -2.3771 0.9432
-7.2088 12.4860 -2.3751 0.9432
-7.7021 12.1799 -2.3740 0.9433
-8.6484 11.5089 -2.3716 0.9433
-9.9552 10.3644 -2.3675 0.9434
-10.7427 9.5172 -2.3643 0.9435
-11.4571 8.6094 -2.3609 0.9436
-7.1558 4.9393 -1.4324 0.9654
-7.8381 4.9565 -1.5278 0.9631
-9.4504 4.9600 -1.7582 0.9577
-10.4805 4.9731 -1.9111 0.9541
-11.7552 5.0084 -2.1050 0.9495
-13.6877 3.9647 -2.3476 0.9439
-13.8362 3.4103 -2.3476 0.9439
-15.0648 1.8292 -2.5000 0.9403
-15.1262 1.2211 -2.5000 0.9403
-15.1631 0.6110 -2.5000 0.9403
-13.3006 0.0000 -2.5000 0.9473
-13.2897 -0.5356 -2.5000 0.9473
-13.2036 -1.6032 -2.5000 0.9473
-13.1283 -2.1336 -2.5000 0.9473
-13.0318 -2.6605 -2.5000 0.9473
-12.4363 -4.7164 -2.5000 0.9473
-11.7771 -6.1811 -2.5000 0.9473
-10.6330 -7.9902 -2.5000 0.9473
-8.4119 -10.3027 -2.5000 0.9473
-7.5556 -10.9462 -2.5000 0.9473
-7.1087 -11.2415 -2.5000 0.9473
-6.1811 -11.7771 -2.5000 0.9473
-5.7019 -12.0164 -2.5000 0.9473
-5.2134 -12.2362 -2.5000 0.9473
-4.2119 -12.6161 -2.5000 0.9473
-3.7005 -12.7754 -2.5000 0.9473
-2.6605 -13.0318 -2.5000 0.9473
-2.1336 -13.1283 -2.5000 0.9473
-0.5318 -13.1955 -2.4823 0.9477
-0.0000 -13.1955 -2.4802 0.9477
0.5317 -13.1948 -2.4821 0.9477
1.0651 -13.1933 -2.4879 0.9476
1.6017 -13.1911 -2.4976 0.9474
3.1830 -12.9141 -2.5000 0.9473
4.2119 -12.6161 -2.5000 0.9473
5.2128 -12.2363 -2.5000 0.9473
6.6503 -11.5186 -2.5000 0.9473
7.5556 -10.9461 -2.5000 0.9473
8.8199 -9.9556 -2.5000 0.9473
9.2136 -9.5924 -2.5000 0.9473
9.5924 -9.2136 -2.5000 0.9473
9.9556 -8.8199 -2.5000 0.9473
10.3027 -8.4119 -2.5000 0.9473
10.9461 -7.5556 -2.5000 0.9473
11.2415 -7.1087 -2.5000 0.9473
11.5186 -6.6503 -2.5000 0.9473
11.7771 -6.1811 -2.5000 0.9473
12.0164 -5.7018 -2.5000 0.9473
12.4362 -4.7164 -2.5000 0.9473
12.6160 -4.2119 -2.5000 0.9473
12.9141 -3.1830 -2.5000 0.9473
13.0318 -2.6605 -2.5000 0.9473
13.1283 -2.1336 -2.5000 0.9473
13.2036 -1.6032 -2.5000 0.9473
5.6785 -0.4584 -1.0708 0.9771
5.5383 -0.2232 -1.0418 0.9777
5.6614 0.4570 -1.0676 0.9771
13.1283 2.1336 -2.5000 0.9473
13.0318 2.6604 -2.5000 0.9473
12.1268 2.9890 -2.3476 0.9504
11.9966 3.4749 -2.3476 0.9504
11.4903 4.8956 -2.3476 0.9504
9.4911 4.9813 -2.0147 0.9573
6.6314 4.9833 -1.5592 0.9668
9.3983 8.3261 -2.3600 0.9502
9.0606 8.7029 -2.3614 0.9502
8.7077 9.0657 -2.3627 0.9501
7.9583 9.7471 -2.3652 0.9501
7.5630 10.0646 -2.3663 0.9501
7.1549 10.3657 -2.3674 0.9500
6.3030 10.9171 -2.3694 0.9500
5.8605 11.1663 -2.3703 0.9500
3.9984 11.9766 -2.3733 0.9499
3.5137 12.1308 -2.3738 0.9499
3.0230 12.2649 -2.3743 0.9499
2.5271 12.3789 -2.3747 0.9499
1.0170 12.5974 -2.3755 0.9499
-0.0000 12.6392 -2.3757 0.9499
-2.0270 12.4724 -2.3751 0.9499
-2.5272 12.3789 -2.3747 0.9499
-3.0231 12.2650 -2.3743 0.9499
-3.9984 11.9767 -2.3733 0.9499
-4.4763 11.8029 -2.3727 0.9499
-4.9464 11.6097 -2.3720 0.9499
-5.4081 11.3974 -2.3712 0.9500
-6.7348 10.6502 -2.3685 0.9500
-8.3402 9.4142 -2.3640 0.9501
-8.7079 9.0659 -2.3628 0.9501
-9.0609 8.7030 -2.3614 0.9502
-6.0377 4.9297 -1.4651 0.9688
-6.5579 4.9280 -1.5419 0.9672
-9.4504 4.9600 -2.0061 0.9575
-11.8470 3.9551 -2.3476 0.9504
-12.1268 2.9890 -2.3476 0.9504
-13.0318 2.6604 -2.5000 0.9473
-13.1283 2.1336 -2.5000 0.9473
-13.2036 1.6032 -2.5000 0.9473
-13.2898 0.5356 -2.5000 0.9473
-11.8174 -0.4762 -2.5000 0.9528
-11.7407 -1.4256 -2.5000 0.9528
-11.6738 -1.8972 -2.5000 0.9528
-11.5880 -2.3657 -2.5000 0.9528
-11.3600 -3.2905 -2.5000 0.9528
-11.0584 -4.1939 -2.5000 0.9528
-10.8806 -4.6358 -2.5000 0.9528
-10.6851 -5.0701 -2.5000 0.9528
-10.4723 -5.4963 -2.5000 0.9528
-9.9961 -6.3211 -2.5000 0.9528
-9.1612 -7.4799 -2.5000 0.9528
-8.8526 -7.8427 -2.5000 0.9528
-8.5296 -8.1928 -2.5000 0.9528
-8.1929 -8.5296 -2.5000 0.9528
-7.4799 -9.1612 -2.5000 0.9528
-6.7185 -9.7334 -2.5000 0.9528
-6.3211 -9.9960 -2.5000 0.9528
-5.9135 -10.2425 -2.5000 0.9528
-4.6358 -10.8806 -2.5000 0.9528
-4.1939 -11.0584 -2.5000 0.9528
-3.7452 -11.2183 -2.5000 0.9528
-2.8304 -11.4833 -2.5000 0.9528
-2.3657 -11.5879 -2.5000 0.9528
-1.8972 -11.6738 -2.5000 0.9528
-0.9517 -11.7886 -2.5000 0.9528
-0.4762 -11.8174 -2.5000 0.9528
1.4256 -11.7407 -2.5000 0.9528
1.8972 -11.6738 -2.5000 0.9528
2.3657 -11.5880 -2.5000 0.9528
2.8304 -11.4833 -2.5000 0.9528
4.1939 -11.0584 -2.5000 0.9528
4.6358 -10.8806 -2.5000 0.9528
5.4963 -10.4723 -2.5000 0.9528
5.9135 -10.2425 -2.5000 0.9528
7.1050 -9.4550 -2.5000 0.9528
7.4799 -9.1612 -2.5000 0.9528
8.1928 -8.5296 -2.5000 0.9528
8.8526 -7.8427 -2.5000 0.9528
9.7334 -6.7185 -2.5000 0.9528
10.4722 -5.4963 -2.5000 0.9528
10.6851 -5.0701 -2.5000 0.9528
10.8806 -4.6358 -2.5000 0.9528
11.5879 -2.3657 -2.5000 0.9528
6.7200 -0.8160 -1.4309 0.9727
5.2439 -0.4233 -1.1121 0.9787
11.5880 2.3657 -2.5000 0.9528
11.0307 2.7188 -2.4015 0.9546
10.6675 3.0899 -2.3476 0.9556
10.5344 3.5169 -2.3476 0.9556
10.2173 4.3532 -2.3476 0.9556
9.4911 4.9813 -2.2658 0.9571
8.6346 4.9852 -2.1075 0.9601
7.8687 4.9759 -1.9680 0.9627
7.2056 4.9737 -1.8507 0.9648
6.0727 4.9583 -1.6572 0.9685
6.7135 8.9340 -2.3622 0.9553
6.3509 9.2009 -2.3632 0.9553
5.5941 9.6893 -2.3650 0.9553
4.7995 10.1147 -2.3665 0.9553
3.5481 10.6278 -2.3684 0.9552
2.6824 10.8831 -2.3693 0.9552
1.3516 11.1313 -2.3702 0.9552
0.9023 11.1775 -2.3704 0.9552
0.4515 11.2052 -2.3705 0.9552
-0.9023 11.1775 -2.3704 0.9552
-1.3516 11.1313 -2.3702 0.9552
-1.7985 11.0668 -2.3700 0.9552
-2.2424 10.9840 -2.3697 0.9552
-4.3896 10.3028 -2.3672 0.9552
-5.5942 9.6895 -2.3650 0.9553
-5.9777 9.4529 -2.3642 0.9553
-6.7136 8.9342 -2.3623 0.9553
-4.0304 4.9364 -1.3470 0.9743
-7.7311 8.0489 -2.3591 0.9554
-8.3452 7.3932 -2.3567 0.9554
-6.0235 4.9180 -1.6437 0.9687
-7.8378 4.9563 -1.9602 0.9628
-9.4504 4.9600 -2.2560 0.9573
-10.0337 4.7610 -2.3476 0.9556
-10.6675 3.0899 -2.3476 0.9556
-11.7407 1.4256 -2.5000 0.9528
-11.8174 0.4762 -2.5000 0.9528
-10.6286 -0.4283 -2.5000 0.9572
-10.6027 -0.8559 -2.5000 0.9572
-10.4995 -1.7063 -2.5000 0.9572
-10.4222 -2.1277 -2.5000 0.9572
-10.3281 -2.5457 -2.5000 0.9572
-10.0898 -3.3685 -2.5000 0.9572
-9.9460 -3.7720 -2.5000 0.9572
-9.6102 -4.5601 -2.5000 0.9572
-8.7543 -6.0426 -2.5000 0.9572
-8.5038 -6.3902 -2.5000 0.9572
-7.3687 -7.6715 -2.5000 0.9572
-6.7275 -8.2396 -2.5000 0.9572
-5.6852 -8.9905 -2.5000 0.9572
-4.9434 -9.4188 -2.5000 0.9572
-3.3685 -10.0898 -2.5000 0.9572
-1.7063 -10.4994 -2.5000 0.9572
-0.8559 -10.6027 -2.5000 0.9572
-0.4283 -10.6286 -2.5000 0.9572
0.4283 -10.6286 -2.5000 0.9572
0.8559 -10.6027 -2.5000 0.9572
1.2822 -10.5596 -2.5000 0.9572
1.7063 -10.4994 -2.5000 0.9572
2.5456 -10.3281 -2.5000 0.9572
4.1694 -9.7860 -2.5000 0.9572
4.9433 -9.4188 -2.5000 0.9572
5.3186 -9.2121 -2.5000 0.9572
6.3902 -8.5038 -2.5000 0.9572
6.7274 -8.2396 -2.5000 0.9572
8.2396 -6.7274 -2.5000 0.9572
8.5038 -6.3902 -2.5000 0.9572
8.9904 -5.6852 -2.5000 0.9572
9.2121 -5.3186 -2.5000 0.9572
9.6102 -4.5601 -2.5000 0.9572
10.0897 -3.3684 -2.5000 0.9572
10.3281 -2.5457 -2.5000 0.9572
10.5597 -1.2822 -2.5000 0.9572
4.8698 -0.3931 -1.1482 0.9801
4.8483 -0.0000 -1.1395 0.9803
4.8556 0.1957 -1.1421 0.9802
4.8683 0.3930 -1.1479 0.9801
10.4994 1.7063 -2.5000 0.9572
10.3281 2.5456 -2.5000 0.9572
9.5944 2.7790 -2.3476 0.9598
9.0243 4.2821 -2.3476 0.9598
8.8446 4.6420 -2.3476 0.9598
8.6025 4.9667 -2.3346 0.9600
7.8687 4.9759 -2.1881 0.9625
6.6312 4.9831 -1.9495 0.9665
7.7545 6.3314 -2.3528 0.9597
6.9444 7.2299 -2.3561 0.9596
5.0237 8.7014 -2.3614 0.9596
4.6707 8.8994 -2.3621 0.9595
4.3098 9.0828 -2.3628 0.9595
3.5667 9.4048 -2.3640 0.9595
3.1858 9.5428 -2.3645 0.9595
2.4085 9.7716 -2.3653 0.9595
0.8101 10.0355 -2.3662 0.9595
-0.8102 10.0355 -2.3663 0.9595
-1.2135 9.9941 -2.3661 0.9595
-1.6148 9.9363 -2.3659 0.9595
-2.7996 9.6652 -2.3649 0.9595
-3.1859 9.5428 -2.3645 0.9595
-3.9417 9.2514 -2.3634 0.9595
-5.0238 8.7015 -2.3614 0.9596
-5.3684 8.4894 -2.3607 0.9596
-5.7039 8.2635 -2.3598 0.9596
-4.0304 4.9364 -1.4977 0.9742
-5.1233 4.9210 -1.6696 0.9712
-6.5579 4.9280 -1.9279 0.9669
-8.5508 4.9368 -2.3205 0.9602
-9.0244 4.2821 -2.3476 0.9598
-9.3397 3.5421 -2.3476 0.9598
-9.4747 3.1631 -2.3476 0.9598
-10.4222 2.1277 -2.5000 0.9572
-10.5596 1.2822 -2.5000 0.9572
-10.6027 0.8559 -2.5000 0.9572
-9.6555 0.0000 -2.5000 0.9609
-9.5851 -1.1638 -2.5000 0.9609
-9.5305 -1.5488 -2.5000 0.9609
-9.3749 -2.3107 -2.5000 0.9609
-9.1586 -3.0576 -2.5000 0.9609
-9.0281 -3.4239 -2.5000 0.9609
-8.7233 -4.1393 -2.5000 0.9609
-7.7190 -5.8005 -2.5000 0.9609
-7.4792 -6.1066 -2.5000 0.9609
-7.2273 -6.4028 -2.5000 0.9609
-6.9636 -6.6886 -2.5000 0.9609
-6.6886 -6.9636 -2.5000 0.9609
-5.8005 -7.7190 -2.5000 0.9609
-5.4850 -7.9463 -2.5000 0.9609
-4.8278 -8.3619 -2.5000 0.9609
-3.0576 -9.1586 -2.5000 0.9609
-2.3107 -9.3749 -2.5000 0.9609
-1.1638 -9.5851 -2.5000 0.9609
-0.7770 -9.6242 -2.5000 0.9609
-0.0000 -9.6555 -2.5000 0.9609
0.3888 -9.6477 -2.5000 0.9609
2.3107 -9.3749 -2.5000 0.9609
3.0576 -9.1586 -2.5000 0.9609
4.1392 -8.7233 -2.5000 0.9609
4.8278 -8.3619 -2.5000 0.9609
5.4849 -7.9463 -2.5000 0.9609
5.8005 -7.7190 -2.5000 0.9609
6.1066 -7.4792 -2.5000 0.9609
6.4028 -7.2273 -2.5000 0.9609
7.2272 -6.4028 -2.5000 0.9609
7.4792 -6.1066 -2.5000 0.9609
7.7190 -5.8005 -2.5000 0.9609
7.9463 -5.4850 -2.5000 0.9609
8.1607 -5.1605 -2.5000 0.9609
8.3619 -4.8278 -2.5000 0.9609
8.7233 -4.1392 -2.5000 0.9609
8.8829 -3.7846 -2.5000 0.9609
9.2743 -2.6863 -2.5000 0.9609
9.3749 -2.3107 -2.5000 0.9609
9.5305 -1.5489 -2.5000 0.9609
4.7347 -0.3822 -1.2299 0.9806
4.7230 -0.1903 -1.2239 0.9807
4.7177 0.0000 -1.2215 0.9807
4.7335 0.3821 -1.2296 0.9806
9.4604 1.9314 -2.5000 0.9609
9.2743 2.6863 -2.5000 0.9609
8.4777 3.2152 -2.3476 0.9632
8.3413 3.5539 -2.3476 0.9632
8.0284 4.2136 -2.3476 0.9632
7.8522 4.5335 -2.3476 0.9632
7.6632 4.8460 -2.3476 0.9632
6.6311 4.9830 -2.1477 0.9663
5.6201 4.9790 -1.9440 0.9695
5.1711 4.9670 -1.8565 0.9708
6.2970 6.5559 -2.3536 0.9631
6.0303 6.8068 -2.3545 0.9631
4.0427 4.9515 -1.6551 0.9739
5.4669 7.2752 -2.3562 0.9631
5.1713 7.4919 -2.3570 0.9631
2.8632 4.9593 -1.4827 0.9766
3.2332 8.5253 -2.3608 0.9630
2.5377 8.7610 -2.3616 0.9630
1.4637 9.0064 -2.3625 0.9630
1.0999 9.0588 -2.3627 0.9630
0.7343 9.0962 -2.3628 0.9630
0.3675 9.1188 -2.3629 0.9630
-0.0000 9.1263 -2.3630 0.9630
-0.3675 9.1188 -2.3629 0.9630
-0.7344 9.0963 -2.3628 0.9630
-1.1000 9.0588 -2.3627 0.9630
-1.4637 9.0065 -2.3625 0.9630
-2.1832 8.8574 -2.3620 0.9630
-4.2343 8.0678 -2.3591 0.9631
-3.1329 4.9543 -1.5177 0.9761
-3.7102 4.9374 -1.5991 0.9748
-4.0209 4.9247 -1.6461 0.9741
-4.3619 4.9236 -1.7031 0.9732
-6.2971 6.5560 -2.3537 0.9631
-6.0377 4.9297 -2.0182 0.9683
-7.1488 4.9345 -2.2491 0.9647
-8.1915 3.8869 -2.3476 0.9632
-8.4777 3.2152 -2.3476 0.9632
-8.6123 2.8752 -2.3508 0.9632
-9.5305 1.5488 -2.5000 0.9609
-9.5851 1.1638 -2.5000 0.9609
-9.6242 0.7769 -2.5000 0.9609
-8.8238 -0.3556 -2.5000 0.9640
-8.8023 -0.7106 -2.5000 0.9640
-8.4823 -2.4569 -2.5000 0.9640
-8.3765 -2.7965 -2.5000 0.9640
-8.2571 -3.1315 -2.5000 0.9640
-8.1243 -3.4614 -2.5000 0.9640
-7.6479 -4.4155 -2.5000 0.9640
-7.4639 -4.7199 -2.5000 0.9640
-7.2678 -5.0166 -2.5000 0.9640
-7.0599 -5.3052 -2.5000 0.9640
-6.3689 -6.1174 -2.5000 0.9640
-5.8560 -6.6101 -2.5000 0.9640
-5.5851 -6.8405 -2.5000 0.9640
-5.3051 -7.0599 -2.5000 0.9640
-4.4155 -7.6479 -2.5000 0.9640
-3.7858 -7.9783 -2.5000 0.9640
-3.4615 -8.1243 -2.5000 0.9640
-1.0645 -8.7666 -2.5000 0.9640
-0.7106 -8.8023 -2.5000 0.9640
-0.3556 -8.8238 -2.5000 0.9640
-0.0000 -8.8310 -2.5000 0.9640
0.3556 -8.8238 -2.5000 0.9640
0.7106 -8.8023 -2.5000 0.9640
1.4166 -8.7166 -2.5000 0.9640
1.7664 -8.6525 -2.5000 0.9640
2.1134 -8.5744 -2.5000 0.9640
2.4569 -8.4823 -2.5000 0.9640
2.7965 -8.3765 -2.5000 0.9640
3.1315 -8.2571 -2.5000 0.9640
3.7858 -7.9784 -2.5000 0.9640
4.4155 -7.6478 -2.5000 0.9640
4.7198 -7.4638 -2.5000 0.9640
5.0166 -7.2678 -2.5000 0.9640
5.5851 -6.8405 -2.5000 0.9640
5.8560 -6.6101 -2.5000 0.9640
6.6101 -5.8560 -2.5000 0.9640
7.2677 -5.0166 -2.5000 0.9640
7.4638 -4.7199 -2.5000 0.9640
7.6478 -4.4155 -2.5000 0.9640
8.1243 -3.4614 -2.5000 0.9640
8.3765 -2.7965 -2.5000 0.9640
8.4823 -2.4569 -2.5000 0.9640
8.5743 -2.1134 -2.5000 0.9640
8.7166 -1.4166 -2.5000 0.9640
4.5951 -0.1852 -1.3019 0.9811
4.5925 0.0000 -1.3001 0.9811
4.5941 0.1851 -1.3016 0.9811
4.6045 0.3717 -1.3077 0.9810
4.6354 0.5629 -1.3219 0.9808
8.6524 1.7664 -2.5000 0.9640
8.5743 2.1134 -2.5000 0.9640
7.7537 2.9406 -2.3476 0.9661
7.4920 3.5550 -2.3476 0.9661
7.1816 4.1463 -2.3476 0.9661
7.0088 4.4321 -2.3476 0.9661
5.6200 4.9789 -2.1255 0.9693
5.1711 4.9670 -2.0299 0.9706
5.7543 5.9908 -2.3516 0.9661
5.5103 6.2199 -2.3524 0.9660
4.9953 6.6475 -2.3540 0.9660
3.4163 4.9494 -1.7025 0.9753
3.1292 4.9485 -1.6575 0.9760
2.3524 4.9576 -1.5534 0.9774
2.1156 4.9655 -1.5280 0.9778
1.8795 4.9560 -1.5005 0.9782
1.6543 4.9553 -1.4789 0.9785
0.8048 4.9525 -1.4204 0.9794
0.6708 8.3094 -2.3600 0.9659
0.3357 8.3300 -2.3601 0.9659
-0.1995 4.9491 -1.4022 0.9796
-1.0098 4.9464 -1.4292 0.9792
-1.2190 4.9457 -1.4420 0.9790
-2.3183 8.0036 -2.3589 0.9660
-1.6507 4.9443 -1.4756 0.9786
-3.2644 7.6618 -2.3577 0.9660
-3.8686 7.3710 -2.3566 0.9660
-3.1161 4.9277 -1.6505 0.9761
-3.4007 4.9268 -1.6947 0.9754
-3.7102 4.9374 -1.7484 0.9747
-4.0304 4.9364 -1.8041 0.9739
-4.3722 4.9352 -1.8665 0.9730
-6.0377 4.9297 -2.2066 0.9681
-6.5424 4.9163 -2.3167 0.9666
-6.8247 4.7108 -2.3476 0.9661
-7.0089 4.4321 -2.3476 0.9661
-7.3428 3.8538 -2.3476 0.9661
-7.4920 3.5550 -2.3476 0.9661
-7.6291 3.2504 -2.3476 0.9661
-8.0921 2.7015 -2.4151 0.9652
-8.5744 2.1134 -2.5000 0.9640
-8.7166 1.4166 -2.5000 0.9640
-8.7666 1.0644 -2.5000 0.9640
-8.8023 0.7106 -2.5000 0.9640
-8.1279 0.0000 -2.5000 0.9666
-8.1214 -0.3273 -2.5000 0.9666
-8.0687 -0.9797 -2.5000 0.9666
-7.8918 -1.9452 -2.5000 0.9666
-7.8071 -2.2613 -2.5000 0.9666
-7.5998 -2.8822 -2.5000 0.9666
-7.4776 -3.1859 -2.5000 0.9666
-7.3432 -3.4844 -2.5000 0.9666
-7.0390 -4.0640 -2.5000 0.9666
-6.8697 -4.3441 -2.5000 0.9666
-6.6892 -4.6172 -2.5000 0.9666
-6.4979 -4.8828 -2.5000 0.9666
-6.2960 -5.1405 -2.5000 0.9666
-5.8619 -5.6304 -2.5000 0.9666
-5.3898 -6.0839 -2.5000 0.9666
-5.1405 -6.2960 -2.5000 0.9666
-4.8828 -6.4978 -2.5000 0.9666
-4.6172 -6.6892 -2.5000 0.9666
-4.3441 -6.8697 -2.5000 0.9666
-4.0640 -7.0390 -2.5000 0.9666
-3.7772 -7.1969 -2.5000 0.9666
-3.4844 -7.3432 -2.5000 0.9666
-3.1859 -7.4775 -2.5000 0.9666
-2.8822 -7.5998 -2.5000 0.9666
-2.2613 -7.8071 -2.5000 0.9666
-1.9452 -7.8918 -2.5000 0.9666
-1.6259 -7.9637 -2.5000 0.9666
-0.9797 -8.0687 -2.5000 0.9666
-0.6540 -8.1016 -2.5000 0.9666
-0.3273 -8.1214 -2.5000 0.9666
0.9797 -8.0687 -2.5000 0.9666
1.3038 -8.0227 -2.5000 0.9666
1.6258 -7.9637 -2.5000 0.9666
1.9451 -7.8918 -2.5000 0.9666
3.1859 -7.4776 -2.5000 0.9666
3.4844 -7.3432 -2.5000 0.9666
3.7772 -7.1969 -2.5000 0.9666
4.0640 -7.0390 -2.5000 0.9666
4.3441 -6.8697 -2.5000 0.9666
4.6172 -6.6892 -2.5000 0.9666
4.8828 -6.4978 -2.5000 0.9666
5.1405 -6.2959 -2.5000 0.9666
5.3898 -6.0839 -2.5000 0.9666
5.6304 -5.8619 -2.5000 0.9666
5.8619 -5.6304 -2.5000 0.9666
6.2959 -5.1405 -2.5000 0.9666
7.1969 -3.7772 -2.5000 0.9666
7.3432 -3.4844 -2.5000 0.9666
7.4775 -3.1859 -2.5000 0.9666
7.5998 -2.8822 -2.5000 0.9666
7.8071 -2.2613 -2.5000 0.9666
7.9637 -1.6258 -2.5000 0.9666
8.0227 -1.3038 -2.5000 0.9666
4.4984 -0.5462 -1.3938 0.9812
4.4724 -0.1802 -1.3767 0.9814
4.4723 0.0000 -1.3756 0.9815
4.4808 0.3617 -1.3827 0.9814
4.4963 0.5459 -1.3931 0.9812
8.0227 1.3038 -2.5000 0.9666
7.9637 1.6258 -2.5000 0.9666
7.8918 1.9451 -2.5000 0.9666
7.1813 2.7235 -2.3623 0.9684
7.0217 2.9917 -2.3476 0.9686
6.8955 3.2720 -2.3476 0.9686
6.7582 3.5470 -2.3476 0.9686
6.6099 3.8162 -2.3476 0.9686
6.4509 4.0793 -2.3476 0.9686
6.2814 4.3358 -2.3476 0.9686
5.9121 4.8271 -2.3476 0.9686
4.8348 5.9216 -2.3513 0.9685
4.5938 6.1133 -2.3520 0.9685
4.3451 6.2950 -2.3527 0.9685
3.1366 4.9602 -1.8051 0.9757
2.8632 4.9593 -1.7613 0.9763
2.6118 4.9765 -1.7287 0.9768
2.3468 4.9459 -1.6838 0.9774
2.1069 4.9451 -1.6533 0.9778
1.8795 4.9560 -1.6303 0.9781
1.6543 4.9553 -1.6068 0.9784
2.1316 7.3591 -2.3565 0.9684
1.8338 7.4399 -2.3568 0.9684
1.0112 4.9531 -1.5549 0.9791
0.8048 4.9525 -1.5432 0.9792
0.9238 7.6087 -2.3575 0.9684
0.1995 4.9504 -1.5239 0.9795
-0.6168 7.6401 -2.3576 0.9684
-0.9239 7.6087 -2.3575 0.9684
-0.8068 4.9643 -1.5469 0.9792
-2.1316 7.3592 -2.3566 0.9684
-1.6507 4.9443 -1.6033 0.9784
-1.8749 4.9436 -1.6262 0.9781
-3.5574 6.7780 -2.3545 0.9685
-3.1331 4.9545 -1.8030 0.9758
-4.0304 4.9364 -1.9601 0.9737
-5.9121 4.8271 -2.3476 0.9686
-6.1017 4.5852 -2.3476 0.9686
-6.2814 4.3358 -2.3476 0.9686
-6.4509 4.0793 -2.3476 0.9686
-6.7582 3.5470 -2.3476 0.9686
-7.1656 2.7176 -2.3572 0.9684
-7.8918 1.9451 -2.5000 0.9666
-7.9637 1.6258 -2.5000 0.9666
-8.0227 1.3038 -2.5000 0.9666
-8.1016 0.6540 -2.5000 0.9666
-8.1214 0.3273 -2.5000 0.9666
-7.5209 0.0000 -2.5000 0.9688
-7.5148 -0.3029 -2.5000 0.9688
-7.4965 -0.6052 -2.5000 0.9688
-7.4661 -0.9065 -2.5000 0.9688
-7.4235 -1.2064 -2.5000 0.9688
-7.3689 -1.5044 -2.5000 0.9688
-7.3024 -1.7999 -2.5000 0.9688
-7.1338 -2.3816 -2.5000 0.9688
-7.0322 -2.6669 -2.5000 0.9688
-6.7947 -3.2242 -2.5000 0.9688
-6.6594 -3.4951 -2.5000 0.9688
-6.0125 -4.5181 -2.5000 0.9688
-5.4241 -5.2099 -2.5000 0.9688
-5.2099 -5.4241 -2.5000 0.9688
-4.9873 -5.6295 -2.5000 0.9688
-4.7566 -5.8257 -2.5000 0.9688
-4.2724 -6.1896 -2.5000 0.9688
-3.4951 -6.6594 -2.5000 0.9688
-3.2241 -6.7947 -2.5000 0.9688
-1.7999 -7.3023 -2.5000 0.9688
-1.5044 -7.3689 -2.5000 0.9688
-0.6052 -7.4965 -2.5000 0.9688
0.3028 -7.5148 -2.5000 0.9688
0.6052 -7.4965 -2.5000 0.9688
0.9064 -7.4661 -2.5000 0.9688
1.2064 -7.4235 -2.5000 0.9688
1.5044 -7.3689 -2.5000 0.9688
1.7999 -7.3023 -2.5000 0.9688
2.0925 -7.2239 -2.5000 0.9688
2.6669 -7.0321 -2.5000 0.9688
2.9479 -6.9191 -2.5000 0.9688
3.2241 -6.7947 -2.5000 0.9688
3.4951 -6.6594 -2.5000 0.9688
4.2723 -6.1896 -2.5000 0.9688
4.5181 -6.0125 -2.5000 0.9688
4.7565 -5.8257 -2.5000 0.9688
4.9873 -5.6295 -2.5000 0.9688
5.8257 -4.7566 -2.5000 0.9688
6.3566 -4.0197 -2.5000 0.9688
6.9191 -2.9479 -2.5000 0.9688
7.1338 -2.3816 -2.5000 0.9688
7.2239 -2.0924 -2.5000 0.9688
7.3023 -1.7999 -2.5000 0.9688
7.4235 -1.2064 -2.5000 0.9688
4.3632 -0.3522 -1.4551 0.9817
4.3546 -0.1755 -1.4487 0.9818
4.3622 0.3521 -1.4547 0.9817
4.3784 0.5316 -1.4661 0.9816
7.3689 1.5044 -2.5000 0.9688
7.1338 2.3816 -2.5000 0.9688
5.9691 3.7746 -2.3476 0.9707
5.8122 4.0119 -2.3476 0.9707
5.6460 4.2427 -2.3476 0.9707
5.4706 4.4666 -2.3476 0.9707
5.2863 4.6832 -2.3476 0.9707
4.8938 5.0950 -2.3483 0.9707
4.6861 5.2896 -2.3490 0.9707
4.4706 5.4755 -2.3497 0.9706
4.2477 5.6526 -2.3504 0.9706
4.0177 5.8206 -2.3510 0.9706
3.1366 4.9602 -1.9508 0.9756
2.3524 4.9576 -1.8240 0.9771
2.1154 4.9651 -1.7940 0.9775
1.9707 6.8036 -2.3545 0.9706
1.2181 4.9421 -1.6919 0.9788
0.8029 4.9407 -1.6639 0.9791
0.5998 4.9401 -1.6542 0.9792
0.3987 4.9394 -1.6472 0.9793
-0.0000 4.9381 -1.6414 0.9794
-0.1990 4.9374 -1.6425 0.9794
-0.5994 4.9361 -1.6528 0.9793
-1.0075 4.9347 -1.6742 0.9790
-1.2161 4.9340 -1.6892 0.9788
-1.9707 6.8037 -2.3545 0.9706
-1.6507 4.9443 -1.7327 0.9783
-2.7752 6.5136 -2.3535 0.9706
-2.3450 4.9420 -1.8183 0.9772
-3.2891 6.2668 -2.3526 0.9706
-4.0304 4.9364 -2.1183 0.9735
-4.8939 5.0951 -2.3484 0.9707
-5.0935 4.8924 -2.3476 0.9707
-5.2863 4.6833 -2.3476 0.9707
-5.4706 4.4666 -2.3476 0.9707
-5.6460 4.2427 -2.3476 0.9707
-5.8122 4.0119 -2.3476 0.9707
-6.3806 3.0276 -2.3476 0.9707
-7.2240 2.0925 -2.5000 0.9688
-7.4661 0.9066 -2.5000 0.9688
-7.5148 0.3028 -2.5000 0.9688
-6.9909 0.0000 -2.5000 0.9707
-6.9852 -0.2815 -2.5000 0.9707
-6.9682 -0.5625 -2.5000 0.9707
-6.6311 -2.2138 -2.5000 0.9707
-6.4315 -2.7402 -2.5000 0.9707
-6.3159 -2.9969 -2.5000 0.9707
-6.0543 -3.4954 -2.5000 0.9707
-5.7534 -3.9713 -2.5000 0.9707
-5.5888 -4.1997 -2.5000 0.9707
-5.2327 -4.6358 -2.5000 0.9707
-4.8428 -5.0418 -2.5000 0.9707
-4.6358 -5.2327 -2.5000 0.9707
-4.4213 -5.4152 -2.5000 0.9707
-3.2488 -6.1901 -2.5000 0.9707
-2.7402 -6.4314 -2.5000 0.9707
-2.2138 -6.6311 -2.5000 0.9707
-0.8427 -6.9399 -2.5000 0.9707
-0.5625 -6.9682 -2.5000 0.9707
-0.0000 -6.9909 -2.5000 0.9707
0.2815 -6.9852 -2.5000 0.9707
0.5625 -6.9682 -2.5000 0.9707
1.1214 -6.9003 -2.5000 0.9707
1.9450 -6.7149 -2.5000 0.9707
2.4790 -6.5366 -2.5000 0.9707
2.7402 -6.4315 -2.5000 0.9707
3.7364 -5.9086 -2.5000 0.9707
3.9713 -5.7534 -2.5000 0.9707
4.1997 -5.5888 -2.5000 0.9707
4.4213 -5.4152 -2.5000 0.9707
4.6358 -5.2327 -2.5000 0.9707
4.8427 -5.0418 -2.5000 0.9707
5.0418 -4.8427 -2.5000 0.9707
5.5888 -4.1997 -2.5000 0.9707
5.9086 -3.7364 -2.5000 0.9707
6.0543 -3.4954 -2.5000 0.9707
6.1901 -3.2488 -2.5000 0.9707
6.5365 -2.4790 -2.5000 0.9707
4.4002 -0.7151 -1.5942 0.9812
4.2845 -0.1727 -1.5334 0.9819
6.7148 1.9450 -2.5000 0.9707
6.6311 2.2138 -2.5000 0.9707
6.3447 2.7032 -2.4663 0.9711
5.8128 3.0508 -2.3476 0.9725
5.6852 3.2824 -2.3476 0.9725
5.4027 3.7292 -2.3476 0.9725
5.2481 3.9437 -2.3476 0.9725
5.0850 4.1518 -2.3476 0.9725
4.7345 4.5475 -2.3476 0.9725
4.1531 5.0866 -2.3483 0.9725
3.9459 5.2510 -2.3489 0.9725
3.7322 5.4070 -2.3495 0.9725
2.8632 4.9593 -2.0478 0.9760
2.3524 4.9576 -1.9623 0.9770
2.1153 4.9650 -1.9299 0.9773
1.8795 4.9560 -1.8955 0.9777
1.0112 4.9531 -1.8078 0.9788
0.5296 6.5603 -2.3537 0.9724
0.1995 4.9504 -1.7717 0.9792
-0.1995 4.9491 -1.7713 0.9792
-0.5296 6.5603 -2.3537 0.9724
-0.7933 6.5334 -2.3536 0.9724
-1.8305 6.3195 -2.3528 0.9724
-1.8749 4.9436 -1.8907 0.9778
-2.5778 6.0503 -2.3518 0.9724
-2.3450 4.9420 -1.9561 0.9770
-3.0552 5.8212 -2.3510 0.9725
-3.1332 4.9548 -2.0964 0.9754
-3.7322 5.4070 -2.3495 0.9725
-3.7102 4.9374 -2.2086 0.9741
-4.0304 4.9364 -2.2789 0.9733
-4.3534 4.9140 -2.3477 0.9725
-4.5475 4.7345 -2.3476 0.9725
-4.7345 4.5475 -2.3476 0.9725
-5.0850 4.1518 -2.3476 0.9725
-5.4026 3.7292 -2.3476 0.9725
-5.5484 3.5086 -2.3476 0.9725
-5.6852 3.2824 -2.3476 0.9725
-5.9309 2.8142 -2.3476 0.9725
-6.3250 2.6948 -2.4586 0.9712
-6.7877 1.6730 -2.5000 0.9707
-6.8496 1.3983 -2.5000 0.9707
-6.5237 0.0000 -2.5000 0.9724
-6.5184 -0.2627 -2.5000 0.9724
-6.4392 -1.0465 -2.5000 0.9724
-6.3918 -1.3049 -2.5000 0.9724
-6.3341 -1.5612 -2.5000 0.9724
-6.2661 -1.8150 -2.5000 0.9724
-6.1879 -2.0658 -2.5000 0.9724
-6.0997 -2.3133 -2.5000 0.9724
-6.0017 -2.5571 -2.5000 0.9724
-5.8938 -2.7967 -2.5000 0.9724
-5.6497 -3.2618 -2.5000 0.9724
-5.5137 -3.4867 -2.5000 0.9724
-5.0533 -4.1259 -2.5000 0.9724
-4.8830 -4.3260 -2.5000 0.9724
-4.5191 -4.7049 -2.5000 0.9724
-4.3260 -4.8830 -2.5000 0.9724
-3.9190 -5.2153 -2.5000 0.9724
-3.4867 -5.5137 -2.5000 0.9724
-3.0317 -5.7764 -2.5000 0.9724
-2.7966 -5.8938 -2.5000 0.9724
-2.5571 -6.0017 -2.5000 0.9724
-2.3133 -6.0997 -2.5000 0.9724
-2.0658 -6.1879 -2.5000 0.9724
-1.5612 -6.3341 -2.5000 0.9724
-1.3049 -6.3918 -2.5000 0.9724
-1.0465 -6.4392 -2.5000 0.9724
-0.7863 -6.4761 -2.5000 0.9724
-0.5249 -6.5025 -2.5000 0.9724
-0.2627 -6.5184 -2.5000 0.9724
-0.0000 -6.5237 -2.5000 0.9724
0.2627 -6.5184 -2.5000 0.9724
0.5249 -6.5025 -2.5000 0.9724
1.3049 -6.3918 -2.5000 0.9724
1.8150 -6.2661 -2.5000 0.9724
2.7966 -5.8938 -2.5000 0.9724
3.0317 -5.7764 -2.5000 0.9724
3.2618 -5.6496 -2.5000 0.9724
3.7058 -5.3689 -2.5000 0.9724
3.9190 -5.2153 -2.5000 0.9724
4.1258 -5.0533 -2.5000 0.9724
4.3260 -4.8830 -2.5000 0.9724
4.5191 -4.7049 -2.5000 0.9724
4.8830 -4.3260 -2.5000 0.9724
5.0533 -4.1258 -2.5000 0.9724
5.2153 -3.9190 -2.5000 0.9724
5.3689 -3.7059 -2.5000 0.9724
5.6496 -3.2618 -2.5000 0.9724
5.7764 -3.0317 -2.5000 0.9724
5.8938 -2.7966 -2.5000 0.9724
6.0997 -2.3133 -2.5000 0.9724
6.1879 -2.0658 -2.5000 0.9724
6.2661 -1.8150 -2.5000 0.9724
6.3341 -1.5612 -2.5000 0.9724
6.3918 -1.3049 -2.5000 0.9724
4.2725 -0.5188 -1.6493 0.9817
4.2519 -0.3433 -1.6347 0.9819
4.2698 0.5184 -1.6483 0.9817
6.3918 1.3049 -2.5000 0.9724
6.3341 1.5612 -2.5000 0.9724
6.2661 1.8150 -2.5000 0.9724
6.0997 2.3133 -2.5000 0.9724
5.1776 3.2741 -2.3476 0.9741
4.5853 4.0623 -2.3476 0.9741
4.4180 4.2436 -2.3476 0.9741
4.2436 4.4181 -2.3476 0.9741
4.0623 4.5854 -2.3476 0.9741
3.8743 4.7452 -2.3476 0.9741
3.6802 4.8974 -2.3476 0.9741
3.4227 4.9588 -2.3090 0.9745
3.1366 4.9602 -2.2490 0.9752
2.8632 4.9593 -2.1945 0.9758
2.3524 4.9576 -2.1029 0.9768
1.8795 4.9560 -2.0312 0.9776
1.4685 5.9578 -2.3515 0.9741
0.8048 4.9525 -1.9228 0.9787
0.4939 6.1177 -2.3521 0.9741
0.1995 4.9504 -1.8986 0.9790
-0.0000 4.9498 -1.8968 0.9790
-0.4939 6.1177 -2.3521 0.9741
-0.8070 4.9657 -1.9279 0.9787
-1.0098 4.9464 -1.9346 0.9786
-1.2190 4.9457 -1.9520 0.9784
-1.7070 5.8933 -2.3512 0.9741
-1.8749 4.9436 -2.0261 0.9776
-2.4040 5.6424 -2.3503 0.9741
-2.8523 4.9403 -2.1861 0.9759
-3.1333 4.9549 -2.2466 0.9752
-3.8744 4.7452 -2.3476 0.9741
-4.7452 3.8743 -2.3476 0.9741
-4.8974 3.6801 -2.3476 0.9741
-5.1776 3.2741 -2.3476 0.9741
-5.3053 3.0630 -2.3476 0.9741
-5.4243 2.8469 -2.3476 0.9741
-5.6968 2.7032 -2.4164 0.9734
-6.0997 2.3133 -2.5000 0.9724
-6.2661 1.8150 -2.5000 0.9724
-6.4761 0.7863 -2.5000 0.9724
-6.5025 0.5249 -2.5000 0.9724
-2.6381 0.0000 -1.0797 0.9887
-2.6499 -0.2139 -1.0881 0.9886
-2.6602 -0.3230 -1.0968 0.9885
-5.9849 -1.2218 -2.5000 0.9739
-5.8672 -1.6994 -2.5000 0.9739
-5.6195 -2.3943 -2.5000 0.9739
-5.5186 -2.6186 -2.5000 0.9739
-5.2900 -3.0542 -2.5000 0.9739
-5.1627 -3.2647 -2.5000 0.9739
-4.7315 -3.8632 -2.5000 0.9739
-4.5721 -4.0506 -2.5000 0.9739
-4.2314 -4.4053 -2.5000 0.9739
-3.6695 -4.8833 -2.5000 0.9739
-2.8387 -5.4087 -2.5000 0.9739
-2.3943 -5.6195 -2.5000 0.9739
-2.1660 -5.7114 -2.5000 0.9739
-1.4618 -5.9308 -2.5000 0.9739
-1.2218 -5.9849 -2.5000 0.9739
-0.9799 -6.0292 -2.5000 0.9739
-0.4915 -6.0885 -2.5000 0.9739
-0.0000 -6.1083 -2.5000 0.9739
0.2460 -6.1034 -2.5000 0.9739
0.7363 -6.0638 -2.5000 0.9739
1.2218 -5.9849 -2.5000 0.9739
1.6994 -5.8672 -2.5000 0.9739
2.6186 -5.5186 -2.5000 0.9739
3.0542 -5.2900 -2.5000 0.9739
3.2647 -5.1627 -2.5000 0.9739
3.6695 -4.8833 -2.5000 0.9739
3.8632 -4.7315 -2.5000 0.9739
4.0505 -4.5721 -2.5000 0.9739
4.2314 -4.4053 -2.5000 0.9739
4.5721 -4.0506 -2.5000 0.9739
4.7315 -3.8632 -2.5000 0.9739
5.0271 -3.4699 -2.5000 0.9739
5.1627 -3.2647 -2.5000 0.9739
5.2900 -3.0542 -2.5000 0.9739
5.4086 -2.8387 -2.5000 0.9739
5.5186 -2.6186 -2.5000 0.9739
5.6195 -2.3943 -2.5000 0.9739
5.7940 -1.9343 -2.5000 0.9739
5.8672 -1.6994 -2.5000 0.9739
4.3506 -0.7071 -1.8040 0.9811
4.2444 -0.3426 -1.7428 0.9818
4.2355 -0.1707 -1.7349 0.9818
4.2318 0.0000 -1.7320 0.9819
4.2647 0.5178 -1.7583 0.9816
4.3327 0.7041 -1.7965 0.9812
5.9308 1.4618 -2.5000 0.9739
5.8671 1.6994 -2.5000 0.9739
5.7940 1.9343 -2.5000 0.9739
5.1750 2.7161 -2.3920 0.9751
4.9675 2.8680 -2.3476 0.9755
4.8480 3.0657 -2.3476 0.9755
4.4431 3.6277 -2.3476 0.9755
4.1368 3.9734 -2.3476 0.9755
3.8037 4.2934 -2.3476 0.9755
3.4458 4.5856 -2.3476 0.9755
2.8564 4.9476 -2.3382 0.9756
2.6115 4.9759 -2.2999 0.9760
2.1152 4.9646 -2.2086 0.9769
1.8795 4.9560 -2.1693 0.9774
1.5974 5.5148 -2.3499 0.9755
1.3742 5.5752 -2.3501 0.9755
1.0112 4.9531 -2.0690 0.9784
0.8048 4.9525 -2.0535 0.9785
0.4621 5.7248 -2.3506 0.9755
0.1995 4.9504 -2.0277 0.9788
-0.0000 4.9498 -2.0258 0.9788
-0.1995 4.9491 -2.0272 0.9788
-0.6923 5.7013 -2.3505 0.9755
-1.0098 4.9464 -2.0662 0.9784
-1.2190 4.9457 -2.0847 0.9782
-1.5974 5.5149 -2.3499 0.9755
-1.6507 4.9443 -2.1333 0.9777
-1.8749 4.9436 -2.1639 0.9774
-2.2497 5.2802 -2.3490 0.9755
-2.3450 4.9420 -2.2388 0.9766
-2.6665 5.0805 -2.3483 0.9755
-2.8455 4.9286 -2.3292 0.9757
-3.0655 4.8477 -2.3475 0.9755
-3.2584 4.7206 -2.3476 0.9755
-3.4458 4.5856 -2.3476 0.9755
-3.6277 4.4431 -2.3476 0.9755
-4.1368 3.9734 -2.3476 0.9755
-4.5856 3.4458 -2.3476 0.9755
-4.8480 3.0657 -2.3476 0.9755
-5.1619 2.7092 -2.3859 0.9751
-5.5186 2.6186 -2.5000 0.9739
-5.6196 2.3943 -2.5000 0.9739
-5.7114 2.1660 -2.5000 0.9739
-5.8672 1.6994 -2.5000 0.9739
-5.9308 1.4618 -2.5000 0.9739
-2.8591 0.4647 -1.1855 0.9876
-2.6418 0.1065 -1.0821 0.9886
-2.4007 -0.1938 -1.0497 0.9895
-5.1825 -2.4591 -2.5000 0.9753
-5.0793 -2.6658 -2.5000 0.9753
-4.8483 -3.0659 -2.5000 0.9753
-4.4434 -3.6279 -2.5000 0.9753
-4.1370 -3.9737 -2.5000 0.9753
-3.8039 -4.2937 -2.5000 0.9753
-3.4461 -4.5859 -2.5000 0.9753
-3.2586 -4.7209 -2.5000 0.9753
-2.6658 -5.0793 -2.5000 0.9753
-2.4591 -5.1825 -2.5000 0.9753
-2.2485 -5.2773 -2.5000 0.9753
-1.8165 -5.4411 -2.5000 0.9753
-1.3728 -5.5696 -2.5000 0.9753
-1.1474 -5.6204 -2.5000 0.9753
-0.9202 -5.6620 -2.5000 0.9753
-0.6914 -5.6945 -2.5000 0.9753
-0.2310 -5.7317 -2.5000 0.9753
0.0000 -5.7363 -2.5000 0.9753
0.4616 -5.7177 -2.5000 0.9753
0.9202 -5.6620 -2.5000 0.9753
1.3728 -5.5696 -2.5000 0.9753
1.5959 -5.5098 -2.5000 0.9753
2.0341 -5.3635 -2.5000 0.9753
2.4591 -5.1825 -2.5000 0.9753
2.6658 -5.0793 -2.5000 0.9753
3.2586 -4.7209 -2.5000 0.9753
3.8039 -4.2937 -2.5000 0.9753
4.2937 -3.8039 -2.5000 0.9753
4.5858 -3.4460 -2.5000 0.9753
4.7209 -3.2586 -2.5000 0.9753
4.8483 -3.0659 -2.5000 0.9753
5.0792 -2.6658 -2.5000 0.9753
5.1825 -2.4591 -2.5000 0.9753
5.2773 -2.2484 -2.5000 0.9753
5.5098 -1.5959 -2.5000 0.9753
4.3070 -0.7000 -1.9017 0.9811
4.2262 -0.3412 -1.8479 0.9817
4.2219 -0.1701 -1.8415 0.9817
4.2218 0.1701 -1.8414 0.9817
4.2254 0.3411 -1.8475 0.9817
4.2847 0.6963 -1.8918 0.9812
5.5696 1.3728 -2.5000 0.9753
5.3636 2.0341 -2.5000 0.9753
5.2773 2.2485 -2.5000 0.9753
5.1825 2.4591 -2.5000 0.9753
5.0792 2.6658 -2.5000 0.9753
4.7106 2.7197 -2.3706 0.9765
4.3063 3.2360 -2.3476 0.9768
4.1725 3.4067 -2.3476 0.9768
4.0320 3.5720 -2.3476 0.9768
3.8848 3.7315 -2.3476 0.9768
3.5720 4.0320 -2.3476 0.9768
3.4067 4.1725 -2.3476 0.9768
3.2360 4.3063 -2.3476 0.9768
3.0599 4.4331 -2.3476 0.9768
2.5033 4.7696 -2.3476 0.9768
2.3091 4.8664 -2.3475 0.9768
2.1069 4.9451 -2.3426 0.9768
1.8780 4.9520 -2.3081 0.9772
1.4993 5.1763 -2.3486 0.9768
0.8048 4.9525 -2.1867 0.9783
0.6497 5.3512 -2.3493 0.9768
0.4338 5.3732 -2.3494 0.9768
0.1995 4.9504 -2.1592 0.9786
-0.1995 4.9491 -2.1586 0.9786
-0.4338 5.3732 -2.3494 0.9768
-0.6498 5.3512 -2.3493 0.9768
-1.0098 4.9464 -2.2002 0.9782
-1.4993 5.1763 -2.3486 0.9768
-1.6507 4.9443 -2.2717 0.9775
-1.8749 4.9436 -2.3042 0.9772
-2.1009 4.9311 -2.3360 0.9769
-2.5033 4.7696 -2.3476 0.9768
-2.6933 4.6650 -2.3476 0.9768
-2.8790 4.5527 -2.3476 0.9768
-3.0600 4.4331 -2.3476 0.9768
-3.7314 3.8849 -2.3476 0.9768
-4.0320 3.5720 -2.3476 0.9768
-4.3063 3.2360 -2.3476 0.9768
-4.5527 2.8790 -2.3476 0.9768
-5.0793 2.6658 -2.5000 0.9753
-5.1825 2.4591 -2.5000 0.9753
-5.2773 2.2484 -2.5000 0.9753
-5.3636 2.0341 -2.5000 0.9753
-5.4411 1.8165 -2.5000 0.9753
-5.5696 1.3728 -2.5000 0.9753
-2.4304 0.3950 -1.0731 0.9893
-2.4095 0.2926 -1.0578 0.9895
-2.4011 0.0968 -1.0473 0.9896
-2.2419 0.0000 -1.0377 0.9902
-2.2422 -0.2722 -1.0455 0.9901
-4.9687 -2.1170 -2.5000 0.9765
-4.8794 -2.3153 -2.5000 0.9765
-4.5648 -2.8866 -2.5000 0.9765
-4.4448 -3.0680 -2.5000 0.9765
-4.3177 -3.2445 -2.5000 0.9765
-4.0426 -3.5815 -2.5000 0.9765
-3.8951 -3.7413 -2.5000 0.9765
-3.7413 -3.8951 -2.5000 0.9765
-3.5815 -4.0426 -2.5000 0.9765
-3.4158 -4.1835 -2.5000 0.9765
-3.2445 -4.3177 -2.5000 0.9765
-2.8866 -4.5648 -2.5000 0.9765
-2.7004 -4.6773 -2.5000 0.9765
-2.3153 -4.8794 -2.5000 0.9765
-2.1170 -4.9687 -2.5000 0.9765
-1.9152 -5.0499 -2.5000 0.9765
-1.5026 -5.1876 -2.5000 0.9765
-1.2925 -5.2439 -2.5000 0.9765
-0.8664 -5.3309 -2.5000 0.9765
-0.6510 -5.3615 -2.5000 0.9765
-0.4346 -5.3834 -2.5000 0.9765
0.2175 -5.3965 -2.5000 0.9765
0.4346 -5.3834 -2.5000 0.9765
1.5026 -5.1876 -2.5000 0.9765
1.7103 -5.1229 -2.5000 0.9765
2.1170 -4.9687 -2.5000 0.9765
2.3153 -4.8794 -2.5000 0.9765
2.5099 -4.7822 -2.5000 0.9765
2.7004 -4.6773 -2.5000 0.9765
2.8866 -4.5648 -2.5000 0.9765
3.0680 -4.4448 -2.5000 0.9765
3.2445 -4.3177 -2.5000 0.9765
3.5814 -4.0426 -2.5000 0.9765
3.7413 -3.8951 -2.5000 0.9765
4.3177 -3.2445 -2.5000 0.9765
4.7822 -2.5099 -2.5000 0.9765
4.8794 -2.3153 -2.5000 0.9765
4.9687 -2.1170 -2.5000 0.9765
5.0499 -1.9152 -2.5000 0.9765
5.1229 -1.7103 -2.5000 0.9765
5.1876 -1.5026 -2.5000 0.9765
5.2439 -1.2925 -2.5000 0.9765
4.2339 -0.5141 -1.9742 0.9814
4.2121 -0.1697 -1.9513 0.9816
4.2133 0.0000 -1.9503 0.9816
4.2316 0.5138 -1.9731 0.9814
5.2917 1.0803 -2.5000 0.9765
5.2439 1.2925 -2.5000 0.9765
5.1876 1.5026 -2.5000 0.9765
5.1229 1.7103 -2.5000 0.9765
4.7822 2.5099 -2.5000 0.9765
4.6702 2.6964 -2.4962 0.9765
4.3080 2.7242 -2.3594 0.9778
4.1797 2.8851 -2.3509 0.9779
3.7962 3.3631 -2.3476 0.9779
3.5132 3.6577 -2.3476 0.9779
2.3569 4.4907 -2.3476 0.9779
1.9879 4.6658 -2.3476 0.9779
1.2138 4.9246 -2.3477 0.9779
1.0088 4.9414 -2.3345 0.9780
0.8029 4.9407 -2.3170 0.9782
0.6008 4.9485 -2.3074 0.9783
0.4082 5.0565 -2.3482 0.9779
-0.1995 4.9491 -2.2927 0.9784
-0.8021 4.9354 -2.3145 0.9782
-1.2138 4.9246 -2.3477 0.9779
-1.6060 4.8106 -2.3476 0.9779
-1.9879 4.6658 -2.3476 0.9779
-2.1742 4.5820 -2.3476 0.9779
-2.5358 4.3922 -2.3476 0.9779
-2.7106 4.2865 -2.3476 0.9779
-3.0468 4.0545 -2.3476 0.9779
-3.3631 3.7962 -2.3476 0.9779
-3.9285 3.2075 -2.3476 0.9779
-4.0545 3.0467 -2.3476 0.9779
-4.3024 2.7207 -2.3563 0.9778
-4.6596 2.6902 -2.4905 0.9766
-4.8794 2.3153 -2.5000 0.9765
-4.9687 2.1170 -2.5000 0.9765
-5.0499 1.9152 -2.5000 0.9765
-5.1229 1.7103 -2.5000 0.9765
-5.1876 1.5026 -2.5000 0.9765
-2.2422 0.2722 -1.0455 0.9901
-2.0970 -0.0845 -1.0295 0.9907
-2.0926 -0.1689 -1.0298 0.9907
-2.0958 -0.2545 -1.0356 0.9906
-2.0953 -0.3405 -1.0413 0.9906
-2.1259 -0.4340 -1.0643 0.9904
-4.8954 -1.4179 -2.5000 0.9775
-4.8343 -1.6139 -2.5000 0.9775
-4.4138 -2.5483 -2.5000 0.9775
-4.3076 -2.7239 -2.5000 0.9775
-3.8148 -3.3796 -2.5000 0.9775
-3.3796 -3.8148 -2.5000 0.9775
-2.7240 -4.3076 -2.5000 0.9775
-2.3685 -4.5128 -2.5000 0.9775
-1.9977 -4.6887 -2.5000 0.9775
-1.8073 -4.7654 -2.5000 0.9775
-0.8176 -5.0306 -2.5000 0.9775
-0.4101 -5.0800 -2.5000 0.9775
-0.2052 -5.0924 -2.5000 0.9775
-0.0000 -5.0966 -2.5000 0.9775
0.2052 -5.0924 -2.5000 0.9775
0.6143 -5.0594 -2.5000 0.9775
0.8175 -5.0306 -2.5000 0.9775
1.2197 -4.9485 -2.5000 0.9775
1.4180 -4.8953 -2.5000 0.9775
1.6139 -4.8343 -2.5000 0.9775
1.9977 -4.6887 -2.5000 0.9775
2.3685 -4.5128 -2.5000 0.9775
2.5483 -4.4137 -2.5000 0.9775
2.7239 -4.3076 -2.5000 0.9775
2.8952 -4.1944 -2.5000 0.9775
3.3796 -3.8148 -2.5000 0.9775
3.5305 -3.6756 -2.5000 0.9775
3.6757 -3.5305 -2.5000 0.9775
3.8148 -3.3796 -2.5000 0.9775
4.1944 -2.8952 -2.5000 0.9775
4.3076 -2.7239 -2.5000 0.9775
4.4137 -2.5483 -2.5000 0.9775
4.6045 -2.1849 -2.5000 0.9775
4.8343 -1.6139 -2.5000 0.9775
4.8953 -1.4179 -2.5000 0.9775
4.9485 -1.2197 -2.5000 0.9775
4.4046 -0.7158 -2.1889 0.9803
4.2367 -0.5144 -2.0935 0.9812
4.2127 -0.3401 -2.0732 0.9813
4.2122 0.3400 -2.0729 0.9813
4.2342 0.5141 -2.0922 0.9812
4.3695 0.7101 -2.1715 0.9805
4.9936 1.0195 -2.5000 0.9775
4.9485 1.2197 -2.5000 0.9775
4.8954 1.4180 -2.5000 0.9775
4.8343 1.6139 -2.5000 0.9775
4.7654 1.8073 -2.5000 0.9775
3.9520 2.7278 -2.3555 0.9788
3.8355 2.8822 -2.3534 0.9789
3.7071 3.0268 -2.3476 0.9789
3.5823 3.1736 -2.3476 0.9789
3.4516 3.3153 -2.3476 0.9789
3.3153 3.4516 -2.3476 0.9789
3.1736 3.5823 -2.3476 0.9789
2.8751 3.8260 -2.3476 0.9789
2.7187 3.9387 -2.3476 0.9789
2.5579 4.0450 -2.3476 0.9789
2.2241 4.2377 -2.3476 0.9789
2.0517 4.3238 -2.3476 0.9789
1.8759 4.4029 -2.3476 0.9789
1.6971 4.4749 -2.3476 0.9789
1.3315 4.5969 -2.3476 0.9789
1.1453 4.6468 -2.3476 0.9789
0.9573 4.6892 -2.3476 0.9789
0.3851 4.7704 -2.3476 0.9789
0.1927 4.7820 -2.3476 0.9789
-0.1927 4.7820 -2.3476 0.9789
-0.3851 4.7704 -2.3476 0.9789
-0.5769 4.7510 -2.3476 0.9789
-0.7677 4.7239 -2.3476 0.9789
-0.9573 4.6892 -2.3476 0.9789
-1.1454 4.6468 -2.3476 0.9789
-1.3315 4.5969 -2.3476 0.9789
-1.5156 4.5396 -2.3476 0.9789
-2.0517 4.3238 -2.3476 0.9789
-2.8751 3.8260 -2.3476 0.9789
-3.0268 3.7072 -2.3476 0.9789
-3.1736 3.5823 -2.3476 0.9789
-3.4516 3.3153 -2.3476 0.9789
-3.7072 3.0268 -2.3476 0.9789
-3.8312 2.8790 -2.3508 0.9789
-4.2600 2.6939 -2.4724 0.9778
-4.5128 2.3685 -2.5000 0.9775
-4.7654 1.8073 -2.5000 0.9775
-4.8343 1.6139 -2.5000 0.9775
-4.8953 1.4180 -2.5000 0.9775
-2.1259 0.4340 -1.0643 0.9904
-2.0953 0.3405 -1.0413 0.9906
-2.0926 0.1689 -1.0298 0.9907
