ply
format ascii 1.0
element vertex 1581
property float32 x
property float32 y
property float32 z
property float32 I
end_header
-2.3776 -14.6297 -1.0868 0.9423
-1.3544 -11.1548 -0.8239 0.9559
-1.1693 -14.4840 -1.0655 0.9434
0.0000 -14.3430 -1.0517 0.9441
1.1467 -14.2048 -1.0449 0.9444
1.7164 -14.1361 -1.0441 0.9445
2.2862 -14.0674 -1.0450 0.9444
3.4332 -13.9291 -1.0519 0.9441
4.0143 -13.8591 -1.0579 0.9438
15.0811 -28.7347 -2.3794 0.8780
16.7192 -26.4394 -2.2937 0.8821
16.3953 -23.7528 -2.1162 0.8907
15.7025 -19.2321 -1.8205 0.9052
15.6632 -17.6801 -1.7319 0.9096
15.3068 -12.4977 -1.4489 0.9238
16.4482 -12.3600 -1.5086 0.9208
20.5514 -11.8654 -1.7400 0.9092
25.7946 -13.5381 -2.1360 0.8897
26.0854 -12.3777 -2.1170 0.8907
29.3076 -12.4868 -2.3358 0.8801
30.3625 -10.1365 -2.3470 0.8795
30.8963 -8.9492 -2.3585 0.8790
31.1963 -7.6892 -2.3558 0.8791
31.4434 -6.4192 -2.3530 0.8792
31.6384 -5.1418 -2.3502 0.8794
33.2072 -4.0321 -2.4527 0.8744
34.0045 -2.7451 -2.5014 0.8721
34.0875 -1.3737 -2.5014 0.8721
34.1151 -0.0001 -2.5014 0.8721
34.0045 2.7451 -2.5014 0.8721
33.6734 5.4724 -2.5014 0.8721
33.4257 6.8239 -2.5014 0.8721
33.1238 8.1643 -2.5014 0.8721
30.8093 8.9240 -2.3519 0.8793
30.4569 10.1680 -2.3543 0.8792
12.2921 4.6618 -0.9639 0.9486
22.3873 9.5383 -1.7843 0.9070
14.9475 7.8451 -1.2378 0.9345
12.9494 7.4763 -1.0964 0.9418
11.8007 7.4623 -1.0237 0.9455
8.8843 6.6761 -0.8148 0.9564
7.5198 6.6620 -0.7366 0.9605
7.0619 6.7831 -0.7180 0.9615
5.8475 6.6005 -0.6466 0.9653
1.8043 6.2290 -0.4755 0.9743
1.0614 6.5310 -0.4852 0.9738
0.7591 6.2515 -0.4617 0.9751
0.5099 6.3154 -0.4646 0.9749
-0.2641 6.5558 -0.4811 0.9740
-0.4997 6.1904 -0.4554 0.9754
-1.2601 6.1725 -0.4619 0.9750
-1.5520 6.2969 -0.4755 0.9743
-1.7529 6.0519 -0.4620 0.9750
-3.0068 5.7289 -0.4744 0.9744
-4.6520 5.6976 -0.5393 0.9709
-4.7248 5.3332 -0.5224 0.9718
-5.8109 5.5814 -0.5908 0.9682
-7.0550 5.3014 -0.6471 0.9652
-3.7353 2.3621 -0.3240 0.9824
-25.2488 11.9807 -2.0491 0.8940
-30.4469 11.5470 -2.3876 0.8776
-30.6414 8.8754 -2.3390 0.8799
-31.9893 6.5307 -2.3939 0.8773
-32.6947 1.3176 -2.3992 0.8770
-26.4354 -1.0653 -2.5400 0.8991
-26.3710 -2.1288 -2.5400 0.8991
-26.2639 -3.1890 -2.5400 0.8991
-25.6880 -6.3315 -2.5400 0.8991
-25.4122 -7.3608 -2.5400 0.8991
-25.0952 -8.3780 -2.5400 0.8991
-24.3397 -10.3702 -2.5400 0.8991
-23.4263 -12.2951 -2.5400 0.8991
-21.7735 -15.0292 -2.5400 0.8991
-21.1507 -15.8937 -2.5400 0.8991
-20.4935 -16.7325 -2.5400 0.8991
-19.8032 -17.5441 -2.5400 0.8991
-19.0807 -18.3273 -2.5400 0.8991
-18.3273 -19.0807 -2.5400 0.8991
-17.5441 -19.8032 -2.5400 0.8991
-16.7325 -20.4936 -2.5400 0.8991
-14.1403 -22.3611 -2.5400 0.8991
-11.3418 -23.9024 -2.5400 0.8991
-9.3817 -24.7375 -2.5400 0.8991
0.0000 -14.3430 -1.3770 0.9440
1.1467 -14.2048 -1.3682 0.9443
2.2862 -14.0674 -1.3683 0.9443
8.7643 -23.1097 -2.3728 0.9055
9.6827 -22.7260 -2.3716 0.9055
10.5873 -22.3122 -2.3710 0.9055
12.3439 -21.3804 -2.3702 0.9056
14.0181 -20.3087 -2.3691 0.9056
14.8207 -19.7228 -2.3685 0.9056
15.6632 -17.6801 -2.2677 0.9094
15.4739 -16.1101 -2.1445 0.9141
13.2674 -12.7435 -1.7661 0.9287
14.2506 -12.6250 -1.8278 0.9263
21.7616 -11.4213 -2.3595 0.9060
22.5794 -9.6202 -2.3563 0.9061
22.9284 -8.6956 -2.3542 0.9062
23.2392 -7.7584 -2.3521 0.9062
24.4078 -6.0160 -2.4134 0.9039
25.8649 -3.1406 -2.5014 0.9006
25.9703 -2.0966 -2.5014 0.9006
25.9703 2.0965 -2.5014 0.9006
25.8649 3.1406 -2.5014 0.9006
25.5283 5.2116 -2.5014 0.9006
25.2978 6.2353 -2.5014 0.9006
23.2512 7.7624 -2.3533 0.9062
12.2921 4.6618 -1.2621 0.9485
22.4085 9.5473 -2.3384 0.9068
14.9825 7.8634 -1.6245 0.9343
12.7774 7.3770 -1.4165 0.9424
11.7679 7.4415 -1.3367 0.9456
8.4570 6.9050 -1.0482 0.9571
7.5328 6.6735 -0.9662 0.9604
7.1029 6.8224 -0.9455 0.9612
6.2754 6.5333 -0.8697 0.9643
5.8026 6.5498 -0.8401 0.9654
5.2486 6.4283 -0.7967 0.9672
1.9666 3.4063 -0.3776 0.9843
1.7816 3.3946 -0.3681 0.9847
2.7238 6.3931 -0.6672 0.9725
2.1140 6.3321 -0.6409 0.9735
1.7779 6.1379 -0.6135 0.9746
1.2701 6.2212 -0.6096 0.9748
1.0116 6.2245 -0.6054 0.9750
0.4851 6.0084 -0.5787 0.9761
0.0000 6.3578 -0.6104 0.9748
-1.2408 6.0778 -0.5955 0.9754
-1.9257 5.7682 -0.5838 0.9759
-2.1208 5.5923 -0.5742 0.9763
-2.6418 5.5674 -0.5916 0.9755
-3.7215 5.3916 -0.6289 0.9740
-4.1052 5.4631 -0.6561 0.9729
-4.5109 5.5249 -0.6848 0.9717
-5.1179 5.3283 -0.7093 0.9707
-7.0025 5.2620 -0.8409 0.9654
-23.4263 12.2951 -2.5400 0.8991
-23.9024 11.3418 -2.5400 0.8991
-24.3397 10.3702 -2.5400 0.8991
-24.7375 9.3817 -2.5400 0.8991
-25.0952 8.3780 -2.5400 0.8991
-25.4122 7.3607 -2.5400 0.8991
-25.6880 6.3315 -2.5400 0.8991
-25.9221 5.2921 -2.5400 0.8991
-26.1142 4.2440 -2.5400 0.8991
-26.2639 3.1890 -2.5400 0.8991
-26.3710 2.1290 -2.5400 0.8991
-26.4353 1.0653 -2.5400 0.8991
-21.3135 -1.7206 -2.5400 0.9175
-21.2270 -2.5774 -2.5400 0.9175
-20.9507 -4.2771 -2.5400 0.9175
-20.7615 -5.1173 -2.5400 0.9175
-20.5386 -5.9491 -2.5400 0.9175
-20.2824 -6.7713 -2.5400 0.9175
-19.6718 -8.3814 -2.5400 0.9175
-18.9336 -9.9371 -2.5400 0.9175
-18.5181 -10.6914 -2.5400 0.9175
-16.5633 -13.5235 -2.5400 0.9175
-14.8125 -15.4214 -2.5400 0.9175
-14.1795 -16.0053 -2.5400 0.9175
-13.5235 -16.5633 -2.5400 0.9175
-12.8456 -17.0944 -2.5400 0.9175
-11.4284 -18.0726 -2.5400 0.9175
-7.1281 -18.7953 -2.3878 0.9222
-5.5940 -19.3129 -2.3884 0.9222
-2.3776 -14.6297 -1.7606 0.9420
-1.3536 -11.1475 -1.3339 0.9558
2.8578 -13.9985 -1.6971 0.9441
3.4332 -13.9291 -1.7041 0.9439
4.6031 -13.7881 -1.7267 0.9431
7.8078 -18.3257 -2.3662 0.9229
8.5382 -17.9941 -2.3659 0.9229
9.9553 -17.2432 -2.3651 0.9229
11.3062 -16.3798 -2.3642 0.9230
11.9540 -15.9078 -2.3637 0.9230
12.5819 -15.4100 -2.3631 0.9230
13.1889 -14.8871 -2.3625 0.9230
13.2154 -12.6936 -2.1766 0.9288
14.8746 -13.1777 -2.3605 0.9231
15.3883 -12.5642 -2.3598 0.9231
16.7646 -10.6013 -2.3561 0.9232
17.5402 -9.2058 -2.3531 0.9233
17.8844 -8.4863 -2.3514 0.9234
18.1989 -7.7538 -2.3498 0.9234
18.8003 -7.1300 -2.3884 0.9222
19.9743 -6.6684 -2.5014 0.9187
20.2266 -5.8587 -2.5014 0.9187
20.6324 -4.2121 -2.5014 0.9187
20.7853 -3.3780 -2.5014 0.9187
20.9045 -2.5383 -2.5014 0.9187
11.3210 -0.0000 -1.3448 0.9554
20.9898 1.6944 -2.5014 0.9187
20.9045 2.5383 -2.5014 0.9187
20.7853 3.3779 -2.5014 0.9187
20.6324 4.2121 -2.5014 0.9187
20.4461 5.0395 -2.5014 0.9187
12.2921 4.6618 -1.5616 0.9484
11.7063 7.4026 -1.6452 0.9457
10.4174 7.1906 -1.5036 0.9503
9.3549 7.0298 -1.3900 0.9540
7.5260 6.6674 -1.1943 0.9603
7.1424 6.8604 -1.1764 0.9609
6.3280 6.5882 -1.0851 0.9639
5.2543 6.4353 -0.9869 0.9671
4.4752 6.4833 -0.9358 0.9688
4.0719 6.4392 -0.9050 0.9698
2.6717 6.2706 -0.8097 0.9729
2.1122 6.3267 -0.7923 0.9735
1.7669 6.0997 -0.7543 0.9747
1.4902 6.0456 -0.7396 0.9752
1.2429 6.0880 -0.7381 0.9753
0.7172 5.9061 -0.7067 0.9763
0.4722 5.8487 -0.6970 0.9766
0.2380 5.9056 -0.7021 0.9765
0.0000 6.1355 -0.7288 0.9756
-0.2423 6.0146 -0.7150 0.9760
-0.4679 5.7967 -0.6908 0.9768
-1.1979 5.8681 -0.7114 0.9762
-1.4327 5.8128 -0.7111 0.9762
-2.1303 5.6173 -0.7136 0.9761
-2.4666 5.7894 -0.7475 0.9750
-2.6599 5.6057 -0.7370 0.9753
-3.5069 5.5456 -0.7794 0.9739
-4.4761 5.4822 -0.8407 0.9719
-5.0255 5.2320 -0.8617 0.9712
-5.7135 5.4878 -0.9410 0.9686
-5.8990 5.2260 -0.9362 0.9688
-6.9882 5.2512 -1.0383 0.9654
-18.9336 9.9371 -2.5400 0.9175
-19.3184 9.1667 -2.5400 0.9175
-19.6718 8.3814 -2.5400 0.9175
-19.9933 7.5825 -2.5400 0.9175
-20.2824 6.7713 -2.5400 0.9175
-20.9507 4.2771 -2.5400 0.9175
-21.2270 2.5774 -2.5400 0.9175
-21.3655 0.8610 -2.5400 0.9175
-17.9264 0.0000 -2.5400 0.9301
-17.8683 -1.4425 -2.5400 0.9301
-17.2187 -4.9875 -2.5400 0.9301
-17.0039 -5.6767 -2.5400 0.9301
-16.7615 -6.3568 -2.5400 0.9301
-15.1512 -9.5811 -2.5400 0.9301
-14.7532 -10.1834 -2.5400 0.9301
-12.4181 -12.9286 -2.5400 0.9301
-11.8874 -13.4181 -2.5400 0.9301
-11.3375 -13.8859 -2.5400 0.9301
-7.8310 -14.9207 -2.3876 0.9342
-5.9764 -15.7584 -2.3880 0.9342
-5.3368 -15.9856 -2.3879 0.9342
-4.6886 -16.1868 -2.3878 0.9342
-2.9930 -14.6606 -2.1201 0.9413
-2.3776 -14.6297 -2.1001 0.9419
-1.3531 -11.1439 -1.5906 0.9557
0.5752 -14.2737 -2.0241 0.9439
1.7164 -14.1361 -2.0176 0.9441
3.4332 -13.9291 -2.0327 0.9437
4.0143 -13.8591 -2.0444 0.9434
4.6031 -13.7881 -2.0596 0.9430
6.5339 -15.3357 -2.3619 0.9349
7.1453 -15.0585 -2.3616 0.9349
8.3316 -14.4308 -2.3610 0.9349
10.0051 -13.3144 -2.3598 0.9349
10.5311 -12.8982 -2.3593 0.9349
11.0382 -12.4596 -2.3585 0.9350
11.9948 -11.5212 -2.3565 0.9350
12.8711 -10.5089 -2.3544 0.9351
13.2772 -9.9772 -2.3532 0.9351
13.6612 -9.4296 -2.3520 0.9351
14.3602 -8.2909 -2.3495 0.9352
15.9496 -7.5682 -2.5014 0.9312
16.2414 -6.9198 -2.5014 0.9312
16.5068 -6.2602 -2.5014 0.9312
16.7455 -5.5905 -2.5014 0.9312
17.1411 -4.2249 -2.5014 0.9312
17.2973 -3.5313 -2.5014 0.9312
17.4255 -2.8319 -2.5014 0.9312
17.5254 -2.1280 -2.5014 0.9312
11.0072 -0.8886 -1.5647 0.9564
17.5254 2.1280 -2.5014 0.9312
17.2973 3.5313 -2.5014 0.9312
15.9239 4.6124 -2.3490 0.9352
15.7367 5.2537 -2.3507 0.9352
11.6703 7.3798 -1.9564 0.9457
10.3917 7.1729 -1.7891 0.9503
9.0407 6.7937 -1.6023 0.9553
7.1220 6.8408 -1.3992 0.9609
6.4331 6.6976 -1.3158 0.9632
5.7684 6.5112 -1.2325 0.9655
5.3549 6.5584 -1.1997 0.9664
4.6950 6.2479 -1.1073 0.9689
4.4675 6.4721 -1.1143 0.9687
4.0413 6.3908 -1.0714 0.9699
1.9655 3.4044 -0.5570 0.9842
1.7807 3.3929 -0.5429 0.9846
1.6761 3.5322 -0.5540 0.9843
2.6929 6.3203 -0.9734 0.9726
2.4529 6.4678 -0.9801 0.9724
2.1305 6.3814 -0.9532 0.9732
1.4596 5.9215 -0.8641 0.9757
0.4769 5.9078 -0.8398 0.9763
-0.4734 5.8643 -0.8336 0.9765
-0.6989 5.7563 -0.8216 0.9768
-1.4272 5.7904 -0.8450 0.9762
-1.6564 5.7187 -0.8436 0.9762
-2.1011 5.5403 -0.8396 0.9763
-3.3551 5.8113 -0.9508 0.9733
-3.4844 5.5102 -0.9237 0.9740
-3.6724 5.3203 -0.9160 0.9742
-4.0704 5.4168 -0.9600 0.9730
-5.8447 5.1778 -1.1064 0.9689
-6.9871 5.2504 -1.2383 0.9653
-15.5247 8.9632 -2.5400 0.9301
-16.1956 7.6850 -2.5400 0.9301
-16.4919 7.0266 -2.5400 0.9301
-17.2187 4.9875 -2.5400 0.9301
-17.5641 3.5858 -2.5400 0.9301
-17.6943 2.8756 -2.5400 0.9301
-17.8683 1.4425 -2.5400 0.9301
-15.4182 0.0000 -2.5400 0.9394
-15.3682 -1.2407 -2.5400 0.9394
-15.3058 -1.8585 -2.5400 0.9394
-15.1066 -3.0841 -2.5400 0.9394
-14.9702 -3.6898 -2.5400 0.9394
-12.6889 -8.7586 -2.5400 0.9394
-12.3260 -9.2624 -2.5400 0.9394
-11.9430 -9.7512 -2.5400 0.9394
-11.1197 -10.6806 -2.5400 0.9394
-9.2624 -12.3260 -2.5400 0.9394
-7.1517 -12.3871 -2.3563 0.9437
-6.1214 -12.9006 -2.3524 0.9438
-5.5918 -13.1245 -2.3502 0.9438
-4.5153 -13.5251 -2.3490 0.9438
-3.9807 -13.7430 -2.3571 0.9436
-3.4249 -13.8954 -2.3576 0.9436
-1.3527 -11.1402 -1.8487 0.9555
-0.5767 -14.3108 -2.3595 0.9436
0.0000 -14.3230 -2.3596 0.9436
0.5767 -14.3117 -2.3596 0.9436
1.7265 -14.2192 -2.3597 0.9436
2.2976 -14.1380 -2.3596 0.9436
2.8650 -14.0336 -2.3596 0.9436
3.9846 -13.7564 -2.3594 0.9436
6.1361 -12.9316 -2.3580 0.9436
6.6505 -12.6714 -2.3575 0.9436
9.0383 -11.0699 -2.3543 0.9437
9.4736 -10.6934 -2.3535 0.9437
10.2958 -9.8893 -2.3518 0.9438
11.0493 -9.0215 -2.3499 0.9438
11.3992 -8.5659 -2.3490 0.9438
12.0413 -8.3115 -2.4103 0.9424
13.1497 -7.5920 -2.5014 0.9403
13.4447 -7.0564 -2.5014 0.9403
13.7180 -6.5093 -2.5014 0.9403
14.1973 -5.3843 -2.5014 0.9403
14.4025 -4.8083 -2.5014 0.9403
14.5845 -4.2245 -2.5014 0.9403
14.7427 -3.6338 -2.5014 0.9403
14.9873 -2.4357 -2.5014 0.9403
11.2763 -1.3692 -1.8713 0.9550
10.8796 -0.8783 -1.7981 0.9567
15.1347 1.2218 -2.5014 0.9403
15.0733 1.8302 -2.5014 0.9403
14.9874 2.4357 -2.5014 0.9403
14.7428 3.6338 -2.5014 0.9403
14.4068 4.1730 -2.4709 0.9410
12.2130 4.6318 -2.1518 0.9484
13.1393 5.5981 -2.3528 0.9437
12.9114 6.1266 -2.3543 0.9437
11.8653 7.5031 -2.3127 0.9447
8.4214 6.8759 -1.7910 0.9569
7.1123 6.8314 -1.6246 0.9608
6.3916 6.6544 -1.5200 0.9633
4.7232 6.2853 -1.2952 0.9686
1.9650 3.4034 -0.6474 0.9842
1.7803 3.3920 -0.6311 0.9846
2.7038 6.3460 -1.1364 0.9724
2.4532 6.4685 -1.1397 0.9723
1.2588 6.1660 -1.0367 0.9748
0.9918 6.1025 -1.0185 0.9752
-0.2413 5.9888 -0.9874 0.9760
-0.4727 5.8566 -0.9679 0.9765
-0.6963 5.7347 -0.9517 0.9769
-1.4358 5.8252 -0.9884 0.9760
-1.6500 5.6964 -0.9770 0.9762
-2.4382 5.7228 -1.0248 0.9751
-2.8646 5.4580 -1.0155 0.9753
-3.4648 5.4792 -1.0680 0.9741
-4.0241 5.3551 -1.1035 0.9732
-4.4406 5.4387 -1.1567 0.9719
-4.9967 5.2021 -1.1883 0.9712
-5.6990 5.4739 -1.3018 0.9685
-5.9084 5.2343 -1.3004 0.9685
-6.2091 5.0695 -1.3205 0.9680
-7.0172 5.2730 -1.4460 0.9650
-7.1450 4.9318 -1.4302 0.9654
-13.6521 7.1652 -2.5400 0.9394
-14.4163 5.4674 -2.5400 0.9394
-14.6247 4.8825 -2.5400 0.9394
-15.1066 3.0840 -2.5400 0.9394
-15.3058 1.8585 -2.5400 0.9394
-15.4057 0.6208 -2.5400 0.9394
-13.5134 0.0000 -2.5400 0.9465
-13.5024 -0.5441 -2.5400 0.9465
-13.4696 -1.0874 -2.5400 0.9465
-13.3384 -2.1677 -2.5400 0.9465
-13.2403 -2.7030 -2.5400 0.9465
-13.1207 -3.2340 -2.5400 0.9465
-12.9798 -3.7597 -2.5400 0.9465
-12.2087 -5.7931 -2.5400 0.9465
-11.7029 -6.7567 -2.5400 0.9465
-11.4214 -7.2224 -2.5400 0.9465
-11.1213 -7.6765 -2.5400 0.9465
-10.8032 -8.1181 -2.5400 0.9465
-10.4675 -8.5465 -2.5400 0.9465
-9.7459 -9.3611 -2.5400 0.9465
-8.4711 -10.3752 -2.5176 0.9469
-7.1156 -11.2525 -2.5024 0.9473
-6.4390 -11.1526 -2.4205 0.9489
-5.8078 -11.0658 -2.3490 0.9504
-3.4825 -12.0229 -2.3527 0.9503
-2.9961 -12.1558 -2.3532 0.9503
-2.5047 -12.2689 -2.3536 0.9503
-2.0090 -12.3618 -2.3540 0.9503
-1.3522 -11.1364 -2.1086 0.9554
-0.5045 -12.5183 -2.3549 0.9503
2.5063 -12.2768 -2.3551 0.9503
3.4856 -12.0337 -2.3548 0.9503
4.4416 -11.7116 -2.3543 0.9503
4.9089 -11.5217 -2.3540 0.9503
5.3680 -11.3129 -2.3536 0.9503
6.2585 -10.8401 -2.3527 0.9503
6.6885 -10.5770 -2.3522 0.9503
7.1072 -10.2966 -2.3516 0.9504
7.5141 -9.9995 -2.3510 0.9504
8.6644 -9.0206 -2.3510 0.9504
9.1372 -8.7764 -2.3814 0.9497
10.3085 -8.4166 -2.5014 0.9473
10.6390 -7.9947 -2.5014 0.9473
10.9523 -7.5598 -2.5014 0.9473
11.2478 -7.1127 -2.5014 0.9473
11.5251 -6.6540 -2.5014 0.9473
12.0232 -5.7051 -2.5014 0.9473
12.4433 -4.7191 -2.5014 0.9473
12.6232 -4.2142 -2.5014 0.9473
12.9214 -3.1848 -2.5014 0.9473
13.1357 -2.1348 -2.5014 0.9473
10.7558 -0.4335 -2.0233 0.9571
10.7392 -0.0000 -2.0185 0.9572
10.8834 0.4386 -2.0473 0.9566
13.2110 1.6041 -2.5014 0.9473
13.0391 2.6620 -2.5014 0.9473
12.9214 3.1848 -2.5014 0.9473
11.8546 3.9577 -2.3491 0.9504
11.6923 4.4343 -2.3504 0.9504
10.8475 6.2628 -2.3543 0.9503
10.5865 6.6945 -2.3543 0.9503
6.3613 6.6228 -1.7260 0.9633
5.8391 6.5910 -1.6551 0.9648
5.2979 6.4886 -1.5745 0.9665
1.7798 3.3912 -0.7199 0.9845
1.6752 3.5304 -0.7345 0.9842
2.6702 6.2672 -1.2805 0.9727
2.4407 6.4356 -1.2937 0.9724
1.7734 6.1222 -1.1980 0.9744
1.4900 6.0449 -1.1702 0.9750
0.7266 5.9835 -1.1329 0.9758
0.4776 5.9156 -1.1155 0.9761
0.2367 5.8723 -1.1047 0.9764
0.0000 6.1602 -1.1579 0.9752
-0.2410 5.9807 -1.1251 0.9759
-0.4713 5.8385 -1.1010 0.9764
-1.4168 5.7482 -1.1128 0.9762
-2.3737 5.5713 -1.1383 0.9757
-2.6128 5.5064 -1.1456 0.9755
-2.8976 5.5210 -1.1720 0.9749
-3.3382 5.7819 -1.2549 0.9732
-3.7101 5.3750 -1.2276 0.9738
-4.4928 5.5026 -1.3352 0.9715
-4.9565 5.1603 -1.3449 0.9713
-11.0007 6.3513 -2.3876 0.9496
-11.4761 5.4455 -2.3876 0.9496
-12.6352 4.7919 -2.5400 0.9465
-13.1207 3.2340 -2.5400 0.9465
-13.3384 2.1677 -2.5400 0.9465
-11.9773 -0.9671 -2.5400 0.9521
-11.6670 -2.8757 -2.5400 0.9521
-11.5418 -3.3431 -2.5400 0.9521
-11.2353 -4.2610 -2.5400 0.9521
-10.8560 -5.1513 -2.5400 0.9521
-10.6398 -5.5842 -2.5400 0.9521
-8.9325 -7.9134 -2.5225 0.9524
-8.2283 -8.5666 -2.5108 0.9526
-7.4909 -9.1747 -2.5036 0.9527
-7.1119 -9.4642 -2.5024 0.9528
-6.7241 -9.7416 -2.5021 0.9528
-6.3256 -10.0031 -2.5017 0.9528
-5.4994 -10.4782 -2.5014 0.9528
-4.4830 -10.5219 -2.4176 0.9543
-3.0922 -10.6754 -2.3493 0.9556
-2.6603 -10.7932 -2.3497 0.9556
-1.7837 -10.9757 -2.3505 0.9556
-0.8950 -11.0862 -2.3510 0.9555
-0.4479 -11.1142 -2.3512 0.9555
1.3410 -11.0439 -2.3516 0.9555
1.7846 -10.9808 -2.3516 0.9555
2.2252 -10.8997 -2.3515 0.9555
3.9436 -10.3985 -2.3508 0.9556
4.7663 -10.0448 -2.3502 0.9556
6.3473 -9.1957 -2.3619 0.9553
7.8472 -8.8576 -2.5014 0.9528
8.8576 -7.8472 -2.5014 0.9528
9.4603 -7.1090 -2.5014 0.9528
9.7389 -6.7223 -2.5014 0.9528
10.4782 -5.4994 -2.5014 0.9528
10.6911 -5.0730 -2.5014 0.9528
11.0646 -4.1963 -2.5014 0.9528
11.3664 -3.2923 -2.5014 0.9528
11.5945 -2.3670 -2.5014 0.9528
11.5287 -1.3999 -2.4548 0.9536
11.8336 0.0000 -2.5014 0.9528
11.2489 0.4533 -2.3797 0.9550
11.7953 0.9522 -2.5014 0.9528
11.7474 1.4264 -2.5014 0.9528
11.6804 1.8983 -2.5014 0.9528
10.6005 3.5390 -2.3623 0.9553
9.1663 6.3271 -2.3543 0.9555
7.6923 6.8148 -2.1723 0.9589
4.8132 6.4051 -1.6936 0.9678
4.0527 6.4088 -1.6028 0.9695
1.9638 3.4014 -0.8302 0.9841
2.7006 6.3385 -1.4564 0.9722
1.4663 5.9486 -1.2951 0.9753
1.2586 6.1649 -1.3300 0.9746
0.2339 5.8040 -1.2278 0.9765
0.0000 6.0825 -1.2857 0.9754
-0.4723 5.8515 -1.2409 0.9763
-0.9278 5.7095 -1.2227 0.9766
-1.2066 5.9103 -1.2751 0.9756
-1.4225 5.7716 -1.2565 0.9760
-1.8943 5.6741 -1.2645 0.9758
-2.6362 5.5556 -1.2998 0.9752
-3.4701 5.4876 -1.3724 0.9738
-3.9491 5.2552 -1.3895 0.9735
-4.6755 5.2776 -1.4904 0.9716
-5.0114 5.2174 -1.5292 0.9709
-5.6334 5.4109 -1.6511 0.9686
-6.2132 5.0729 -1.6955 0.9677
-3.7353 2.3621 -0.9342 0.9821
-10.3914 4.4274 -2.3876 0.9549
-10.5612 4.0053 -2.3876 0.9549
-10.8493 3.1425 -2.3876 0.9549
-11.6670 2.8757 -2.5400 0.9521
-11.8606 1.9275 -2.5400 0.9521
-11.9286 1.4484 -2.5400 0.9521
-12.0065 0.4839 -2.5400 0.9521
-10.7273 -1.3025 -2.5397 0.9566
-10.5873 -2.1616 -2.5396 0.9566
-10.4916 -2.5860 -2.5396 0.9566
-10.3788 -3.0063 -2.5395 0.9566
-10.0936 -3.8281 -2.5371 0.9566
-9.7344 -4.6192 -2.5323 0.9567
-9.5280 -5.0007 -2.5290 0.9567
-9.3058 -5.3727 -2.5254 0.9568
-8.5486 -6.4238 -2.5131 0.9570
-8.2696 -6.7520 -2.5091 0.9571
-7.6837 -7.3803 -2.5039 0.9572
-6.0474 -8.7611 -2.5019 0.9572
-5.6890 -8.9964 -2.5016 0.9572
-5.3216 -9.2173 -2.5014 0.9572
-4.9461 -9.4241 -2.5014 0.9572
-4.5627 -9.6156 -2.5014 0.9572
-4.1718 -9.7915 -2.5014 0.9572
-2.9611 -10.2230 -2.5014 0.9572
-2.5383 -10.2982 -2.4927 0.9574
-1.6591 -10.2089 -2.4308 0.9584
-0.0000 -10.0339 -2.3582 0.9596
0.4027 -9.9921 -2.3503 0.9597
0.8042 -9.9623 -2.3490 0.9598
1.2047 -9.9219 -2.3490 0.9598
1.6033 -9.8653 -2.3490 0.9598
3.2111 -9.6183 -2.3832 0.9592
4.0477 -9.5003 -2.4270 0.9585
4.4777 -9.4366 -2.4548 0.9580
5.6884 -8.9955 -2.5014 0.9572
6.3938 -8.5086 -2.5014 0.9572
6.7312 -8.2443 -2.5014 0.9572
7.3728 -7.6759 -2.5014 0.9572
7.6759 -7.3728 -2.5014 0.9572
7.9665 -7.0578 -2.5014 0.9572
8.2443 -6.7313 -2.5014 0.9572
8.9955 -5.6884 -2.5014 0.9572
9.2173 -5.3216 -2.5014 0.9572
9.7915 -4.1718 -2.5014 0.9572
10.0955 -3.3704 -2.5014 0.9572
10.3339 -2.5471 -2.5014 0.9572
10.4281 -2.1289 -2.5014 0.9572
10.5054 -1.7073 -2.5014 0.9572
10.6087 0.8564 -2.5014 0.9572
10.5656 1.2829 -2.5014 0.9572
10.3339 2.5471 -2.5014 0.9572
10.0955 3.3704 -2.5014 0.9572
9.3457 3.5444 -2.3491 0.9598
9.1995 3.9195 -2.3502 0.9597
8.6714 5.0064 -2.3532 0.9597
8.2442 5.6905 -2.3543 0.9597
7.4982 6.6428 -2.3543 0.9597
7.2246 6.9393 -2.3543 0.9597
5.8746 6.6311 -2.0821 0.9643
5.4982 6.7340 -2.0432 0.9649
4.7874 6.3708 -1.8729 0.9678
4.5264 6.5575 -1.8727 0.9678
4.0754 6.4446 -1.7921 0.9692
1.9632 3.4004 -0.9228 0.9840
1.6743 3.5285 -0.9179 0.9841
2.1064 6.3092 -1.5633 0.9730
1.7313 5.9771 -1.4625 0.9748
1.4843 6.0219 -1.4576 0.9748
0.2394 5.9398 -1.3971 0.9759
-0.2391 5.9353 -1.3961 0.9759
-0.4682 5.7996 -1.3675 0.9764
-1.2166 5.9592 -1.4295 0.9753
-1.4275 5.7916 -1.4019 0.9758
-2.1232 5.5986 -1.4072 0.9757
-2.5958 5.4705 -1.4231 0.9754
-2.8859 5.4986 -1.4595 0.9748
-3.3143 5.7405 -1.5579 0.9731
-3.6684 5.3146 -1.5177 0.9738
-4.0402 5.3766 -1.5806 0.9727
-4.4408 5.4390 -1.6503 0.9716
-5.8713 5.2014 -1.8435 0.9683
-7.0075 5.2658 -2.0601 0.9646
-7.1575 4.9404 -2.0440 0.9649
-3.7353 2.3621 -1.0387 0.9820
-8.7979 5.0795 -2.3876 0.9591
-8.9953 4.7211 -2.3876 0.9591
-10.5737 2.1586 -2.5363 0.9566
-10.7953 0.4351 -2.5392 0.9566
-9.7487 0.0000 -2.5241 0.9605
-9.7432 -0.3926 -2.5247 0.9605
-9.6807 -1.1755 -2.5249 0.9605
-9.5502 -1.9497 -2.5237 0.9605
-9.4598 -2.3316 -2.5226 0.9605
-9.0926 -3.4484 -2.5178 0.9606
-8.9390 -3.8086 -2.5158 0.9606
-8.7694 -4.1611 -2.5132 0.9607
-8.1829 -5.1746 -2.5068 0.9608
-7.9617 -5.4956 -2.5048 0.9608
-7.4904 -6.1157 -2.5037 0.9608
-7.2373 -6.4117 -2.5035 0.9608
-6.6965 -6.9718 -2.5029 0.9608
-6.1125 -7.4864 -2.5024 0.9609
-5.8054 -7.7256 -2.5021 0.9609
-4.8305 -8.3666 -2.5014 0.9609
-4.4897 -8.5544 -2.5014 0.9609
-4.1416 -8.7282 -2.5014 0.9609
-3.7868 -8.8879 -2.5014 0.9609
-3.4258 -9.0332 -2.5014 0.9609
-3.0593 -9.1638 -2.5014 0.9609
-1.9324 -9.4657 -2.5014 0.9609
-1.5497 -9.5359 -2.5014 0.9609
-1.1645 -9.5905 -2.5014 0.9609
-0.7774 -9.6296 -2.5014 0.9609
-0.3890 -9.6532 -2.5014 0.9609
1.5497 -9.5359 -2.5014 0.9609
1.9324 -9.4657 -2.5014 0.9609
2.3120 -9.3803 -2.5014 0.9609
2.6879 -9.2795 -2.5014 0.9609
3.7868 -8.8879 -2.5014 0.9609
4.1416 -8.7282 -2.5014 0.9609
4.4897 -8.5544 -2.5014 0.9609
4.8305 -8.3667 -2.5014 0.9609
5.1634 -8.1654 -2.5014 0.9609
5.4880 -7.9508 -2.5014 0.9609
5.8038 -7.7234 -2.5014 0.9609
6.1100 -7.4834 -2.5014 0.9609
6.4064 -7.2314 -2.5014 0.9609
6.6924 -6.9675 -2.5014 0.9609
6.9675 -6.6924 -2.5014 0.9609
7.2313 -6.4064 -2.5014 0.9609
8.5544 -4.4897 -2.5014 0.9609
8.8879 -3.7868 -2.5014 0.9609
9.1638 -3.0593 -2.5014 0.9609
9.2795 -2.6879 -2.5014 0.9609
9.4657 -1.9325 -2.5014 0.9609
9.5359 -1.5497 -2.5014 0.9609
9.5905 -1.1645 -2.5014 0.9609
9.6296 -0.7774 -2.5014 0.9609
9.6531 -0.3890 -2.5014 0.9609
9.6610 0.0000 -2.5014 0.9609
9.6531 0.3890 -2.5014 0.9609
9.5905 1.1645 -2.5014 0.9609
9.5359 1.5497 -2.5014 0.9609
9.4657 1.9324 -2.5014 0.9609
9.3802 2.3120 -2.5014 0.9609
9.2795 2.6878 -2.5014 0.9609
9.1638 3.0593 -2.5014 0.9609
8.4828 3.2171 -2.3490 0.9632
8.2017 3.8917 -2.3505 0.9632
7.8681 4.5426 -2.3524 0.9632
7.4828 5.1650 -2.3541 0.9631
7.0435 5.7508 -2.3543 0.9631
6.8062 6.0297 -2.3543 0.9631
6.5579 6.2989 -2.3543 0.9631
5.8947 6.6537 -2.3016 0.9639
4.7912 6.3758 -2.0649 0.9676
1.4811 6.0088 -1.6023 0.9748
1.2636 6.1891 -1.6355 0.9742
0.9876 6.0767 -1.5940 0.9749
0.4722 5.8491 -1.5194 0.9760
0.2365 5.8678 -1.5205 0.9760
0.0000 6.1603 -1.5950 0.9749
-0.2419 6.0046 -1.5560 0.9755
-0.4689 5.8087 -1.5089 0.9762
-0.6966 5.7371 -1.4964 0.9764
-0.9358 5.7587 -1.5106 0.9762
-1.6550 5.7139 -1.5402 0.9757
-2.0991 5.5349 -1.5327 0.9758
-2.4178 5.6748 -1.5971 0.9748
-2.6148 5.5105 -1.5792 0.9751
-4.4401 5.4381 -1.8177 0.9714
-5.0337 5.2406 -1.8814 0.9704
-5.8895 5.2175 -2.0372 0.9680
-7.1812 4.9568 -2.2593 0.9646
-8.2771 3.9275 -2.3721 0.9629
-8.5486 3.2421 -2.3672 0.9629
-8.6672 2.8935 -2.3658 0.9629
-8.8550 2.1826 -2.3613 0.9630
-8.9305 1.8232 -2.3600 0.9630
-9.6078 1.5614 -2.5203 0.9606
-9.6634 1.1733 -2.5204 0.9606
-9.7090 0.7838 -2.5220 0.9606
-9.7370 0.3924 -2.5231 0.9605
-8.8363 -0.7133 -2.5096 0.9638
-8.6836 -1.7728 -2.5090 0.9638
-8.5087 -2.4646 -2.5078 0.9638
-8.2750 -3.1383 -2.5054 0.9639
-8.1405 -3.4685 -2.5050 0.9639
-7.9936 -3.7930 -2.5048 0.9639
-7.8337 -4.1115 -2.5046 0.9639
-6.3766 -6.1248 -2.5030 0.9639
-5.5902 -6.8467 -2.5022 0.9639
-4.1063 -7.8238 -2.5014 0.9639
-3.4634 -8.1289 -2.5014 0.9639
-2.1146 -8.5792 -2.5014 0.9639
-1.7674 -8.6574 -2.5014 0.9639
-1.4174 -8.7215 -2.5014 0.9639
-0.3558 -8.8288 -2.5014 0.9639
0.7110 -8.8073 -2.5014 0.9639
1.7674 -8.6574 -2.5014 0.9639
3.4634 -8.1289 -2.5014 0.9639
3.7879 -7.9829 -2.5014 0.9639
4.4180 -7.6522 -2.5014 0.9639
4.7225 -7.4681 -2.5014 0.9639
5.3081 -7.0638 -2.5014 0.9639
5.5883 -6.8444 -2.5014 0.9639
5.8593 -6.6138 -2.5014 0.9639
6.1209 -6.3725 -2.5014 0.9639
6.6138 -5.8593 -2.5014 0.9639
6.8444 -5.5883 -2.5014 0.9639
7.2719 -5.0194 -2.5014 0.9639
7.4681 -4.7225 -2.5014 0.9639
7.8238 -4.1063 -2.5014 0.9639
7.9828 -3.7879 -2.5014 0.9639
8.4871 -2.4583 -2.5014 0.9639
8.6574 -1.7674 -2.5014 0.9639
8.8288 -0.3558 -2.5014 0.9639
8.8360 -0.0000 -2.5014 0.9639
8.7715 1.0650 -2.5014 0.9639
8.7215 1.4174 -2.5014 0.9639
8.6574 1.7674 -2.5014 0.9639
8.5792 2.1146 -2.5014 0.9639
7.4994 3.5585 -2.3499 0.9661
7.0233 4.4413 -2.3524 0.9660
6.6477 4.9954 -2.3540 0.9660
6.2250 5.5148 -2.3543 0.9660
5.5148 6.2249 -2.3543 0.9660
5.2597 6.4420 -2.3543 0.9660
4.5776 6.6317 -2.2812 0.9671
1.7779 3.3876 -1.0831 0.9842
2.7174 6.3779 -1.9626 0.9716
2.4298 6.4069 -1.9398 0.9719
0.9890 6.0856 -1.7454 0.9747
0.4813 5.9617 -1.6932 0.9754
0.2403 5.9617 -1.6891 0.9755
0.0000 6.1021 -1.7275 0.9750
-0.4720 5.8479 -1.6609 0.9759
-0.6967 5.7386 -1.6365 0.9763
-1.2153 5.9532 -1.7201 0.9751
-1.4208 5.7646 -1.6808 0.9756
-1.8879 5.6549 -1.6877 0.9755
-2.1451 5.6563 -1.7125 0.9752
-2.3915 5.6129 -1.7272 0.9750
-2.8919 5.5100 -1.7616 0.9745
-3.7108 5.3760 -1.8493 0.9732
-4.0988 5.4545 -1.9315 0.9720
-4.4942 5.5043 -2.0117 0.9709
-5.7513 5.5241 -2.2575 0.9674
-6.4420 5.2597 -2.3543 0.9660
-6.6485 4.9960 -2.3543 0.9660
-6.8443 4.7243 -2.3543 0.9660
-3.7353 2.3621 -1.2511 0.9818
-7.1859 4.1488 -2.3490 0.9661
-7.3472 3.8561 -2.3490 0.9661
-7.4965 3.5571 -2.3490 0.9661
-7.6354 3.2532 -2.3495 0.9661
-7.8745 2.6289 -2.3502 0.9661
-8.0608 1.9868 -2.3503 0.9661
-8.1338 1.6605 -2.3501 0.9661
-8.1363 -0.3279 -2.5046 0.9665
-8.0871 -0.9820 -2.5057 0.9665
-8.0406 -1.3067 -2.5056 0.9665
-7.7250 -2.5790 -2.5050 0.9665
-7.4914 -3.1918 -2.5046 0.9665
-7.2092 -3.7837 -2.5043 0.9665
-7.0505 -4.0706 -2.5041 0.9665
-6.0912 -5.3964 -2.5030 0.9665
-5.8664 -5.6347 -2.5019 0.9665
-4.8856 -6.5015 -2.5014 0.9665
-4.3466 -6.8735 -2.5014 0.9665
-3.7794 -7.2010 -2.5014 0.9665
-3.1877 -7.4818 -2.5014 0.9665
-2.8838 -7.6041 -2.5014 0.9665
-2.5753 -7.7140 -2.5014 0.9665
-2.2626 -7.8115 -2.5014 0.9665
-1.6267 -7.9682 -2.5014 0.9665
-1.3046 -8.0272 -2.5014 0.9665
-0.9803 -8.0733 -2.5014 0.9665
-0.6544 -8.1062 -2.5014 0.9665
0.0000 -8.1326 -2.5014 0.9665
0.6544 -8.1062 -2.5014 0.9665
0.9803 -8.0733 -2.5014 0.9665
1.3046 -8.0272 -2.5014 0.9665
1.9462 -7.8962 -2.5014 0.9665
2.2626 -7.8115 -2.5014 0.9665
2.8838 -7.6041 -2.5014 0.9665
3.7794 -7.2010 -2.5014 0.9665
4.0663 -7.0430 -2.5014 0.9665
4.3466 -6.8736 -2.5014 0.9665
4.6198 -6.6930 -2.5014 0.9665
4.8856 -6.5015 -2.5014 0.9665
5.1434 -6.2995 -2.5014 0.9665
5.6336 -5.8652 -2.5014 0.9665
6.0873 -5.3929 -2.5014 0.9665
6.2995 -5.1434 -2.5014 0.9665
6.5015 -4.8856 -2.5014 0.9665
6.6929 -4.6198 -2.5014 0.9665
7.2010 -3.7794 -2.5014 0.9665
7.3473 -3.4864 -2.5014 0.9665
7.6041 -2.8838 -2.5014 0.9665
7.8115 -2.2626 -2.5014 0.9665
7.8962 -1.9463 -2.5014 0.9665
7.9682 -1.6267 -2.5014 0.9665
8.0272 -1.3046 -2.5014 0.9665
8.0732 -0.9803 -2.5014 0.9665
8.1062 -0.6544 -2.5014 0.9665
8.1325 -0.0000 -2.5014 0.9665
8.1062 0.6544 -2.5014 0.9665
8.0272 1.3045 -2.5014 0.9665
7.9682 1.6267 -2.5014 0.9665
7.8962 1.9462 -2.5014 0.9665
7.8115 2.2626 -2.5014 0.9665
7.6041 2.8838 -2.5014 0.9665
7.0259 2.9935 -2.3490 0.9685
6.6194 3.8217 -2.3510 0.9685
6.4623 4.0865 -2.3517 0.9685
5.7294 5.0758 -2.3543 0.9685
5.5204 5.3024 -2.3543 0.9685
4.8410 5.9291 -2.3543 0.9685
4.3482 6.2994 -2.3543 0.9685
1.9615 3.3974 -1.2066 0.9837
1.6729 3.5256 -1.2003 0.9838
2.1247 6.3640 -2.0636 0.9723
1.7698 6.1099 -1.9565 0.9737
1.4623 5.9327 -1.8794 0.9748
0.9946 6.1201 -1.9071 0.9744
0.0000 6.1182 -1.8818 0.9747
-0.2401 5.9585 -1.8342 0.9754
-0.4735 5.8665 -1.8103 0.9757
-1.4292 5.7988 -1.8370 0.9753
-1.6497 5.6956 -1.8239 0.9755
-1.8930 5.6704 -1.8387 0.9753
-2.1485 5.6653 -1.8636 0.9750
-2.4083 5.6526 -1.8898 0.9746
-2.6208 5.5232 -1.8804 0.9747
-4.7381 5.3482 -2.1977 0.9705
-5.0617 5.2698 -2.2475 0.9699
-5.5204 5.3024 -2.3543 0.9685
-5.9291 4.8410 -2.3543 0.9685
-3.7353 2.3621 -1.3593 0.9817
-6.7776 3.5572 -2.3543 0.9685
-7.0259 2.9935 -2.3490 0.9685
-7.1408 2.7081 -2.3490 0.9685
-7.3355 2.1248 -2.3490 0.9685
-7.4151 1.8277 -2.3490 0.9685
-7.4827 1.5276 -2.3490 0.9685
-7.5690 1.2301 -2.3586 0.9684
-8.1295 0.3276 -2.5025 0.9665
-7.5190 -0.3030 -2.5014 0.9688
-7.5010 -0.6055 -2.5015 0.9688
-7.4288 -1.2073 -2.5018 0.9688
-7.3746 -1.5055 -2.5019 0.9688
-6.9258 -2.9508 -2.5024 0.9688
-6.8010 -3.2271 -2.5023 0.9688
-6.6649 -3.4980 -2.5020 0.9688
-6.5178 -3.7630 -2.5017 0.9688
-6.1931 -4.2746 -2.5014 0.9688
-6.0159 -4.5207 -2.5014 0.9688
-5.4271 -5.2128 -2.5014 0.9688
-5.2128 -5.4271 -2.5014 0.9688
-4.9901 -5.6326 -2.5014 0.9688
-4.7592 -5.8290 -2.5014 0.9688
-4.5207 -6.0159 -2.5014 0.9688
-4.2748 -6.1931 -2.5014 0.9688
-4.0219 -6.3602 -2.5014 0.9688
-3.7626 -6.5170 -2.5014 0.9688
-3.4971 -6.6632 -2.5014 0.9688
-2.9496 -6.9230 -2.5014 0.9688
-2.6685 -7.0361 -2.5014 0.9688
-2.0936 -7.2280 -2.5014 0.9688
-1.5052 -7.3731 -2.5014 0.9688
-1.2071 -7.4277 -2.5014 0.9688
-0.9071 -7.4703 -2.5014 0.9688
-0.6055 -7.5007 -2.5014 0.9688
-0.0000 -7.5251 -2.5014 0.9688
0.3030 -7.5190 -2.5014 0.9688
1.2071 -7.4277 -2.5014 0.9688
2.6684 -7.0361 -2.5014 0.9688
2.9496 -6.9230 -2.5014 0.9688
3.2260 -6.7986 -2.5014 0.9688
3.4971 -6.6632 -2.5014 0.9688
4.0219 -6.3602 -2.5014 0.9688
4.5207 -6.0159 -2.5014 0.9688
4.9901 -5.6327 -2.5014 0.9688
5.4271 -5.2129 -2.5014 0.9688
5.8290 -4.7592 -2.5014 0.9688
6.3602 -4.0219 -2.5014 0.9688
6.9230 -2.9496 -2.5014 0.9688
7.2280 -2.0936 -2.5014 0.9688
7.3065 -1.8009 -2.5014 0.9688
7.3730 -1.5052 -2.5014 0.9688
7.4703 -0.9071 -2.5014 0.9688
7.5007 -0.6055 -2.5014 0.9688
7.5007 0.6055 -2.5014 0.9688
7.0361 2.6684 -2.5014 0.9688
6.8610 2.9232 -2.4790 0.9691
6.4037 3.0386 -2.3561 0.9706
6.2590 3.2850 -2.3497 0.9706
5.9780 3.7802 -2.3511 0.9706
5.4835 4.4771 -2.3531 0.9706
5.1081 4.9063 -2.3543 0.9706
4.6967 5.3015 -2.3543 0.9706
4.4794 5.4863 -2.3543 0.9706
4.2549 5.6622 -2.3543 0.9706
4.0234 5.8289 -2.3543 0.9706
3.7855 5.9862 -2.3543 0.9706
1.6725 3.5247 -1.2968 0.9837
2.1671 6.4910 -2.2747 0.9716
1.7585 6.0708 -2.1009 0.9737
1.4638 5.9386 -2.0331 0.9745
1.2647 6.1946 -2.1016 0.9737
0.9937 6.1145 -2.0592 0.9742
0.7410 6.1021 -2.0433 0.9744
0.4809 5.9572 -1.9867 0.9751
-0.4686 5.8055 -1.9361 0.9757
-0.9282 5.7118 -1.9236 0.9759
-1.2257 6.0039 -2.0369 0.9745
-1.4445 5.8608 -2.0065 0.9749
-1.6742 5.7800 -2.0003 0.9750
-2.3932 5.6171 -2.0296 0.9746
-2.6307 5.5440 -2.0398 0.9745
-2.9134 5.5510 -2.0839 0.9739
-3.3068 5.7275 -2.1984 0.9725
-3.5174 5.5623 -2.1876 0.9726
-3.7683 5.4593 -2.2050 0.9724
-4.4794 5.4863 -2.3543 0.9706
-4.6967 5.3015 -2.3543 0.9706
-5.1081 4.9063 -2.3543 0.9706
-5.4863 4.4794 -2.3543 0.9706
-5.8289 4.0234 -2.3543 0.9706
-3.7353 2.3621 -1.4691 0.9815
-6.2702 3.2908 -2.3539 0.9706
-6.3959 3.0349 -2.3532 0.9706
-6.5111 2.7741 -2.3526 0.9706
-6.7093 2.2399 -2.3512 0.9706
-7.3284 1.1910 -2.4680 0.9692
-7.5190 0.3030 -2.5014 0.9688
-6.8535 -1.3992 -2.5014 0.9707
-6.7916 -1.6740 -2.5014 0.9707
-6.7186 -1.9461 -2.5014 0.9707
-6.6348 -2.2150 -2.5014 0.9707
-6.5403 -2.4804 -2.5014 0.9707
-6.4351 -2.7417 -2.5014 0.9707
-6.3195 -2.9986 -2.5014 0.9707
-6.1936 -3.2507 -2.5014 0.9707
-5.9120 -3.7384 -2.5014 0.9707
-5.7566 -3.9735 -2.5014 0.9707
-4.8455 -5.0447 -2.5014 0.9707
-4.6384 -5.2357 -2.5014 0.9707
-4.4238 -5.4182 -2.5014 0.9707
-4.2021 -5.5920 -2.5014 0.9707
-3.7385 -5.9119 -2.5014 0.9707
-3.2507 -6.1936 -2.5014 0.9707
-2.9986 -6.3195 -2.5014 0.9707
-1.9461 -6.7187 -2.5014 0.9707
-1.6740 -6.7916 -2.5014 0.9707
-1.3991 -6.8535 -2.5014 0.9707
-1.1221 -6.9042 -2.5014 0.9707
-0.2817 -6.9892 -2.5014 0.9707
0.2817 -6.9891 -2.5014 0.9707
0.8431 -6.9438 -2.5014 0.9707
1.1220 -6.9042 -2.5014 0.9707
1.3991 -6.8535 -2.5014 0.9707
1.9461 -6.7187 -2.5014 0.9707
2.7417 -6.4351 -2.5014 0.9707
2.9986 -6.3195 -2.5014 0.9707
3.4974 -6.0577 -2.5014 0.9707
3.7385 -5.9120 -2.5014 0.9707
3.9735 -5.7566 -2.5014 0.9707
4.2021 -5.5920 -2.5014 0.9707
4.4238 -5.4182 -2.5014 0.9707
4.6384 -5.2357 -2.5014 0.9707
5.0447 -4.8455 -2.5014 0.9707
5.5920 -4.2021 -2.5014 0.9707
6.0577 -3.4974 -2.5014 0.9707
6.3195 -2.9986 -2.5014 0.9707
6.4351 -2.7417 -2.5014 0.9707
6.5403 -2.4804 -2.5014 0.9707
6.7186 -1.9461 -2.5014 0.9707
6.9891 -0.2817 -2.5014 0.9707
6.9948 -0.0000 -2.5014 0.9707
6.9891 0.2817 -2.5014 0.9707
6.9721 0.5628 -2.5014 0.9707
6.9438 0.8431 -2.5014 0.9707
6.9042 1.1220 -2.5014 0.9707
6.7186 1.9461 -2.5014 0.9707
6.5403 2.4804 -2.5014 0.9707
5.9452 2.8210 -2.3533 0.9724
5.8169 3.0529 -2.3492 0.9725
5.6908 3.2856 -2.3499 0.9725
5.5554 3.5130 -2.3506 0.9725
5.2576 3.9508 -2.3518 0.9724
4.7467 4.5592 -2.3536 0.9724
4.3657 4.9279 -2.3543 0.9724
4.1637 5.0996 -2.3543 0.9724
3.9550 5.2632 -2.3543 0.9724
3.7399 5.4181 -2.3543 0.9724
3.5187 5.5643 -2.3543 0.9724
1.7765 3.3848 -1.3670 0.9839
1.6720 3.5237 -1.3948 0.9836
1.7883 6.1738 -2.2986 0.9731
0.0000 6.2336 -2.2292 0.9739
-0.6983 5.7517 -2.0720 0.9757
-0.9203 5.6633 -2.0518 0.9759
-1.2351 6.0499 -2.2081 0.9741
-1.4382 5.8350 -2.1491 0.9748
-1.6602 5.7316 -2.1339 0.9750
-2.1244 5.6015 -2.1424 0.9749
-2.6374 5.5581 -2.2000 0.9742
-3.2918 5.7015 -2.3543 0.9724
-3.5187 5.5644 -2.3543 0.9724
-4.1637 5.0996 -2.3543 0.9724
-4.3657 4.9279 -2.3543 0.9724
-4.5606 4.7481 -2.3543 0.9724
-4.7481 4.5606 -2.3543 0.9724
-4.9279 4.3657 -2.3543 0.9724
-5.0997 4.1637 -2.3543 0.9724
-5.4182 3.7399 -2.3543 0.9724
-3.7353 2.3621 -1.5804 0.9814
-5.9434 2.8202 -2.3525 0.9724
-6.0506 2.5779 -2.3519 0.9724
-6.1478 2.3316 -2.3513 0.9725
-6.2350 2.0816 -2.3507 0.9725
-6.3120 1.8283 -2.3500 0.9725
-6.3787 1.5722 -2.3493 0.9725
-6.4359 1.3139 -2.3490 0.9725
-6.9042 1.1221 -2.5014 0.9707
-6.9891 0.2816 -2.5014 0.9707
-3.5687 -0.2881 -1.3720 0.9848
-6.3377 -1.5621 -2.5014 0.9724
-6.2696 -1.8160 -2.5014 0.9724
-6.1914 -2.0670 -2.5014 0.9724
-5.6528 -3.2637 -2.5014 0.9724
-5.3719 -3.7080 -2.5014 0.9724
-5.2182 -3.9212 -2.5014 0.9724
-5.0561 -4.1282 -2.5014 0.9724
-4.7075 -4.5217 -2.5014 0.9724
-4.3284 -4.8858 -2.5014 0.9724
-3.7080 -5.3719 -2.5014 0.9724
-3.4886 -5.5169 -2.5014 0.9724
-2.7982 -5.8971 -2.5014 0.9724
-2.3146 -6.1032 -2.5014 0.9724
-2.0670 -6.1914 -2.5014 0.9724
-1.8160 -6.2696 -2.5014 0.9724
-1.3056 -6.3954 -2.5014 0.9724
-0.7868 -6.4798 -2.5014 0.9724
0.0000 -6.5274 -2.5014 0.9724
0.5252 -6.5062 -2.5014 0.9724
0.7868 -6.4797 -2.5014 0.9724
1.0471 -6.4428 -2.5014 0.9724
1.8160 -6.2696 -2.5014 0.9724
2.0670 -6.1914 -2.5014 0.9724
2.5585 -6.0050 -2.5014 0.9724
2.7982 -5.8971 -2.5014 0.9724
3.2637 -5.6529 -2.5014 0.9724
3.4886 -5.5168 -2.5014 0.9724
4.3284 -4.8858 -2.5014 0.9724
4.5216 -4.7075 -2.5014 0.9724
4.7075 -4.5217 -2.5014 0.9724
5.2182 -3.9213 -2.5014 0.9724
5.7797 -3.0334 -2.5014 0.9724
5.8971 -2.7982 -2.5014 0.9724
6.1914 -2.0670 -2.5014 0.9724
6.3954 -1.3057 -2.5014 0.9724
6.4428 -1.0471 -2.5014 0.9724
6.4798 -0.7868 -2.5014 0.9724
6.5062 -0.5252 -2.5014 0.9724
6.5221 -0.2628 -2.5014 0.9724
6.5273 -0.0000 -2.5014 0.9724
6.4798 0.7868 -2.5014 0.9724
6.4428 1.0471 -2.5014 0.9724
6.3954 1.3056 -2.5014 0.9724
6.3377 1.5621 -2.5014 0.9724
6.2696 1.8160 -2.5014 0.9724
6.1914 2.0670 -2.5014 0.9724
6.0050 2.5585 -2.5014 0.9724
5.8455 2.7737 -2.4795 0.9727
5.4275 2.8486 -2.3490 0.9741
5.1831 3.2776 -2.3501 0.9741
4.7538 3.8814 -2.3518 0.9741
4.5948 4.0706 -2.3524 0.9740
4.4282 4.2533 -2.3529 0.9740
4.2543 4.4291 -2.3535 0.9740
3.6907 4.9114 -2.3543 0.9740
1.9596 3.3942 -1.5019 0.9834
1.7760 3.3839 -1.4645 0.9838
1.6715 3.5226 -1.4942 0.9834
2.4081 5.6520 -2.3543 0.9740
0.9855 6.0640 -2.3543 0.9740
0.7405 6.0988 -2.3543 0.9740
0.4876 6.0398 -2.3221 0.9744
-0.2430 6.0305 -2.3129 0.9745
-0.4751 5.8858 -2.2629 0.9750
-0.9117 5.6101 -2.1781 0.9759
-2.4081 5.6520 -2.3543 0.9740
-2.6337 5.5504 -2.3543 0.9740
-3.0718 5.3205 -2.3543 0.9740
-3.4900 5.0561 -2.3543 0.9740
-3.6907 4.9114 -2.3543 0.9740
-4.0739 4.5985 -2.3543 0.9740
-4.2558 4.4308 -2.3543 0.9740
-4.4308 4.2558 -2.3543 0.9740
-4.7588 3.8855 -2.3543 0.9740
-4.9114 3.6907 -2.3543 0.9740
-3.7353 2.3621 -1.6936 0.9812
-5.3175 3.0701 -2.3530 0.9740
-5.4356 2.8528 -2.3525 0.9740
-5.5448 2.6310 -2.3519 0.9741
-5.8171 1.9421 -2.3502 0.9741
-5.9515 1.4669 -2.3490 0.9741
-6.4428 1.0471 -2.5014 0.9724
-3.5921 0.4361 -1.3867 0.9846
-3.5687 0.2881 -1.3720 0.9848
-2.8160 -0.0000 -1.1525 0.9879
-5.9342 -1.4626 -2.5014 0.9739
-5.7972 -1.9354 -2.5014 0.9739
-5.6227 -2.3956 -2.5014 0.9739
-5.4117 -2.8403 -2.5014 0.9739
-5.1656 -3.2665 -2.5014 0.9739
-4.8860 -3.6716 -2.5014 0.9739
-4.2338 -4.4078 -2.5014 0.9739
-4.0529 -4.5747 -2.5014 0.9739
-3.8654 -4.7342 -2.5014 0.9739
-3.4719 -5.0299 -2.5014 0.9739
-3.2665 -5.1656 -2.5014 0.9739
-2.3956 -5.6227 -2.5014 0.9739
-2.1673 -5.7146 -2.5014 0.9739
-1.4626 -5.9342 -2.5014 0.9739
-1.2225 -5.9883 -2.5014 0.9739
-0.9804 -6.0326 -2.5014 0.9739
-0.7367 -6.0672 -2.5014 0.9739
0.0000 -6.1118 -2.5014 0.9739
0.7367 -6.0672 -2.5014 0.9739
1.2225 -5.9883 -2.5014 0.9739
2.1673 -5.7146 -2.5014 0.9739
2.3956 -5.6227 -2.5014 0.9739
2.6201 -5.5217 -2.5014 0.9739
3.4719 -5.0299 -2.5014 0.9739
3.6716 -4.8860 -2.5014 0.9739
4.0529 -4.5747 -2.5014 0.9739
4.5747 -4.0529 -2.5014 0.9739
5.0299 -3.4719 -2.5014 0.9739
5.1656 -3.2665 -2.5014 0.9739
5.2930 -3.0559 -2.5014 0.9739
5.4117 -2.8403 -2.5014 0.9739
5.7146 -2.1673 -2.5014 0.9739
5.8705 -1.7004 -2.5014 0.9739
5.9883 -1.2225 -2.5014 0.9739
6.0920 -0.4918 -2.5014 0.9739
6.1118 -0.0000 -2.5014 0.9739
6.0920 0.4918 -2.5014 0.9739
6.0672 0.7367 -2.5014 0.9739
5.5217 2.6201 -2.5014 0.9739
5.1221 2.6883 -2.3675 0.9753
4.5918 3.4505 -2.3508 0.9755
4.4501 3.6334 -2.3513 0.9755
4.3012 3.8105 -2.3518 0.9755
3.9823 4.1460 -2.3528 0.9755
3.8129 4.3039 -2.3533 0.9755
3.6372 4.4548 -2.3538 0.9754
3.0745 4.8619 -2.3543 0.9754
1.7755 3.3829 -1.5636 0.9836
1.6710 3.5216 -1.5953 0.9833
2.0398 5.3786 -2.3543 0.9754
1.3767 5.5853 -2.3543 0.9754
1.1506 5.6362 -2.3543 0.9754
0.2316 5.7478 -2.3543 0.9754
0.0000 5.7524 -2.3543 0.9754
-0.4629 5.7338 -2.3543 0.9754
-0.6934 5.7105 -2.3543 0.9754
-1.1506 5.6362 -2.3543 0.9754
-1.8216 5.4564 -2.3543 0.9754
-2.0398 5.3786 -2.3543 0.9754
-2.4660 5.1970 -2.3543 0.9754
-2.6733 5.0935 -2.3543 0.9754
-3.0745 4.8619 -2.3543 0.9754
-3.4557 4.5987 -2.3543 0.9754
-3.6381 4.4558 -2.3543 0.9754
-3.8146 4.3058 -2.3543 0.9754
-4.3058 3.8146 -2.3543 0.9754
-4.4558 3.6380 -2.3543 0.9754
-4.5978 3.4550 -2.3538 0.9754
-4.7322 3.2664 -2.3534 0.9755
-3.7353 2.3621 -1.8088 0.9811
-5.0883 2.6705 -2.3519 0.9755
-5.1905 2.4629 -2.3514 0.9755
-5.4458 1.8181 -2.3497 0.9755
-3.0070 0.6139 -1.2561 0.9868
-3.0246 0.4915 -1.2541 0.9868
-2.3650 -0.0000 -1.0307 0.9897
-2.3670 -0.0954 -1.0324 0.9897
-2.3649 -0.1909 -1.0340 0.9897
-2.4021 -0.3904 -1.0606 0.9894
-2.4207 -0.4942 -1.0767 0.9893
-5.5728 -1.3736 -2.5014 0.9753
-5.3666 -2.0353 -2.5014 0.9753
-5.2803 -2.2497 -2.5014 0.9753
-5.0821 -2.6673 -2.5014 0.9753
-4.4459 -3.6300 -2.5014 0.9753
-4.2961 -3.8060 -2.5014 0.9753
-3.6300 -4.4459 -2.5014 0.9753
-3.2604 -4.7236 -2.5014 0.9753
-2.6673 -5.0821 -2.5014 0.9753
-1.8175 -5.4442 -2.5014 0.9753
-1.5968 -5.5130 -2.5014 0.9753
-1.3736 -5.5728 -2.5014 0.9753
-0.9207 -5.6652 -2.5014 0.9753
-0.6918 -5.6977 -2.5014 0.9753
-0.2311 -5.7349 -2.5014 0.9753
0.2311 -5.7349 -2.5014 0.9753
0.4618 -5.7210 -2.5014 0.9753
0.9207 -5.6652 -2.5014 0.9753
1.1481 -5.6236 -2.5014 0.9753
1.8175 -5.4442 -2.5014 0.9753
2.0353 -5.3666 -2.5014 0.9753
2.2497 -5.2803 -2.5014 0.9753
2.4605 -5.1854 -2.5014 0.9753
3.2604 -4.7236 -2.5014 0.9753
3.6300 -4.4459 -2.5014 0.9753
3.8060 -4.2961 -2.5014 0.9753
3.9759 -4.1394 -2.5014 0.9753
4.1394 -3.9759 -2.5014 0.9753
4.2961 -3.8060 -2.5014 0.9753
4.5884 -3.4480 -2.5014 0.9753
4.7236 -3.2604 -2.5014 0.9753
4.8510 -3.0676 -2.5014 0.9753
5.1854 -2.4605 -2.5014 0.9753
5.5129 -1.5969 -2.5014 0.9753
5.6236 -1.1481 -2.5014 0.9753
5.7209 -0.4619 -2.5014 0.9753
5.7349 -0.2311 -2.5014 0.9753
5.7396 -0.0000 -2.5014 0.9753
5.7349 0.2311 -2.5014 0.9753
5.6977 0.6918 -2.5014 0.9753
5.6652 0.9207 -2.5014 0.9753
5.6236 1.1480 -2.5014 0.9753
5.5728 1.3736 -2.5014 0.9753
5.5129 1.5968 -2.5014 0.9753
5.2803 2.2497 -2.5014 0.9753
5.1854 2.4605 -2.5014 0.9753
5.0610 2.6562 -2.4910 0.9754
4.4373 3.0628 -2.3498 0.9767
3.8918 3.7381 -2.3518 0.9767
3.5798 4.0407 -2.3527 0.9767
3.4148 4.1824 -2.3531 0.9767
3.2442 4.3172 -2.3535 0.9767
3.0683 4.4451 -2.3540 0.9767
2.8872 4.5658 -2.3543 0.9767
1.6705 3.5206 -1.6983 0.9831
1.5030 5.1888 -2.3543 0.9767
0.8666 5.3321 -2.3543 0.9767
0.6512 5.3627 -2.3543 0.9767
0.2175 5.3977 -2.3543 0.9767
0.0000 5.4021 -2.3543 0.9767
-0.4347 5.3846 -2.3543 0.9767
-1.2928 5.2451 -2.3543 0.9767
-1.5030 5.1888 -2.3543 0.9767
-1.7107 5.1241 -2.3543 0.9767
-2.7010 4.6783 -2.3543 0.9767
-3.2453 4.3187 -2.3543 0.9767
-3.4165 4.1845 -2.3543 0.9767
-3.7422 3.8960 -2.3543 0.9767
-4.0430 3.5818 -2.3540 0.9767
-4.1832 3.4155 -2.3536 0.9767
-4.3166 3.2437 -2.3532 0.9767
-4.4429 3.0667 -2.3528 0.9767
-3.7353 2.3621 -1.9261 0.9809
-4.6734 2.6982 -2.3519 0.9767
-4.7773 2.5073 -2.3514 0.9767
-4.9615 2.1139 -2.3504 0.9767
-5.0415 1.9120 -2.3499 0.9767
-5.1133 1.7070 -2.3494 0.9768
-5.1771 1.4996 -2.3490 0.9768
-5.4708 1.3484 -2.4556 0.9757
-2.4021 0.3904 -1.0606 0.9894
-2.3794 0.2889 -1.0446 0.9896
-2.2037 -0.0888 -1.0209 0.9903
-2.2008 -0.1777 -1.0220 0.9903
-2.2080 -0.2681 -1.0295 0.9902
-2.2302 -0.3625 -1.0459 0.9901
-2.2466 -0.4587 -1.0614 0.9899
-5.1906 -1.5035 -2.5014 0.9765
-5.1258 -1.7112 -2.5014 0.9765
-5.0528 -1.9163 -2.5014 0.9765
-4.6799 -2.7020 -2.5014 0.9765
-4.4473 -3.0698 -2.5014 0.9765
-4.3201 -3.2464 -2.5014 0.9765
-4.1859 -3.4177 -2.5014 0.9765
-3.7434 -3.8973 -2.5014 0.9765
-3.4177 -4.1859 -2.5014 0.9765
-3.2464 -4.3201 -2.5014 0.9765
-2.8882 -4.5674 -2.5014 0.9765
-2.7020 -4.6799 -2.5014 0.9765
-2.5113 -4.7850 -2.5014 0.9765
-1.5035 -5.1906 -2.5014 0.9765
-1.0809 -5.2947 -2.5014 0.9765
-0.6514 -5.3645 -2.5014 0.9765
-0.0000 -5.4039 -2.5014 0.9765
0.4348 -5.3864 -2.5014 0.9765
0.6514 -5.3645 -2.5014 0.9765
1.2932 -5.2469 -2.5014 0.9765
1.5035 -5.1906 -2.5014 0.9765
1.7113 -5.1258 -2.5014 0.9765
2.7020 -4.6799 -2.5014 0.9765
3.0698 -4.4474 -2.5014 0.9765
3.5835 -4.0449 -2.5014 0.9765
3.7434 -3.8973 -2.5014 0.9765
4.0449 -3.5835 -2.5014 0.9765
4.4473 -3.0698 -2.5014 0.9765
4.6799 -2.7020 -2.5014 0.9765
4.7849 -2.5113 -2.5014 0.9765
4.8822 -2.3166 -2.5014 0.9765
4.9715 -2.1182 -2.5014 0.9765
5.0528 -1.9163 -2.5014 0.9765
5.1906 -1.5035 -2.5014 0.9765
5.2947 -1.0809 -2.5014 0.9765
5.3339 -0.8669 -2.5014 0.9765
5.3645 -0.6514 -2.5014 0.9765
5.3864 -0.4349 -2.5014 0.9765
5.3995 -0.2176 -2.5014 0.9765
5.3995 0.2176 -2.5014 0.9765
5.3864 0.4348 -2.5014 0.9765
5.3339 0.8668 -2.5014 0.9765
5.2469 1.2932 -2.5014 0.9765
5.1906 1.5035 -2.5014 0.9765
5.0528 1.9162 -2.5014 0.9765
4.8822 2.3166 -2.5014 0.9765
4.7849 2.5113 -2.5014 0.9765
4.2891 2.7122 -2.3490 0.9779
4.1771 2.8832 -2.3494 0.9779
4.0585 3.0498 -2.3499 0.9779
3.9332 3.2113 -2.3504 0.9779
3.8014 3.3678 -2.3508 0.9779
3.6634 3.5188 -2.3513 0.9779
3.3696 3.8036 -2.3521 0.9779
3.2143 3.9368 -2.3526 0.9778
3.0537 4.0637 -2.3529 0.9778
2.8881 4.1841 -2.3533 0.9778
2.7177 4.2976 -2.3537 0.9778
1.9577 3.3908 -1.8124 0.9829
1.7744 3.3809 -1.7674 0.9833
1.9936 4.6792 -2.3543 0.9778
1.8036 4.7557 -2.3543 0.9778
1.6106 4.8244 -2.3543 0.9778
1.4151 4.8854 -2.3543 0.9778
1.2172 4.9384 -2.3543 0.9778
1.0174 4.9834 -2.3543 0.9778
0.6131 5.0491 -2.3543 0.9778
0.4093 5.0697 -2.3543 0.9778
0.0000 5.0862 -2.3543 0.9778
-0.8159 5.0203 -2.3543 0.9778
-1.0174 4.9834 -2.3543 0.9778
-1.2172 4.9384 -2.3543 0.9778
-1.4151 4.8854 -2.3543 0.9778
-1.6106 4.8245 -2.3543 0.9778
-2.5431 4.4048 -2.3543 0.9778
-3.0555 4.0661 -2.3543 0.9778
-3.6673 3.5225 -2.3537 0.9778
-3.8056 3.3714 -2.3534 0.9778
-3.6768 2.3251 -2.0137 0.9810
-4.5876 2.1768 -2.3504 0.9779
-4.6706 1.9899 -2.3500 0.9779
-4.7459 1.7999 -2.3495 0.9779
-4.9169 1.4242 -2.3695 0.9777
-2.3851 0.5879 -1.1371 0.9892
-2.2466 0.4586 -1.0614 0.9899
-2.2302 0.3624 -1.0459 0.9901
-2.2037 0.0888 -1.0209 0.9903
-2.0595 -0.0830 -1.0111 0.9909
-2.0571 -0.1661 -1.0123 0.9908
-2.0575 -0.2498 -1.0167 0.9908
-2.0750 -0.3372 -1.0312 0.9907
-2.1007 -0.5178 -1.0613 0.9904
-4.8370 -1.6148 -2.5014 0.9775
-4.7681 -1.8083 -2.5014 0.9775
-4.6914 -1.9988 -2.5014 0.9775
-4.6071 -2.1861 -2.5014 0.9775
-4.5153 -2.3698 -2.5014 0.9775
-4.3100 -2.7255 -2.5014 0.9775
-4.0767 -3.0635 -2.5014 0.9775
-3.3816 -3.8170 -2.5014 0.9775
-3.0635 -4.0767 -2.5014 0.9775
-2.8968 -4.1968 -2.5014 0.9775
-2.7255 -4.3100 -2.5014 0.9775
-2.3698 -4.5153 -2.5014 0.9775
-2.1861 -4.6071 -2.5014 0.9775
-1.9988 -4.6914 -2.5014 0.9775
-1.4188 -4.8981 -2.5014 0.9775
-0.8180 -5.0334 -2.5014 0.9775
-0.2053 -5.0953 -2.5014 0.9775
0.0000 -5.0994 -2.5014 0.9775
0.2053 -5.0953 -2.5014 0.9775
0.4103 -5.0829 -2.5014 0.9775
1.0200 -4.9964 -2.5014 0.9775
1.6148 -4.8370 -2.5014 0.9775
1.9988 -4.6914 -2.5014 0.9775
2.3698 -4.5153 -2.5014 0.9775
2.5497 -4.4163 -2.5014 0.9775
2.7255 -4.3100 -2.5014 0.9775
3.0635 -4.0767 -2.5014 0.9775
3.8170 -3.3816 -2.5014 0.9775
3.9500 -3.2251 -2.5014 0.9775
4.1968 -2.8968 -2.5014 0.9775
4.3100 -2.7255 -2.5014 0.9775
4.6071 -2.1861 -2.5014 0.9775
4.6914 -1.9988 -2.5014 0.9775
4.8981 -1.4188 -2.5014 0.9775
4.9964 -1.0200 -2.5014 0.9775
5.0334 -0.8180 -2.5014 0.9775
5.0623 -0.6147 -2.5014 0.9775
5.0953 -0.2053 -2.5014 0.9775
5.0994 -0.0000 -2.5014 0.9775
5.0829 0.4103 -2.5014 0.9775
4.9964 1.0200 -2.5014 0.9775
4.9513 1.2204 -2.5014 0.9775
4.7681 1.8083 -2.5014 0.9775
3.8292 2.8775 -2.3495 0.9789
3.7109 3.0299 -2.3500 0.9789
3.5866 3.1774 -2.3504 0.9789
3.4564 3.3199 -2.3508 0.9789
2.7247 3.9474 -2.3528 0.9789
1.9570 3.3896 -1.9199 0.9827
1.7020 4.4877 -2.3543 0.9788
1.1486 4.6601 -2.3543 0.9788
0.5785 4.7646 -2.3543 0.9788
0.3862 4.7841 -2.3543 0.9788
0.0000 4.7996 -2.3543 0.9788
-0.5785 4.7646 -2.3543 0.9788
-0.7699 4.7375 -2.3543 0.9788
-1.1486 4.6602 -2.3543 0.9788
-1.3353 4.6101 -2.3543 0.9788
-2.0576 4.3362 -2.3543 0.9788
-2.3998 4.1566 -2.3543 0.9788
-2.8833 3.8370 -2.3543 0.9788
-3.0352 3.7174 -2.3541 0.9788
-3.1820 3.5917 -2.3538 0.9788
-3.3236 3.4603 -2.3535 0.9789
-3.5903 3.1807 -2.3528 0.9789
-3.7149 3.0331 -2.3525 0.9789
-3.6519 2.3093 -2.1194 0.9809
-4.1506 2.3963 -2.3509 0.9789
-4.4067 1.8775 -2.3496 0.9789
-4.4779 1.6982 -2.3491 0.9789
-2.1007 0.5178 -1.0613 0.9904
-2.0898 0.4266 -1.0462 0.9905
-2.0575 0.2498 -1.0167 0.9908
-1.9479 -0.0000 -1.0105 0.9913
-1.9494 -0.0786 -1.0121 0.9912
-1.9473 -0.1572 -1.0135 0.9912
-1.9445 -0.2361 -1.0162 0.9912
-1.9520 -0.3172 -1.0259 0.9911
-1.9607 -0.4003 -1.0382 0.9910
-1.9687 -0.4852 -1.0519 0.9909
-4.5735 -1.5269 -2.5014 0.9785
-4.5084 -1.7098 -2.5014 0.9785
-4.2694 -2.2408 -2.5014 0.9785
-4.1757 -2.4108 -2.5014 0.9785
-4.0753 -2.5770 -2.5014 0.9785
-3.7349 -3.0495 -2.5014 0.9785
-3.6091 -3.1974 -2.5014 0.9785
-3.0495 -3.7349 -2.5014 0.9785
-2.7390 -3.9682 -2.5014 0.9785
-2.4108 -4.1757 -2.5014 0.9785
-2.2408 -4.2694 -2.5014 0.9785
-2.0670 -4.3562 -2.5014 0.9785
-1.8899 -4.4359 -2.5014 0.9785
-1.5269 -4.5736 -2.5014 0.9785
-1.3415 -4.6313 -2.5014 0.9785
-1.1539 -4.6816 -2.5014 0.9785
-0.9645 -4.7243 -2.5014 0.9785
-0.3880 -4.8061 -2.5014 0.9785
-0.1942 -4.8178 -2.5014 0.9785
0.0000 -4.8217 -2.5014 0.9785
0.5812 -4.7865 -2.5014 0.9785
1.3415 -4.6313 -2.5014 0.9785
1.5269 -4.5736 -2.5014 0.9785
1.8899 -4.4359 -2.5014 0.9785
2.0670 -4.3562 -2.5014 0.9785
2.2408 -4.2694 -2.5014 0.9785
2.4108 -4.1757 -2.5014 0.9785
2.7390 -3.9682 -2.5014 0.9785
2.8966 -3.8547 -2.5014 0.9785
3.0495 -3.7349 -2.5014 0.9785
3.4774 -3.3401 -2.5014 0.9785
3.6091 -3.1974 -2.5014 0.9785
3.7349 -3.0495 -2.5014 0.9785
4.0752 -2.5770 -2.5014 0.9785
4.4359 -1.8899 -2.5014 0.9785
4.6816 -1.1539 -2.5014 0.9785
4.7242 -0.9645 -2.5014 0.9785
4.7593 -0.7735 -2.5014 0.9785
4.7865 -0.5812 -2.5014 0.9785
4.8178 -0.1942 -2.5014 0.9785
4.8217 -0.0000 -2.5014 0.9785
4.8178 0.1941 -2.5014 0.9785
4.8061 0.3880 -2.5014 0.9785
4.6816 1.1539 -2.5014 0.9785
4.5736 1.5269 -2.5014 0.9785
4.5084 1.7098 -2.5014 0.9785
4.4359 1.8899 -2.5014 0.9785
4.2694 2.2407 -2.5014 0.9785
4.1757 2.4108 -2.5014 0.9785
3.6201 2.7203 -2.3492 0.9798
3.3907 3.0039 -2.3500 0.9798
3.1390 3.2681 -2.3508 0.9798
3.0054 3.3924 -2.3512 0.9798
2.7235 3.6243 -2.3519 0.9798
2.5757 3.7316 -2.3522 0.9798
2.4237 3.8328 -2.3526 0.9798
1.9563 3.3884 -2.0298 0.9825
1.7733 3.3788 -1.9796 0.9830
1.6690 3.5173 -2.0197 0.9826
1.6090 4.2426 -2.3539 0.9798
1.2626 4.3590 -2.3543 0.9798
1.0861 4.4063 -2.3543 0.9798
0.7280 4.4794 -2.3543 0.9798
0.1827 4.5345 -2.3543 0.9798
-0.1827 4.5345 -2.3543 0.9798
-0.3652 4.5235 -2.3543 0.9798
-0.5470 4.5051 -2.3543 0.9798
-0.9078 4.4465 -2.3543 0.9798
-1.0861 4.4063 -2.3543 0.9798
-1.7788 4.1750 -2.3543 0.9798
-1.9455 4.1000 -2.3543 0.9798
-2.1090 4.0184 -2.3543 0.9798
-2.2691 3.9302 -2.3543 0.9798
-2.5776 3.7343 -2.3540 0.9798
-2.8691 3.5140 -2.3535 0.9798
-3.0080 3.3953 -2.3532 0.9798
-3.2706 3.1414 -2.3526 0.9798
-3.5723 2.4658 -2.2519 0.9806
