ply
format ascii 1.0
element vertex 1580
property float32 x
property float32 y
property float32 z
property float32 I
end_header
-0.0000 8.2731 -0.7943 0.9673
-2.3721 9.6240 -0.9516 0.9610
-2.7491 9.4910 -0.9486 0.9611
-4.1128 9.6530 -1.0073 0.9587
-4.2608 8.1182 -0.8802 0.9638
-4.5856 7.9425 -0.8805 0.9638
-5.9955 9.4811 -1.0770 0.9559
-6.0320 8.0271 -0.9640 0.9605
-7.4935 8.4584 -1.0849 0.9556
-7.9084 8.2335 -1.0960 0.9552
-19.1904 17.0013 -2.4614 0.9021
-21.0998 14.5641 -2.4614 0.9021
-21.6691 13.7028 -2.4614 0.9021
-22.2033 12.8191 -2.4614 0.9021
-22.7015 11.9146 -2.4614 0.9021
-23.5866 10.0493 -2.4614 0.9021
-24.3188 8.1188 -2.4614 0.9021
-24.6563 7.1418 -2.4644 0.9020
-24.9803 6.1571 -2.4700 0.9018
-25.2664 5.1582 -2.4757 0.9016
-25.5919 4.1591 -2.4892 0.9011
-25.8293 3.1362 -2.4980 0.9007
-25.9417 2.0942 -2.4986 0.9007
-21.0462 0.0000 -2.5000 0.9187
-21.0291 -0.8474 -2.5000 0.9187
-20.9779 -1.6935 -2.5000 0.9187
-20.8927 -2.5368 -2.5000 0.9187
-20.7736 -3.3761 -2.5000 0.9187
-20.2152 -5.8554 -2.5000 0.9187
-19.9630 -6.6646 -2.5000 0.9187
-19.3620 -8.2494 -2.5000 0.9187
-18.6355 -9.7806 -2.5000 0.9187
-17.3206 -11.9556 -2.5000 0.9187
-16.8252 -12.6433 -2.5000 0.9187
-16.1656 -13.1988 -2.4790 0.9194
-14.9210 -13.2189 -2.3679 0.9228
-14.2532 -13.6904 -2.3476 0.9235
-13.6904 -14.2532 -2.3476 0.9235
-13.1054 -14.7929 -2.3476 0.9235
-11.8741 -15.8016 -2.3479 0.9235
-11.2296 -16.2689 -2.3482 0.9235
-6.7982 -15.9559 -2.0602 0.9325
-5.3155 -15.9218 -1.9939 0.9346
-1.2779 -15.8299 -1.8865 0.9380
-0.6380 -15.8323 -1.8822 0.9382
0.0000 -15.8090 -1.8779 0.9383
1.2731 -15.7700 -1.8793 0.9383
2.5581 -15.7404 -1.8943 0.9378
3.8722 -15.7101 -1.9220 0.9369
4.5460 -15.6946 -1.9409 0.9363
7.7594 -18.2120 -2.3515 0.9234
9.1923 -17.5145 -2.3496 0.9234
10.5637 -16.7051 -2.3478 0.9235
11.2269 -16.2648 -2.3476 0.9235
13.1054 -14.7929 -2.3476 0.9235
13.6904 -14.2532 -2.3476 0.9235
14.2532 -13.6904 -2.3476 0.9235
14.9080 -13.2074 -2.3658 0.9229
16.1503 -13.1863 -2.4767 0.9194
16.8252 -12.6433 -2.5000 0.9187
17.3206 -11.9556 -2.5000 0.9187
17.7880 -11.2484 -2.5000 0.9187
18.6354 -9.7806 -2.5000 0.9187
19.3620 -8.2494 -2.5000 0.9187
20.2152 -5.8554 -2.5000 0.9187
20.4346 -5.0367 -2.5000 0.9187
20.6208 -4.2098 -2.5000 0.9187
20.8927 -2.5368 -2.5000 0.9187
21.0291 -0.8474 -2.5000 0.9187
21.0291 0.8473 -2.5000 0.9187
20.8927 2.5369 -2.5000 0.9187
19.3638 3.9531 -2.3476 0.9235
18.9829 5.4985 -2.3476 0.9235
18.4773 7.0075 -2.3474 0.9235
18.1865 7.7486 -2.3482 0.9235
17.8736 8.4812 -2.3500 0.9234
12.2623 7.0797 -1.6819 0.9446
12.2637 7.7551 -1.7236 0.9432
10.7473 8.0761 -1.5969 0.9473
9.4771 8.3959 -1.5040 0.9503
7.9626 8.2900 -1.3654 0.9548
7.6263 8.6083 -1.3661 0.9547
6.3471 8.4465 -1.2550 0.9583
5.3412 8.4464 -1.1871 0.9605
5.0661 9.6526 -1.2949 0.9570
4.1126 9.6526 -1.2463 0.9586
2.3789 8.2128 -1.0157 0.9661
1.6767 8.2128 -0.9957 0.9668
1.3347 8.2128 -0.9884 0.9670
1.1621 9.5708 -1.1452 0.9619
0.7199 8.9175 -1.0627 0.9646
0.3410 8.4621 -1.0060 0.9665
-0.6588 8.1601 -0.9725 0.9676
-1.3633 8.3888 -1.0095 0.9663
-2.3721 9.6240 -1.1774 0.9609
-2.7492 9.4913 -1.1738 0.9610
-2.7512 8.2409 -1.0320 0.9656
-3.4079 8.9858 -1.1416 0.9620
-4.2389 8.9333 -1.1746 0.9610
-5.6467 8.9295 -1.2550 0.9583
-5.9935 7.9758 -1.1851 0.9606
-8.6151 8.2749 -1.4189 0.9530
-14.5708 12.9086 -2.3123 0.9246
-15.0697 12.3040 -2.3109 0.9246
-15.5439 11.6805 -2.3096 0.9247
-17.0533 11.7710 -2.4614 0.9199
-17.5134 11.0748 -2.4614 0.9199
-17.9452 10.3606 -2.4614 0.9199
-18.3478 9.6296 -2.4614 0.9199
-19.0631 8.1220 -2.4614 0.9199
-19.3784 7.3493 -2.4619 0.9199
-19.7092 6.5799 -2.4682 0.9197
-20.0417 5.8051 -2.4785 0.9194
-20.5630 4.1980 -2.4930 0.9189
-20.7636 3.3744 -2.4988 0.9188
-20.8871 2.5361 -2.4993 0.9187
-20.9768 1.6934 -2.4999 0.9187
-21.0295 0.8474 -2.5000 0.9187
-17.5155 -2.1268 -2.5000 0.9312
-17.2876 -3.5293 -2.5000 0.9312
-16.4975 -6.2567 -2.5000 0.9312
-15.2803 -8.8221 -2.5000 0.9312
-14.9126 -9.4302 -2.5000 0.9312
-13.6673 -11.1589 -2.5000 0.9312
-12.7250 -12.2225 -2.5000 0.9312
-12.2225 -12.7250 -2.5000 0.9312
-8.2843 -14.3488 -2.3476 0.9353
-7.6998 -14.6707 -2.3476 0.9353
-7.1028 -14.9688 -2.3476 0.9353
-6.4943 -15.2427 -2.3476 0.9353
-5.8753 -15.4919 -2.3476 0.9353
-5.2468 -15.7161 -2.3476 0.9353
-4.6099 -15.9154 -2.3477 0.9353
-3.9655 -16.0888 -2.3478 0.9352
-2.6582 -16.3567 -2.3480 0.9352
-1.3335 -16.5180 -2.3480 0.9352
0.0000 -16.5717 -2.3480 0.9352
0.6673 -16.5581 -2.3480 0.9352
1.3334 -16.5175 -2.3480 0.9352
1.9974 -16.4499 -2.3479 0.9352
2.6581 -16.3555 -2.3478 0.9352
3.3143 -16.2345 -2.3477 0.9353
3.9653 -16.0871 -2.3476 0.9353
4.6097 -15.9144 -2.3476 0.9353
5.8753 -15.4918 -2.3476 0.9353
6.4943 -15.2427 -2.3476 0.9353
7.1028 -14.9688 -2.3476 0.9353
8.2843 -14.3488 -2.3476 0.9353
8.8553 -14.0036 -2.3476 0.9353
9.4120 -13.6356 -2.3476 0.9353
9.9534 -13.2456 -2.3476 0.9353
11.6805 -13.1846 -2.4958 0.9313
12.2225 -12.7250 -2.5000 0.9312
13.6672 -11.1589 -2.5000 0.9312
14.5208 -10.0230 -2.5000 0.9312
15.2803 -8.8221 -2.5000 0.9312
15.6231 -8.1996 -2.5000 0.9312
15.9406 -7.5639 -2.5000 0.9312
16.2322 -6.9159 -2.5000 0.9312
16.4975 -6.2567 -2.5000 0.9312
16.7361 -5.5873 -2.5000 0.9312
16.9475 -4.9089 -2.5000 0.9312
17.1314 -4.2225 -2.5000 0.9312
17.4156 -2.8303 -2.5000 0.9312
17.6298 -0.7104 -2.5000 0.9312
17.6441 0.0000 -2.5000 0.9312
17.6298 0.7105 -2.5000 0.9312
17.5869 1.4198 -2.5000 0.9312
15.7158 5.2467 -2.3476 0.9353
15.4918 5.8753 -2.3476 0.9353
13.9880 7.3415 -2.2383 0.9382
12.2634 7.0803 -2.0064 0.9444
10.7480 7.4188 -1.8504 0.9486
9.4771 8.3959 -1.7940 0.9501
7.9626 8.2900 -1.6287 0.9546
5.3412 8.4464 -1.4160 0.9604
4.1126 9.6526 -1.4866 0.9585
2.7418 8.2128 -1.2268 0.9656
1.3347 8.2128 -1.1789 0.9669
-0.6545 8.1069 -1.1524 0.9677
-1.3633 8.3888 -1.2042 0.9662
-2.7493 9.4917 -1.4002 0.9609
-2.9551 7.7920 -1.1808 0.9669
-4.1579 8.7625 -1.3742 0.9616
-4.2684 8.1328 -1.3014 0.9636
-4.3630 7.5568 -1.2364 0.9654
-5.9220 8.5794 -1.4771 0.9588
-5.9936 7.9761 -1.4136 0.9605
-6.0842 7.4518 -1.3631 0.9619
-7.4591 8.4195 -1.5938 0.9556
-7.9084 8.2335 -1.6176 0.9549
-8.6151 8.2749 -1.6925 0.9529
-12.2260 10.8313 -2.3143 0.9361
-12.6523 10.3303 -2.3143 0.9361
-13.4425 9.2787 -2.3143 0.9361
-14.1373 8.1622 -2.3130 0.9362
-14.7282 6.9886 -2.3098 0.9363
-15.3500 5.8215 -2.3261 0.9358
-16.6066 5.5441 -2.4806 0.9317
-16.8677 4.8858 -2.4882 0.9315
-17.2837 3.5285 -2.4994 0.9312
-17.5869 1.4198 -2.5000 0.9312
-17.6298 0.7105 -2.5000 0.9312
-15.1754 0.0000 -2.5000 0.9403
-15.1631 -0.6111 -2.5000 0.9403
-15.1262 -1.2211 -2.5000 0.9403
-14.9789 -2.4343 -2.5000 0.9403
-14.3944 -4.8056 -2.5000 0.9403
-14.1893 -5.3813 -2.5000 0.9403
-13.4372 -7.0524 -2.5000 0.9403
-12.4891 -8.6206 -2.5000 0.9403
-11.7550 -9.5976 -2.5000 0.9403
-11.3590 -10.0632 -2.5000 0.9403
-10.5124 -10.9445 -2.5000 0.9403
-10.0632 -11.3590 -2.5000 0.9403
-9.5976 -11.7549 -2.5000 0.9403
-8.6206 -12.4891 -2.5000 0.9403
-7.5876 -13.1423 -2.5000 0.9403
-6.9276 -13.1994 -2.4558 0.9414
-6.2672 -13.2079 -2.4084 0.9425
-5.0532 -13.3243 -2.3476 0.9439
-3.4103 -13.8362 -2.3476 0.9439
-1.1467 -14.2041 -2.3476 0.9439
2.2859 -14.0658 -2.3476 0.9439
2.8504 -13.9623 -2.3476 0.9439
3.4103 -13.8362 -2.3476 0.9439
4.5126 -13.5169 -2.3476 0.9439
6.2649 -13.2031 -2.4075 0.9425
6.9248 -13.1941 -2.4548 0.9414
8.6206 -12.4891 -2.5000 0.9403
9.1165 -12.1319 -2.5000 0.9403
9.5976 -11.7549 -2.5000 0.9403
10.9445 -10.5124 -2.5000 0.9403
11.3589 -10.0632 -2.5000 0.9403
11.7549 -9.5976 -2.5000 0.9403
12.4891 -8.6206 -2.5000 0.9403
12.8261 -8.1107 -2.5000 0.9403
13.1423 -7.5877 -2.5000 0.9403
13.4371 -7.0524 -2.5000 0.9403
13.7102 -6.5056 -2.5000 0.9403
14.1892 -5.3813 -2.5000 0.9403
14.3944 -4.8056 -2.5000 0.9403
14.5763 -4.2221 -2.5000 0.9403
14.9789 -2.4343 -2.5000 0.9403
15.1754 0.0000 -2.5000 0.9403
15.1262 1.2211 -2.5000 0.9403
15.0647 1.8292 -2.5000 0.9403
13.8362 3.4103 -2.3476 0.9439
13.6877 3.9647 -2.3476 0.9439
12.8744 6.1090 -2.3476 0.9439
12.2893 7.0952 -2.3377 0.9441
11.8347 7.4838 -2.3067 0.9448
10.7470 8.0758 -2.2146 0.9470
10.7462 8.7740 -2.2854 0.9453
9.4771 8.3959 -2.0858 0.9500
7.9626 8.2900 -1.8936 0.9545
7.3448 8.9958 -1.9132 0.9540
5.8302 8.4465 -1.6908 0.9592
5.3412 8.4464 -1.6463 0.9603
4.1126 9.6526 -1.7285 0.9584
2.7418 8.2128 -1.4264 0.9655
2.0243 8.2128 -1.3935 0.9663
1.6767 8.2128 -1.3809 0.9666
1.3347 8.2128 -1.3707 0.9668
0.3386 8.4023 -1.3853 0.9665
-0.0000 8.2731 -1.3629 0.9670
-0.3335 8.2749 -1.3643 0.9670
-0.6680 8.2749 -1.3676 0.9669
-0.9908 8.1602 -1.3542 0.9672
-1.3633 8.3888 -1.4001 0.9661
-1.8359 8.9926 -1.5120 0.9635
-2.3721 9.6241 -1.6329 0.9606
-2.7513 8.2410 -1.4313 0.9654
-2.8405 7.4899 -1.3196 0.9680
-4.0022 8.4345 -1.5380 0.9629
-4.2685 8.1329 -1.5131 0.9634
-4.5698 7.2266 -1.4086 0.9659
-5.7789 8.3721 -1.6759 0.9596
-5.9539 7.2922 -1.5509 0.9626
-8.6151 8.2749 -1.9679 0.9527
-10.5227 9.3223 -2.3159 0.9446
-11.2337 8.4416 -2.3149 0.9446
-11.5621 7.9808 -2.3144 0.9446
-11.8736 7.5084 -2.3143 0.9446
-12.1804 7.0324 -2.3170 0.9446
-13.5169 4.5126 -2.3476 0.9439
-14.7341 3.6316 -2.4999 0.9403
-15.0648 1.8292 -2.5000 0.9403
-13.3005 0.0000 -2.5000 0.9473
-13.2898 -0.5356 -2.5000 0.9473
-13.2574 -1.0703 -2.5000 0.9473
-13.2036 -1.6032 -2.5000 0.9473
-12.9141 -3.1830 -2.5000 0.9473
-12.4362 -4.7164 -2.5000 0.9473
-12.2362 -5.2134 -2.5000 0.9473
-12.0164 -5.7019 -2.5000 0.9473
-11.5186 -6.6503 -2.5000 0.9473
-11.2415 -7.1087 -2.5000 0.9473
-10.9462 -7.5556 -2.5000 0.9473
-10.6330 -7.9902 -2.5000 0.9473
-10.3027 -8.4119 -2.5000 0.9473
-9.2136 -9.5924 -2.5000 0.9473
-8.4119 -10.3027 -2.5000 0.9473
-7.1087 -11.2415 -2.5000 0.9473
-6.1811 -11.7771 -2.5000 0.9473
-4.7164 -12.4362 -2.5000 0.9473
-4.2119 -12.6161 -2.5000 0.9473
-3.7005 -12.7754 -2.5000 0.9473
-2.6605 -13.0318 -2.5000 0.9473
-1.6015 -13.1896 -2.4973 0.9474
-1.0649 -13.1912 -2.4875 0.9476
-0.5316 -13.1921 -2.4816 0.9477
0.0000 -13.1922 -2.4796 0.9477
0.5316 -13.1917 -2.4815 0.9477
1.0648 -13.1904 -2.4873 0.9476
1.6013 -13.1884 -2.4971 0.9474
3.1830 -12.9141 -2.5000 0.9473
3.7005 -12.7754 -2.5000 0.9473
4.7164 -12.4362 -2.5000 0.9473
5.7018 -12.0164 -2.5000 0.9473
6.1811 -11.7771 -2.5000 0.9473
6.6503 -11.5186 -2.5000 0.9473
7.1087 -11.2415 -2.5000 0.9473
7.5556 -10.9461 -2.5000 0.9473
8.4119 -10.3027 -2.5000 0.9473
8.8199 -9.9556 -2.5000 0.9473
9.2137 -9.5924 -2.5000 0.9473
9.9556 -8.8199 -2.5000 0.9473
10.3027 -8.4119 -2.5000 0.9473
10.6330 -7.9902 -2.5000 0.9473
11.2415 -7.1087 -2.5000 0.9473
11.5186 -6.6503 -2.5000 0.9473
11.7771 -6.1811 -2.5000 0.9473
12.2362 -5.2134 -2.5000 0.9473
12.4362 -4.7164 -2.5000 0.9473
12.6161 -4.2119 -2.5000 0.9473
12.7754 -3.7005 -2.5000 0.9473
13.2036 -1.6032 -2.5000 0.9473
13.2574 -1.0703 -2.5000 0.9473
13.2574 1.0702 -2.5000 0.9473
13.2036 1.6032 -2.5000 0.9473
12.1268 2.9890 -2.3476 0.9504
11.9966 3.4749 -2.3476 0.9504
11.8470 3.9551 -2.3476 0.9504
11.6781 4.4289 -2.3476 0.9504
11.2839 5.3542 -2.3476 0.9504
11.0591 5.8043 -2.3476 0.9504
10.8164 6.2449 -2.3476 0.9504
9.9431 7.4718 -2.3378 0.9506
9.3160 8.2533 -2.3394 0.9506
8.4455 8.1120 -2.2011 0.9535
7.9626 8.2900 -2.1605 0.9543
7.5964 8.5745 -2.1532 0.9544
5.8302 8.4465 -1.9291 0.9591
5.3412 8.4464 -1.8784 0.9601
4.2989 8.1909 -1.7387 0.9631
4.2917 9.0446 -1.8817 0.9601
3.7106 8.7091 -1.7794 0.9622
3.4775 9.1694 -1.8433 0.9609
2.7418 8.2128 -1.6274 0.9654
2.0243 8.2128 -1.5899 0.9662
1.6767 8.2128 -1.5755 0.9665
1.3347 8.2128 -1.5639 0.9667
1.1621 9.5708 -1.8122 0.9615
0.3386 8.4023 -1.5806 0.9664
-0.0000 8.2731 -1.5550 0.9669
-0.6659 8.2481 -1.5554 0.9669
-0.9908 8.1602 -1.5451 0.9671
-1.3633 8.3888 -1.5974 0.9660
-2.7496 9.4925 -1.8576 0.9606
-3.8946 8.2077 -1.7076 0.9637
-5.5356 8.0197 -1.8316 0.9611
-5.9938 7.9762 -1.8753 0.9602
-7.4591 8.4195 -2.1143 0.9553
-9.2290 8.1762 -2.3175 0.9511
-9.5471 7.7950 -2.3167 0.9511
-9.8524 7.4036 -2.3165 0.9511
-10.8164 6.2449 -2.3476 0.9504
-11.6781 4.4289 -2.3476 0.9504
-11.9966 3.4749 -2.3476 0.9504
-13.1283 2.1336 -2.5000 0.9473
-13.2036 1.6032 -2.5000 0.9473
-13.2574 1.0702 -2.5000 0.9473
-11.8270 0.0000 -2.5000 0.9528
-11.8174 -0.4762 -2.5000 0.9528
-11.7886 -0.9517 -2.5000 0.9528
-11.7408 -1.4256 -2.5000 0.9528
-11.4833 -2.8304 -2.5000 0.9528
-11.2183 -3.7452 -2.5000 0.9528
-10.6851 -5.0701 -2.5000 0.9528
-10.4723 -5.4963 -2.5000 0.9528
-9.9960 -6.3211 -2.5000 0.9528
-9.4550 -7.1050 -2.5000 0.9528
-9.1613 -7.4799 -2.5000 0.9528
-8.8526 -7.8427 -2.5000 0.9528
-8.5296 -8.1928 -2.5000 0.9528
-6.7185 -9.7334 -2.5000 0.9528
-6.3211 -9.9960 -2.5000 0.9528
-5.9135 -10.2425 -2.5000 0.9528
-5.0701 -10.6851 -2.5000 0.9528
-4.1940 -11.0584 -2.5000 0.9528
-3.2905 -11.3600 -2.5000 0.9528
-2.3657 -11.5879 -2.5000 0.9528
-1.8972 -11.6738 -2.5000 0.9528
-0.4762 -11.8174 -2.5000 0.9528
0.0000 -11.8270 -2.5000 0.9528
0.4762 -11.8174 -2.5000 0.9528
4.6358 -10.8806 -2.5000 0.9528
6.3212 -9.9960 -2.5000 0.9528
6.7186 -9.7334 -2.5000 0.9528
7.1049 -9.4550 -2.5000 0.9528
7.8427 -8.8526 -2.5000 0.9528
8.5296 -8.1928 -2.5000 0.9528
10.2425 -5.9135 -2.5000 0.9528
10.6851 -5.0701 -2.5000 0.9528
11.3600 -3.2905 -2.5000 0.9528
11.8174 0.4762 -2.5000 0.9528
11.7886 0.9517 -2.5000 0.9528
10.5344 3.5169 -2.3476 0.9556
9.8339 5.1612 -2.3476 0.9556
9.1400 6.3089 -2.3476 0.9556
8.8786 6.6718 -2.3476 0.9556
8.2719 7.3282 -2.3360 0.9558
7.9702 7.6555 -2.3360 0.9558
7.6574 7.9722 -2.3366 0.9558
7.3318 8.2759 -2.3371 0.9558
6.9941 8.5662 -2.3376 0.9558
4.5686 7.9131 -1.9314 0.9633
3.4849 8.1794 -1.8793 0.9643
3.1525 8.3126 -1.8792 0.9643
2.0243 8.2128 -1.7880 0.9660
0.3386 8.4023 -1.7775 0.9662
-0.0000 8.2731 -1.7488 0.9667
-0.6680 8.2749 -1.7548 0.9666
-1.8557 9.0900 -1.9611 0.9628
-2.7496 9.4926 -2.0890 0.9604
-2.7526 7.2581 -1.6409 0.9688
-3.4169 8.0196 -1.8426 0.9650
-3.8061 8.0212 -1.8767 0.9644
-4.2108 8.0229 -1.9153 0.9636
-4.4698 7.0685 -1.7678 0.9664
-5.9922 7.3391 -2.0027 0.9620
-7.2778 8.2150 -2.3199 0.9561
-8.6025 7.0237 -2.3475 0.9556
-9.1401 6.3089 -2.3476 0.9556
-9.3867 5.9358 -2.3476 0.9556
-9.6181 5.5530 -2.3476 0.9556
-10.0337 4.7610 -2.3476 0.9556
-10.2173 4.3532 -2.3476 0.9556
-10.6675 3.0899 -2.3476 0.9556
-10.9975 2.7106 -2.3942 0.9547
-11.6738 1.8972 -2.5000 0.9528
-11.7408 1.4256 -2.5000 0.9528
-11.8174 0.4762 -2.5000 0.9528
-10.6372 0.0000 -2.5000 0.9572
-10.6027 -0.8560 -2.5000 0.9572
-10.5596 -1.2822 -2.5000 0.9572
-10.4222 -2.1277 -2.5000 0.9572
-10.2172 -2.9595 -2.5000 0.9572
-10.0898 -3.3685 -2.5000 0.9572
-9.9460 -3.7720 -2.5000 0.9572
-9.7860 -4.1694 -2.5000 0.9572
-9.4188 -4.9433 -2.5000 0.9572
-8.2396 -6.7274 -2.5000 0.9572
-7.3686 -7.6716 -2.5000 0.9572
-7.0538 -7.9621 -2.5000 0.9572
-6.7275 -8.2396 -2.5000 0.9572
-6.0426 -8.7542 -2.5000 0.9572
-5.3186 -9.2121 -2.5000 0.9572
-4.9433 -9.4188 -2.5000 0.9572
-4.1694 -9.7860 -2.5000 0.9572
-3.7720 -9.9459 -2.5000 0.9572
-2.5457 -10.3281 -2.5000 0.9572
-2.1277 -10.4222 -2.5000 0.9572
-1.7063 -10.4994 -2.5000 0.9572
-0.4283 -10.6286 -2.5000 0.9572
1.2823 -10.5596 -2.5000 0.9572
2.1275 -10.4222 -2.5000 0.9572
2.5459 -10.3281 -2.5000 0.9572
2.9597 -10.2172 -2.5000 0.9572
3.3685 -10.0898 -2.5000 0.9572
6.3902 -8.5038 -2.5000 0.9572
7.0538 -7.9621 -2.5000 0.9572
7.3686 -7.6716 -2.5000 0.9572
7.9621 -7.0538 -2.5000 0.9572
8.2396 -6.7274 -2.5000 0.9572
8.5038 -6.3902 -2.5000 0.9572
8.7542 -6.0426 -2.5000 0.9572
8.9904 -5.6852 -2.5000 0.9572
9.2121 -5.3186 -2.5000 0.9572
9.6102 -4.5601 -2.5000 0.9572
9.9459 -3.7720 -2.5000 0.9572
10.3281 -2.5457 -2.5000 0.9572
10.4222 -2.1277 -2.5000 0.9572
10.4994 -1.7063 -2.5000 0.9572
10.6372 0.0000 -2.5000 0.9572
10.6286 0.4283 -2.5000 0.9572
10.6027 0.8559 -2.5000 0.9572
10.5596 1.2822 -2.5000 0.9572
10.4994 1.7063 -2.5000 0.9572
10.4222 2.1277 -2.5000 0.9572
10.3281 2.5456 -2.5000 0.9572
9.5944 2.7790 -2.3476 0.9598
9.4747 3.1631 -2.3476 0.9598
9.3396 3.5421 -2.3476 0.9598
9.0243 4.2821 -2.3476 0.9598
8.8446 4.6420 -2.3476 0.9598
8.2206 5.6742 -2.3476 0.9598
7.9854 6.0007 -2.3476 0.9598
7.7373 6.3173 -2.3476 0.9598
7.4767 6.6238 -2.3476 0.9598
6.8810 7.1639 -2.3346 0.9600
6.2812 7.6931 -2.3342 0.9600
5.3103 8.3976 -2.3351 0.9600
3.4529 8.1044 -2.0704 0.9645
3.1239 8.2370 -2.0704 0.9644
2.6152 9.0287 -2.2092 0.9621
1.3347 8.2128 -1.9555 0.9664
0.7354 9.1103 -2.1481 0.9631
-0.0000 8.2731 -1.9444 0.9666
-0.6680 8.2749 -1.9511 0.9665
-1.3633 8.3888 -1.9974 0.9657
-2.7496 9.4925 -2.3227 0.9602
-3.3396 7.8384 -2.0024 0.9656
-3.7201 7.8400 -2.0395 0.9650
-4.2670 7.3907 -2.0057 0.9655
-5.2830 7.6537 -2.1857 0.9625
-7.2039 6.9194 -2.3476 0.9598
-7.7373 6.3173 -2.3476 0.9598
-8.4424 5.3387 -2.3476 0.9598
-8.8446 4.6420 -2.3476 0.9598
-9.1894 3.9152 -2.3476 0.9598
-9.3396 3.5421 -2.3476 0.9598
-10.3281 2.5457 -2.5000 0.9572
-10.4222 2.1277 -2.5000 0.9572
-10.6027 0.8559 -2.5000 0.9572
-9.6555 0.0000 -2.5000 0.9609
-9.6477 -0.3888 -2.5000 0.9609
-9.6242 -0.7770 -2.5000 0.9609
-9.5851 -1.1638 -2.5000 0.9609
-9.5305 -1.5489 -2.5000 0.9609
-9.3749 -2.3107 -2.5000 0.9609
-9.2743 -2.6863 -2.5000 0.9609
-9.1586 -3.0576 -2.5000 0.9609
-8.7233 -4.1393 -2.5000 0.9609
-8.3619 -4.8278 -2.5000 0.9609
-8.1608 -5.1606 -2.5000 0.9609
-7.9463 -5.4850 -2.5000 0.9609
-7.4792 -6.1066 -2.5000 0.9609
-7.2272 -6.4028 -2.5000 0.9609
-6.9636 -6.6886 -2.5000 0.9609
-6.6886 -6.9636 -2.5000 0.9609
-6.4028 -7.2272 -2.5000 0.9609
-6.1066 -7.4792 -2.5000 0.9609
-5.8005 -7.7190 -2.5000 0.9609
-5.4850 -7.9463 -2.5000 0.9609
-5.1605 -8.1607 -2.5000 0.9609
-4.8278 -8.3619 -2.5000 0.9609
-4.4871 -8.5495 -2.5000 0.9609
-3.7846 -8.8829 -2.5000 0.9609
-3.4239 -9.0281 -2.5000 0.9609
-3.0576 -9.1586 -2.5000 0.9609
-2.3107 -9.3749 -2.5000 0.9609
-1.5489 -9.5305 -2.5000 0.9609
-0.7770 -9.6242 -2.5000 0.9609
-0.0000 -9.6555 -2.5000 0.9609
0.3888 -9.6477 -2.5000 0.9609
1.1638 -9.5851 -2.5000 0.9609
1.9314 -9.4604 -2.5000 0.9609
3.0576 -9.1586 -2.5000 0.9609
3.7846 -8.8829 -2.5000 0.9609
4.4871 -8.5495 -2.5000 0.9609
4.8277 -8.3619 -2.5000 0.9609
5.1605 -8.1608 -2.5000 0.9609
5.4850 -7.9463 -2.5000 0.9609
5.8005 -7.7190 -2.5000 0.9609
6.1066 -7.4792 -2.5000 0.9609
6.6886 -6.9636 -2.5000 0.9609
7.2272 -6.4028 -2.5000 0.9609
7.9463 -5.4850 -2.5000 0.9609
8.1607 -5.1606 -2.5000 0.9609
8.7233 -4.1392 -2.5000 0.9609
8.8829 -3.7846 -2.5000 0.9609
9.3749 -2.3107 -2.5000 0.9609
9.4604 -1.9314 -2.5000 0.9609
9.5305 -1.5488 -2.5000 0.9609
9.5851 1.1638 -2.5000 0.9609
8.4777 3.2152 -2.3476 0.9632
8.0283 4.2136 -2.3476 0.9632
7.6633 4.8459 -2.3476 0.9632
7.0233 5.7343 -2.3476 0.9632
6.7867 6.0125 -2.3476 0.9632
6.2809 6.5391 -2.3476 0.9632
6.0125 6.7867 -2.3476 0.9632
5.7219 7.0081 -2.3425 0.9633
5.4129 7.2033 -2.3329 0.9635
4.8142 7.6131 -2.3322 0.9635
3.4751 8.1563 -2.2955 0.9640
3.1472 8.2984 -2.2979 0.9640
2.8530 8.5458 -2.3327 0.9635
1.8018 8.8259 -2.3323 0.9635
1.3404 8.2479 -2.1635 0.9661
-0.0000 8.2731 -2.1421 0.9664
-0.6680 8.2749 -2.1495 0.9663
-0.9908 8.1602 -2.1283 0.9666
-2.5002 8.6316 -2.3267 0.9636
-2.7526 7.2581 -2.0099 0.9684
-3.2602 7.6520 -2.1536 0.9662
-4.0016 7.6244 -2.2295 0.9650
-4.2671 7.3908 -2.2096 0.9654
-6.0125 6.7867 -2.3476 0.9632
-6.2809 6.5391 -2.3476 0.9632
-6.5391 6.2809 -2.3476 0.9632
-6.7867 6.0125 -2.3476 0.9632
-7.0233 5.7343 -2.3476 0.9632
-7.2485 5.4469 -2.3476 0.9632
-7.8522 4.5334 -2.3476 0.9632
-8.3414 3.5539 -2.3476 0.9632
-8.4777 3.2152 -2.3476 0.9632
-9.4604 1.9313 -2.5000 0.9609
-9.5851 1.1638 -2.5000 0.9609
-9.6242 0.7769 -2.5000 0.9609
-8.8310 0.0000 -2.5000 0.9640
-8.8023 -0.7106 -2.5000 0.9640
-8.7666 -1.0644 -2.5000 0.9640
-8.7166 -1.4166 -2.5000 0.9640
-8.5743 -2.1134 -2.5000 0.9640
-8.4823 -2.4569 -2.5000 0.9640
-8.3765 -2.7965 -2.5000 0.9640
-8.2571 -3.1315 -2.5000 0.9640
-7.9783 -3.7858 -2.5000 0.9640
-7.8194 -4.1039 -2.5000 0.9640
-7.6479 -4.4155 -2.5000 0.9640
-7.2677 -5.0166 -2.5000 0.9640
-7.0599 -5.3051 -2.5000 0.9640
-6.1174 -6.3689 -2.5000 0.9640
-5.8560 -6.6101 -2.5000 0.9640
-5.5851 -6.8405 -2.5000 0.9640
-5.3051 -7.0599 -2.5000 0.9640
-5.0166 -7.2678 -2.5000 0.9640
-4.7199 -7.4638 -2.5000 0.9640
-4.4155 -7.6478 -2.5000 0.9640
-4.1040 -7.8194 -2.5000 0.9640
-2.7965 -8.3765 -2.5000 0.9640
-2.1134 -8.5744 -2.5000 0.9640
-1.7664 -8.6525 -2.5000 0.9640
-1.4166 -8.7166 -2.5000 0.9640
-1.0644 -8.7666 -2.5000 0.9640
-0.7106 -8.8023 -2.5000 0.9640
0.0000 -8.8310 -2.5000 0.9640
0.3556 -8.8238 -2.5000 0.9640
0.7106 -8.8023 -2.5000 0.9640
1.0645 -8.7666 -2.5000 0.9640
2.1134 -8.5744 -2.5000 0.9640
2.4569 -8.4823 -2.5000 0.9640
2.7965 -8.3765 -2.5000 0.9640
3.1315 -8.2571 -2.5000 0.9640
3.4614 -8.1243 -2.5000 0.9640
4.1040 -7.8194 -2.5000 0.9640
4.4155 -7.6478 -2.5000 0.9640
4.7199 -7.4638 -2.5000 0.9640
5.0166 -7.2678 -2.5000 0.9640
6.8405 -5.5851 -2.5000 0.9640
7.2677 -5.0166 -2.5000 0.9640
7.4638 -4.7199 -2.5000 0.9640
7.6479 -4.4155 -2.5000 0.9640
7.8194 -4.1040 -2.5000 0.9640
7.9783 -3.7858 -2.5000 0.9640
8.3765 -2.7965 -2.5000 0.9640
8.4823 -2.4569 -2.5000 0.9640
8.7166 -1.4166 -2.5000 0.9640
8.8023 0.7106 -2.5000 0.9640
8.5744 2.1134 -2.5000 0.9640
7.7537 2.9406 -2.3476 0.9661
7.6290 3.2504 -2.3476 0.9661
7.0088 4.4321 -2.3476 0.9661
6.4235 5.2446 -2.3476 0.9661
5.7445 5.9807 -2.3476 0.9661
5.4990 6.2071 -2.3476 0.9661
5.2446 6.4235 -2.3476 0.9661
4.9817 6.6295 -2.3476 0.9661
4.1181 7.1328 -2.3316 0.9663
3.8269 7.2915 -2.3312 0.9663
2.9189 7.6965 -2.3303 0.9664
2.6066 7.8077 -2.3302 0.9664
2.2900 7.9061 -2.3301 0.9664
1.9697 7.9914 -2.3300 0.9664
1.6462 8.0637 -2.3299 0.9664
1.3201 8.1228 -2.3297 0.9664
0.6620 8.2008 -2.3291 0.9664
-0.3298 8.1835 -2.3186 0.9665
-1.3183 8.1119 -2.3266 0.9664
-1.6435 8.0503 -2.3260 0.9664
-1.9658 7.9756 -2.3254 0.9664
-2.7529 7.2588 -2.1977 0.9682
-3.1874 7.4812 -2.3021 0.9668
-3.5182 7.4144 -2.3233 0.9665
-3.8134 7.2658 -2.3230 0.9665
-4.1245 7.1437 -2.3352 0.9663
-4.7108 6.8247 -2.3476 0.9661
-4.9817 6.6295 -2.3476 0.9661
-5.2446 6.4235 -2.3476 0.9661
-5.4990 6.2071 -2.3476 0.9661
-6.2071 5.4990 -2.3476 0.9661
-6.4235 5.2446 -2.3476 0.9661
-7.1816 4.1463 -2.3476 0.9661
-6.6628 3.4969 -2.1302 0.9692
-7.6291 3.2504 -2.3476 0.9661
-8.1085 2.7070 -2.4200 0.9651
-8.4823 2.4569 -2.5000 0.9640
-8.5744 2.1134 -2.5000 0.9640
-8.8023 0.7106 -2.5000 0.9640
-8.1280 0.0000 -2.5000 0.9666
-8.1214 -0.3273 -2.5000 0.9666
-8.1016 -0.6540 -2.5000 0.9666
-8.0687 -0.9797 -2.5000 0.9666
-7.9637 -1.6258 -2.5000 0.9666
-7.8918 -1.9452 -2.5000 0.9666
-7.7097 -2.5739 -2.5000 0.9666
-7.1970 -3.7772 -2.5000 0.9666
-6.2960 -5.1405 -2.5000 0.9666
-5.6304 -5.8619 -2.5000 0.9666
-5.3898 -6.0839 -2.5000 0.9666
-5.1405 -6.2960 -2.5000 0.9666
-4.8828 -6.4978 -2.5000 0.9666
-3.7773 -7.1970 -2.5000 0.9666
-2.2613 -7.8071 -2.5000 0.9666
-1.9452 -7.8918 -2.5000 0.9666
-1.6258 -7.9637 -2.5000 0.9666
-1.3038 -8.0227 -2.5000 0.9666
-0.9797 -8.0687 -2.5000 0.9666
-0.6540 -8.1016 -2.5000 0.9666
2.2613 -7.8071 -2.5000 0.9666
2.8822 -7.5998 -2.5000 0.9666
3.1859 -7.4775 -2.5000 0.9666
3.4844 -7.3432 -2.5000 0.9666
4.0640 -7.0390 -2.5000 0.9666
4.8828 -6.4978 -2.5000 0.9666
5.1405 -6.2960 -2.5000 0.9666
5.3898 -6.0839 -2.5000 0.9666
5.6304 -5.8619 -2.5000 0.9666
6.0838 -5.3898 -2.5000 0.9666
6.2960 -5.1405 -2.5000 0.9666
6.4978 -4.8828 -2.5000 0.9666
7.1969 -3.7773 -2.5000 0.9666
7.5998 -2.8822 -2.5000 0.9666
7.7097 -2.5739 -2.5000 0.9666
8.0227 -1.3038 -2.5000 0.9666
8.0687 -0.9797 -2.5000 0.9666
8.0227 1.3038 -2.5000 0.9666
7.9637 1.6258 -2.5000 0.9666
7.8918 1.9451 -2.5000 0.9666
7.8070 2.2613 -2.5000 0.9666
6.4509 4.0793 -2.3476 0.9686
5.9121 4.8271 -2.3476 0.9686
5.7130 5.0613 -2.3476 0.9686
5.2872 5.5046 -2.3476 0.9686
5.0613 5.7130 -2.3476 0.9686
4.5851 6.1017 -2.3476 0.9686
4.0793 6.4509 -2.3476 0.9686
3.8162 6.6099 -2.3476 0.9686
3.5470 6.7582 -2.3476 0.9686
3.2720 6.8956 -2.3476 0.9686
2.9866 7.0098 -2.3436 0.9686
2.6965 7.1100 -2.3389 0.9687
1.8121 7.3521 -2.3290 0.9688
1.5144 7.4180 -2.3287 0.9688
0.6090 7.5432 -2.3277 0.9688
0.0000 7.5655 -2.3270 0.9688
-0.6086 7.5389 -2.3264 0.9688
-0.9115 7.5073 -2.3260 0.9688
-1.2129 7.4635 -2.3257 0.9689
-1.8091 7.3398 -2.3251 0.9689
-2.3935 7.1687 -2.3246 0.9689
-2.9893 7.0161 -2.3457 0.9686
-3.2720 6.8956 -2.3476 0.9686
-3.5470 6.7582 -2.3476 0.9686
-4.5852 6.1017 -2.3476 0.9686
-4.8271 5.9121 -2.3476 0.9686
-5.2872 5.5046 -2.3476 0.9686
-5.5046 5.2872 -2.3476 0.9686
-5.7130 5.0613 -2.3476 0.9686
-6.1017 4.5851 -2.3476 0.9686
-6.4509 4.0793 -2.3476 0.9686
-6.6099 3.8162 -2.3476 0.9686
-6.8446 3.2478 -2.3302 0.9688
-7.1742 2.7208 -2.3600 0.9684
-7.8070 2.2613 -2.5000 0.9666
-7.9637 1.6258 -2.5000 0.9666
-8.0687 0.9797 -2.5000 0.9666
-8.1214 0.3273 -2.5000 0.9666
-7.5148 -0.3028 -2.5000 0.9688
-7.4965 -0.6052 -2.5000 0.9688
-7.4661 -0.9065 -2.5000 0.9688
-7.3023 -1.7999 -2.5000 0.9688
-7.1338 -2.3816 -2.5000 0.9688
-6.7947 -3.2242 -2.5000 0.9688
-6.5133 -3.7604 -2.5000 0.9688
-6.0125 -4.5181 -2.5000 0.9688
-5.8257 -4.7566 -2.5000 0.9688
-5.6295 -4.9873 -2.5000 0.9688
-5.2099 -5.4241 -2.5000 0.9688
-4.7566 -5.8257 -2.5000 0.9688
-4.5181 -6.0125 -2.5000 0.9688
-4.0197 -6.3566 -2.5000 0.9688
-3.7604 -6.5133 -2.5000 0.9688
-3.2242 -6.7948 -2.5000 0.9688
-2.3816 -7.1338 -2.5000 0.9688
-2.0925 -7.2240 -2.5000 0.9688
-1.7999 -7.3023 -2.5000 0.9688
-0.9066 -7.4661 -2.5000 0.9688
-0.0000 -7.5209 -2.5000 0.9688
0.3028 -7.5148 -2.5000 0.9688
0.6052 -7.4965 -2.5000 0.9688
0.9065 -7.4660 -2.5000 0.9688
1.5044 -7.3689 -2.5000 0.9688
1.7999 -7.3023 -2.5000 0.9688
2.6669 -7.0322 -2.5000 0.9688
2.9479 -6.9191 -2.5000 0.9688
3.2241 -6.7948 -2.5000 0.9688
3.4951 -6.6594 -2.5000 0.9688
3.7604 -6.5133 -2.5000 0.9688
4.2723 -6.1896 -2.5000 0.9688
4.5181 -6.0125 -2.5000 0.9688
4.7566 -5.8257 -2.5000 0.9688
5.2099 -5.4241 -2.5000 0.9688
5.4241 -5.2099 -2.5000 0.9688
5.6295 -4.9873 -2.5000 0.9688
6.0125 -4.5181 -2.5000 0.9688
6.1896 -4.2724 -2.5000 0.9688
6.3566 -4.0197 -2.5000 0.9688
6.5133 -3.7604 -2.5000 0.9688
6.7947 -3.2242 -2.5000 0.9688
7.0321 -2.6669 -2.5000 0.9688
7.1338 -2.3816 -2.5000 0.9688
7.2239 -2.0925 -2.5000 0.9688
7.4661 -0.9065 -2.5000 0.9688
7.5148 -0.3028 -2.5000 0.9688
7.5209 0.0000 -2.5000 0.9688
7.4965 0.6052 -2.5000 0.9688
7.3023 1.7999 -2.5000 0.9688
7.0322 2.6669 -2.5000 0.9688
6.3805 3.0276 -2.3476 0.9707
6.2534 3.2821 -2.3476 0.9707
5.8122 4.0119 -2.3476 0.9707
4.8923 5.0934 -2.3476 0.9707
4.6832 5.2863 -2.3476 0.9707
3.7746 5.9691 -2.3476 0.9707
3.5312 6.1162 -2.3476 0.9707
3.2821 6.2534 -2.3476 0.9707
2.2364 6.6989 -2.3476 0.9707
1.1324 6.9708 -2.3475 0.9707
0.2837 7.0392 -2.3418 0.9707
-0.2837 7.0398 -2.3420 0.9707
-0.5673 7.0271 -2.3434 0.9707
-0.8506 7.0056 -2.3458 0.9707
-1.4127 6.9197 -2.3476 0.9707
-1.6902 6.8572 -2.3476 0.9707
-1.9649 6.7836 -2.3476 0.9707
-3.2821 6.2534 -2.3476 0.9707
-4.0119 5.8123 -2.3476 0.9707
-4.4666 5.4706 -2.3476 0.9707
-5.0934 4.8923 -2.3476 0.9707
-5.6460 4.2427 -2.3476 0.9707
-6.3805 3.0276 -2.3476 0.9707
-6.4973 2.7682 -2.3476 0.9707
-7.0322 2.6669 -2.5000 0.9688
-7.2239 2.0925 -2.5000 0.9688
-7.3024 1.7999 -2.5000 0.9688
-7.4235 1.2064 -2.5000 0.9688
-7.5148 0.3028 -2.5000 0.9688
-6.9682 -0.5625 -2.5000 0.9707
-6.9399 -0.8427 -2.5000 0.9707
-6.9003 -1.1214 -2.5000 0.9707
-6.8496 -1.3983 -2.5000 0.9707
-6.7878 -1.6730 -2.5000 0.9707
-6.6311 -2.2138 -2.5000 0.9707
-6.5366 -2.4790 -2.5000 0.9707
-6.3159 -2.9969 -2.5000 0.9707
-6.1901 -3.2488 -2.5000 0.9707
-6.0543 -3.4954 -2.5000 0.9707
-5.9086 -3.7364 -2.5000 0.9707
-5.5888 -4.1997 -2.5000 0.9707
-5.4152 -4.4213 -2.5000 0.9707
-5.0418 -4.8427 -2.5000 0.9707
-4.8427 -5.0418 -2.5000 0.9707
-4.4214 -5.4152 -2.5000 0.9707
-2.9969 -6.3159 -2.5000 0.9707
-2.4790 -6.5366 -2.5000 0.9707
-1.9450 -6.7149 -2.5000 0.9707
-1.3984 -6.8496 -2.5000 0.9707
-0.8427 -6.9399 -2.5000 0.9707
-0.2815 -6.9852 -2.5000 0.9707
0.0000 -6.9909 -2.5000 0.9707
1.1214 -6.9003 -2.5000 0.9707
1.9450 -6.7149 -2.5000 0.9707
2.2138 -6.6311 -2.5000 0.9707
2.4790 -6.5366 -2.5000 0.9707
3.2488 -6.1901 -2.5000 0.9707
3.7364 -5.9086 -2.5000 0.9707
3.9713 -5.7534 -2.5000 0.9707
4.1997 -5.5888 -2.5000 0.9707
4.4213 -5.4152 -2.5000 0.9707
5.0418 -4.8427 -2.5000 0.9707
5.2327 -4.6358 -2.5000 0.9707
5.7534 -3.9713 -2.5000 0.9707
5.9086 -3.7364 -2.5000 0.9707
6.0543 -3.4954 -2.5000 0.9707
6.1901 -3.2488 -2.5000 0.9707
6.4315 -2.7402 -2.5000 0.9707
6.5366 -2.4790 -2.5000 0.9707
6.6311 -2.2138 -2.5000 0.9707
6.7877 -1.6730 -2.5000 0.9707
6.8496 -1.3984 -2.5000 0.9707
6.9682 -0.5625 -2.5000 0.9707
6.9852 -0.2815 -2.5000 0.9707
6.9908 0.0000 -2.5000 0.9707
6.9004 1.1214 -2.5000 0.9707
6.7877 1.6730 -2.5000 0.9707
6.7148 1.9450 -2.5000 0.9707
6.5366 2.4790 -2.5000 0.9707
5.9309 2.8142 -2.3476 0.9725
5.2481 3.9437 -2.3476 0.9725
5.0850 4.1518 -2.3476 0.9725
4.9137 4.3532 -2.3476 0.9725
4.5475 4.7345 -2.3476 0.9725
4.3532 4.9137 -2.3476 0.9725
3.9437 5.2481 -2.3476 0.9725
3.7292 5.4026 -2.3476 0.9725
2.8142 5.9309 -2.3476 0.9725
1.3131 6.4320 -2.3476 0.9725
0.5282 6.5434 -2.3476 0.9725
0.2643 6.5594 -2.3476 0.9725
0.0000 6.5647 -2.3476 0.9725
-0.2643 6.5594 -2.3476 0.9725
-0.5282 6.5434 -2.3476 0.9725
-0.7913 6.5168 -2.3476 0.9725
-1.3131 6.4320 -2.3476 0.9725
-1.5710 6.3739 -2.3476 0.9725
-2.0788 6.2269 -2.3476 0.9725
-2.3279 6.1381 -2.3476 0.9725
-3.2823 5.6852 -2.3476 0.9725
-3.5086 5.5484 -2.3476 0.9725
-3.7292 5.4026 -2.3476 0.9725
-3.9437 5.2481 -2.3476 0.9725
-4.3532 4.9138 -2.3476 0.9725
-4.5475 4.7345 -2.3476 0.9725
-5.0850 4.1518 -2.3476 0.9725
-5.4027 3.7292 -2.3476 0.9725
-5.5484 3.5086 -2.3476 0.9725
-5.8128 3.0508 -2.3476 0.9725
-5.9309 2.8142 -2.3476 0.9725
-6.3366 2.6997 -2.4631 0.9712
-6.6311 2.2138 -2.5000 0.9707
-6.7877 1.6730 -2.5000 0.9707
-6.9003 1.1214 -2.5000 0.9707
-6.9399 0.8426 -2.5000 0.9707
-3.5589 -0.1434 -1.3649 0.9849
-3.5921 -0.4362 -1.3867 0.9846
-6.3918 -1.3049 -2.5000 0.9724
-6.3341 -1.5612 -2.5000 0.9724
-6.2661 -1.8150 -2.5000 0.9724
-5.8938 -2.7967 -2.5000 0.9724
-5.7764 -3.0317 -2.5000 0.9724
-5.5138 -3.4867 -2.5000 0.9724
-5.3689 -3.7059 -2.5000 0.9724
-5.2153 -3.9190 -2.5000 0.9724
-4.8830 -4.3260 -2.5000 0.9724
-4.7049 -4.5191 -2.5000 0.9724
-4.5191 -4.7049 -2.5000 0.9724
-3.9191 -5.2153 -2.5000 0.9724
-3.7059 -5.3689 -2.5000 0.9724
-3.4867 -5.5137 -2.5000 0.9724
-3.2618 -5.6497 -2.5000 0.9724
-2.7967 -5.8938 -2.5000 0.9724
-2.3133 -6.0997 -2.5000 0.9724
-1.3049 -6.3918 -2.5000 0.9724
-1.0465 -6.4392 -2.5000 0.9724
-0.5249 -6.5025 -2.5000 0.9724
0.5249 -6.5025 -2.5000 0.9724
1.0465 -6.4392 -2.5000 0.9724
1.8150 -6.2661 -2.5000 0.9724
2.5571 -6.0016 -2.5000 0.9724
3.0317 -5.7764 -2.5000 0.9724
3.2618 -5.6496 -2.5000 0.9724
3.7059 -5.3689 -2.5000 0.9724
4.3260 -4.8830 -2.5000 0.9724
4.5191 -4.7049 -2.5000 0.9724
4.7049 -4.5191 -2.5000 0.9724
4.8830 -4.3260 -2.5000 0.9724
5.0533 -4.1259 -2.5000 0.9724
5.2153 -3.9190 -2.5000 0.9724
5.5137 -3.4867 -2.5000 0.9724
5.7764 -3.0317 -2.5000 0.9724
5.8938 -2.7967 -2.5000 0.9724
6.0016 -2.5571 -2.5000 0.9724
6.0997 -2.3133 -2.5000 0.9724
6.2661 -1.8150 -2.5000 0.9724
6.3341 -1.5612 -2.5000 0.9724
6.3918 -1.3049 -2.5000 0.9724
6.4392 -1.0465 -2.5000 0.9724
6.4761 -0.7863 -2.5000 0.9724
6.5025 -0.5249 -2.5000 0.9724
6.5184 -0.2627 -2.5000 0.9724
6.5025 0.5249 -2.5000 0.9724
6.4392 1.0465 -2.5000 0.9724
6.3918 1.3049 -2.5000 0.9724
6.3341 1.5612 -2.5000 0.9724
6.0997 2.3133 -2.5000 0.9724
6.0016 2.5571 -2.5000 0.9724
5.7149 2.7118 -2.4241 0.9733
5.4243 2.8469 -2.3476 0.9741
5.1776 3.2741 -2.3476 0.9741
4.0623 4.5854 -2.3476 0.9741
3.6801 4.8974 -2.3476 0.9741
2.8469 5.4243 -2.3476 0.9741
1.4660 5.9480 -2.3476 0.9741
1.2254 6.0022 -2.3476 0.9741
0.4929 6.1061 -2.3476 0.9741
-0.2467 6.1210 -2.3476 0.9741
-0.9827 6.0467 -2.3476 0.9741
-1.4660 5.9480 -2.3476 0.9741
-1.7044 5.8841 -2.3476 0.9741
-2.4012 5.6358 -2.3476 0.9741
-2.6262 5.5345 -2.3476 0.9741
-2.8469 5.4243 -2.3476 0.9741
-3.2741 5.1776 -2.3476 0.9741
-4.0623 4.5854 -2.3476 0.9741
-4.2436 4.4181 -2.3476 0.9741
-4.5854 4.0623 -2.3476 0.9741
-5.0416 3.4800 -2.3476 0.9741
-5.1776 3.2741 -2.3476 0.9741
-5.4243 2.8469 -2.3476 0.9741
-6.0016 2.5571 -2.5000 0.9724
-6.1879 2.0658 -2.5000 0.9724
-6.2661 1.8150 -2.5000 0.9724
-6.4392 1.0465 -2.5000 0.9724
-2.8204 -0.1137 -1.1552 0.9879
-2.8096 -0.2268 -1.1536 0.9879
-5.9308 -1.4618 -2.5000 0.9739
-5.7940 -1.9343 -2.5000 0.9739
-5.6195 -2.3943 -2.5000 0.9739
-5.4087 -2.8387 -2.5000 0.9739
-5.0271 -3.4699 -2.5000 0.9739
-4.4053 -4.2314 -2.5000 0.9739
-4.0506 -4.5721 -2.5000 0.9739
-3.8632 -4.7316 -2.5000 0.9739
-3.2647 -5.1627 -2.5000 0.9739
-2.8387 -5.4087 -2.5000 0.9739
-2.6186 -5.5186 -2.5000 0.9739
-0.9799 -6.0292 -2.5000 0.9739
-0.7363 -6.0638 -2.5000 0.9739
-0.4915 -6.0885 -2.5000 0.9739
0.2459 -6.1034 -2.5000 0.9739
0.4915 -6.0885 -2.5000 0.9739
0.7363 -6.0638 -2.5000 0.9739
1.6994 -5.8672 -2.5000 0.9739
1.9343 -5.7940 -2.5000 0.9739
2.1660 -5.7114 -2.5000 0.9739
2.6186 -5.5186 -2.5000 0.9739
2.8387 -5.4087 -2.5000 0.9739
3.0542 -5.2900 -2.5000 0.9739
3.2647 -5.1627 -2.5000 0.9739
3.4699 -5.0271 -2.5000 0.9739
3.6695 -4.8833 -2.5000 0.9739
4.0506 -4.5721 -2.5000 0.9739
4.2314 -4.4053 -2.5000 0.9739
4.5721 -4.0506 -2.5000 0.9739
5.2900 -3.0542 -2.5000 0.9739
5.4086 -2.8387 -2.5000 0.9739
5.6195 -2.3943 -2.5000 0.9739
5.9308 -1.4618 -2.5000 0.9739
5.9849 -1.2218 -2.5000 0.9739
6.0885 0.4915 -2.5000 0.9739
5.9308 1.4618 -2.5000 0.9739
5.1773 2.7173 -2.3931 0.9750
4.9675 2.8680 -2.3476 0.9755
4.8480 3.0657 -2.3476 0.9755
4.5856 3.4458 -2.3476 0.9755
4.4431 3.6277 -2.3476 0.9755
4.2934 3.8036 -2.3476 0.9755
4.1368 3.9734 -2.3476 0.9755
3.9734 4.1368 -2.3476 0.9755
3.8037 4.2934 -2.3476 0.9755
3.2584 4.7206 -2.3476 0.9755
2.8680 4.9675 -2.3476 0.9755
2.6656 5.0789 -2.3476 0.9755
2.4590 5.1822 -2.3476 0.9755
2.0340 5.3632 -2.3476 0.9755
1.8164 5.4408 -2.3476 0.9755
0.6914 5.6941 -2.3476 0.9755
0.4616 5.7174 -2.3476 0.9755
-0.2310 5.7313 -2.3476 0.9755
-0.4616 5.7174 -2.3476 0.9755
-0.6914 5.6941 -2.3476 0.9755
-0.9201 5.6617 -2.3476 0.9755
-1.3727 5.5693 -2.3476 0.9755
-1.5958 5.5095 -2.3476 0.9755
-1.8164 5.4408 -2.3476 0.9755
-2.0340 5.3632 -2.3476 0.9755
-2.2483 5.2770 -2.3476 0.9755
-2.6656 5.0789 -2.3476 0.9755
-3.0657 4.8480 -2.3476 0.9755
-3.4458 4.5856 -2.3476 0.9755
-3.8036.185934 -2.3476 0.9755
-4.1368 3.9734 -2.3476 0.9755
-4.4431 3.6277 -2.3476 0.9755
-4.8480 3.0657 -2.3476 0.9755
-4.9675 2.8680 -2.3476 0.9755
-5.5186 2.6186 -2.5000 0.9739
-5.7114 2.1660 -2.5000 0.9739
-5.8671 1.6994 -2.5000 0.9739
-5.9308 1.4618 -2.5000 0.9739
-3.0246 0.4915 -1.2541 0.9868
-2.8096 0.2268 -1.1536 0.9879
-2.4021 -0.3904 -1.0606 0.9894
-2.4207 -0.4942 -1.0767 0.9893
-5.5696 -1.3728 -2.5000 0.9753
-5.5099 -1.5960 -2.5000 0.9753
-5.4411 -1.8165 -2.5000 0.9753
-5.3636 -2.0341 -2.5000 0.9753
-5.1825 -2.4591 -2.5000 0.9753
-4.9678 -2.8682 -2.5000 0.9753
-4.8483 -3.0659 -2.5000 0.9753
-4.5859 -3.4461 -2.5000 0.9753
-4.4434 -3.6279 -2.5000 0.9753
-4.2937 -3.8039 -2.5000 0.9753
-3.8039 -4.2937 -2.5000 0.9753
-3.6279 -4.4434 -2.5000 0.9753
-3.4461 -4.5859 -2.5000 0.9753
-2.6658 -5.0793 -2.5000 0.9753
-2.4591 -5.1825 -2.5000 0.9753
-2.0341 -5.3635 -2.5000 0.9753
-1.8165 -5.4411 -2.5000 0.9753
-1.3728 -5.5696 -2.5000 0.9753
-1.1474 -5.6204 -2.5000 0.9753
-0.4616 -5.7177 -2.5000 0.9753
0.0000 -5.7363 -2.5000 0.9753
0.9202 -5.6620 -2.5000 0.9753
1.3728 -5.5696 -2.5000 0.9753
1.8165 -5.4411 -2.5000 0.9753
2.0341 -5.3636 -2.5000 0.9753
2.2484 -5.2773 -2.5000 0.9753
2.4591 -5.1825 -2.5000 0.9753
3.4460 -4.5859 -2.5000 0.9753
3.6279 -4.4434 -2.5000 0.9753
4.1370 -3.9737 -2.5000 0.9753
4.2937 -3.8039 -2.5000 0.9753
5.1825 -2.4591 -2.5000 0.9753
5.2773 -2.2484 -2.5000 0.9753
5.3636 -2.0341 -2.5000 0.9753
5.4411 -1.8165 -2.5000 0.9753
5.6945 -0.6914 -2.5000 0.9753
5.7317 -0.2310 -2.5000 0.9753
5.7317 0.2310 -2.5000 0.9753
5.7177 0.4616 -2.5000 0.9753
5.6620 0.9202 -2.5000 0.9753
5.6204 1.1474 -2.5000 0.9753
5.5696 1.3728 -2.5000 0.9753
5.5098 1.5959 -2.5000 0.9753
5.1825 2.4591 -2.5000 0.9753
4.5626 2.8852 -2.3527 0.9767
4.4331 3.0600 -2.3476 0.9768
4.1725 3.4067 -2.3476 0.9768
4.0319 3.5720 -2.3476 0.9768
3.8848 3.7314 -2.3476 0.9768
3.5720 4.0319 -2.3476 0.9768
3.0600 4.4331 -2.3476 0.9768
2.8790 4.5527 -2.3476 0.9768
2.5033 4.7696 -2.3476 0.9768
2.3092 4.8665 -2.3476 0.9768
2.1114 4.9556 -2.3476 0.9768
1.4987 5.1739 -2.3476 0.9768
0.8641 5.3169 -2.3476 0.9768
0.4335 5.3692 -2.3476 0.9768
0.0000 5.3866 -2.3476 0.9768
-0.4334 5.3692 -2.3476 0.9768
-1.0775 5.2778 -2.3476 0.9768
-1.2891 5.2301 -2.3476 0.9768
-1.7058 5.1094 -2.3476 0.9768
-1.9101 5.0366 -2.3476 0.9768
-2.1114 4.9556 -2.3476 0.9768
-2.3092 4.8666 -2.3476 0.9768
-2.5033 4.7696 -2.3476 0.9768
-2.6933 4.6650 -2.3476 0.9768
-2.8790 4.5527 -2.3476 0.9768
-3.0600 4.4331 -2.3476 0.9768
-3.2360 4.3063 -2.3476 0.9768
-3.4067 4.1725 -2.3476 0.9768
-3.5720 4.0319 -2.3476 0.9768
-3.8848 3.7314 -2.3476 0.9768
-4.0319 3.5720 -2.3476 0.9768
-4.3063 3.2360 -2.3476 0.9768
-4.5594 2.8832 -2.3510 0.9767
-4.7074 2.7178 -2.3690 0.9766
-5.0793 2.6658 -2.5000 0.9753
-5.2773 2.2484 -2.5000 0.9753
-5.3635 2.0341 -2.5000 0.9753
-5.4411 1.8165 -2.5000 0.9753
-2.4021 0.3904 -1.0606 0.9894
-2.3794 0.2889 -1.0446 0.9896
-2.3649 0.1909 -1.0340 0.9897
-2.3670 0.0954 -1.0324 0.9897
-2.2030 0.0000 -1.0198 0.9903
-2.2037 -0.0888 -1.0209 0.9903
-2.2008 -0.1777 -1.0220 0.9903
-2.2466 -0.4586 -1.0614 0.9899
-2.3851 -0.5879 -1.1371 0.9892
-5.1877 -1.5026 -2.5000 0.9765
-4.7823 -2.5099 -2.5000 0.9765
-4.6773 -2.7004 -2.5000 0.9765
-4.5648 -2.8866 -2.5000 0.9765
-4.3177 -3.2445 -2.5000 0.9765
-4.0426 -3.5814 -2.5000 0.9765
-3.8951 -3.7413 -2.5000 0.9765
-3.7413 -3.8951 -2.5000 0.9765
-3.5815 -4.0426 -2.5000 0.9765
-3.2445 -4.3177 -2.5000 0.9765
-2.8866 -4.5648 -2.5000 0.9765
-2.1170 -4.9687 -2.5000 0.9765
-1.7103 -5.1229 -2.5000 0.9765
-1.5026 -5.1876 -2.5000 0.9765
-1.0803 -5.2917 -2.5000 0.9765
-0.8664 -5.3309 -2.5000 0.9765
-0.6510 -5.3615 -2.5000 0.9765
-0.4346 -5.3834 -2.5000 0.9765
-0.2175 -5.3965 -2.5000 0.9765
-0.0000 -5.4009 -2.5000 0.9765
0.2175 -5.3965 -2.5000 0.9765
0.4346 -5.3834 -2.5000 0.9765
1.0803 -5.2917 -2.5000 0.9765
1.2925 -5.2439 -2.5000 0.9765
1.5026 -5.1876 -2.5000 0.9765
1.7103 -5.1229 -2.5000 0.9765
2.1170 -4.9687 -2.5000 0.9765
2.3153 -4.8794 -2.5000 0.9765
4.0426 -3.5815 -2.5000 0.9765
4.1836 -3.4158 -2.5000 0.9765
4.3177 -3.2445 -2.5000 0.9765
4.6773 -2.7004 -2.5000 0.9765
94 3.9961 -1.8740 0.9823
-1.2172 4.9384 -2.3543 0.9778
-1.4151 4.8854 -2.3543 0.9778
-1.6106 4.8245 -2.3543 0.9778
-1.8036 4.7557 -2.3543 0.9778
-1.9936 4.6792 -2.3543 0.9778
-2.1804 4.5951 -2.3543 0.9778
-2.3637 4.5036 -2.3543 0.9778
-2.8887 4.1850 -2.3538 0.9778
-3.2155 3.9383 -2.3534 0.9778
-3.5212 3.6659 -2.3529 0.9778
-3.6655 3.5208 -2.3526 0.9778
-3.8038 3.3699 -2.3523 0.9778
-3.9359 3.2135 -2.3520 0.9779
-4.1804 2.8855 -2.3513 0.9779
-4.3977 2.5390 -2.3505 0.9779
-4.4955 2.3594 -2.3501 0.9779
-5.1906 1.5035 -2.5014 0.9765
-2.2466 0.4586 -1.0614 0.9899
-2.2302 0.3624 -1.0459 0.9901
-2.2080 0.2681 -1.0295 0.9902
-2.2037 0.0888 -1.0209 0.9903
-2.0590 -0.0000 -1.0100 0.9909
-2.0595 -0.0830 -1.0111 0.9909
-2.0575 -0.2498 -1.0167 0.9908
-2.0898 -0.4266 -1.0462 0.9905
-2.1007 -0.5178 -1.0613 0.9904
-4.8370 -1.6148 -2.5014 0.9775
-4.7681 -1.8083 -2.5014 0.9775
-4.6914 -1.9988 -2.5014 0.9775
-4.6071 -2.1861 -2.5014 0.9775
-4.5153 -2.3698 -2.5014 0.9775
-4.4162 -2.5497 -2.5014 0.9775
-4.3100 -2.7255 -2.5014 0.9775
-4.1968 -2.8968 -2.5014 0.9775
-4.0767 -3.0635 -2.5014 0.9775
-3.9501 -3.2251 -2.5014 0.9775
-3.8170 -3.3816 -2.5014 0.9775
-3.2251 -3.9501 -2.5014 0.9775
-3.0635 -4.0767 -2.5014 0.9775
-2.8968 -4.1968 -2.5014 0.9775
-2.7255 -4.3100 -2.5014 0.9775
-2.5497 -4.4162 -2.5014 0.9775
-2.3698 -4.5154 -2.5014 0.9775
-1.8083 -4.7681 -2.5014 0.9775
-1.6149 -4.8370 -2.5014 0.9775
-1.2204 -4.9513 -2.5014 0.9775
-1.0200 -4.9964 -2.5014 0.9775
-0.4104 -5.0829 -2.5014 0.9775
-0.2053 -5.0953 -2.5014 0.9775
-0.0000 -5.0994 -2.5014 0.9775
0.2053 -5.0953 -2.5014 0.9775
0.6147 -5.0623 -2.5014 0.9775
0.8180 -5.0334 -2.5014 0.9775
1.2204 -4.9513 -2.5014 0.9775
1.4187 -4.8981 -2.5014 0.9775
1.6148 -4.8370 -2.5014 0.9775
1.8083 -4.7681 -2.5014 0.9775
1.9988 -4.6914 -2.5014 0.9775
2.1861 -4.6071 -2.5014 0.9775
2.7255 -4.3100 -2.5014 0.9775
3.5325 -3.6777 -2.5014 0.9775
3.8170 -3.3816 -2.5014 0.9775
4.0767 -3.0635 -2.5014 0.9775
4.1967 -2.8968 -2.5014 0.9775
4.5153 -2.3699 -2.5014 0.9775
4.6071 -2.1861 -2.5014 0.9775
4.8981 -1.4188 -2.5014 0.9775
4.9964 -1.0200 -2.5014 0.9775
5.0953 -0.2053 -2.5014 0.9775
4.9513 1.2204 -2.5014 0.9775
4.7680 1.8083 -2.5014 0.9775
4.6914 1.9988 -2.5014 0.9775
4.5153 2.3698 -2.5014 0.9775
4.3100 2.7255 -2.5014 0.9775
4.0767 3.0634 -2.5014 0.9775
3.6777 3.5325 -2.5014 0.9775
3.5325 3.6777 -2.5014 0.9775
3.0286 3.7094 -2.3490 0.9789
2.2270 4.2433 -2.3507 0.9789
2.0547 4.3301 -2.3510 0.9789
1.7000 4.4826 -2.3517 0.9789
1.5183 4.5480 -2.3519 0.9789
1.1477 4.6565 -2.3525 0.9789
0.9594 4.6994 -2.3527 0.9789
0.7695 4.7346 -2.3529 0.9789
0.0000 4.7981 -2.3536 0.9788
-0.6491 3.9941 -1.9849 0.9821
-1.3351 4.6094 -2.3540 0.9788
-1.5196 4.5518 -2.3539 0.9788
-2.0570 4.3351 -2.3537 0.9788
-2.2298 4.2485 -2.3536 0.9788
-2.3989 4.1551 -2.3535 0.9789
-2.7251 3.9480 -2.3531 0.9789
-2.8816 3.8347 -2.3529 0.9789
-3.0334 3.7153 -2.3527 0.9789
-3.3219 3.4584 -2.3522 0.9789
-3.9440 2.7223 -2.3507 0.9789
-4.0498 2.5609 -2.3504 0.9789
-4.1489 2.3954 -2.3500 0.9789
-4.2413 2.2260 -2.3496 0.9789
-4.3268 2.0531 -2.3492 0.9789
-4.5756 1.7353 -2.4004 0.9784
-4.8370 1.6148 -2.5014 0.9775
-2.0750 0.3372 -1.0312 0.9907
-2.0571 0.1661 -1.0123 0.9908
-2.0595 0.0830 -1.0111 0.9909
-1.9494 -0.0786 -1.0121 0.9912
-4.5084 -1.7098 -2.5014 0.9785
-4.3562 -2.0670 -2.5014 0.9785
-4.1757 -2.4109 -2.5014 0.9785
-3.9682 -2.7390 -2.5014 0.9785
-3.8547 -2.8966 -2.5014 0.9785
-3.6091 -3.1974 -2.5014 0.9785
-3.1974 -3.6091 -2.5014 0.9785
-3.0495 -3.7349 -2.5014 0.9785
-2.5770 -4.0753 -2.5014 0.9785
-2.4109 -4.1757 -2.5014 0.9785
-2.2408 -4.2694 -2.5014 0.9785
-1.8900 -4.4359 -2.5014 0.9785
-1.7098 -4.5084 -2.5014 0.9785
-1.5269 -4.5736 -2.5014 0.9785
-1.3415 -4.6313 -2.5014 0.9785
-1.1539 -4.6816 -2.5014 0.9785
-0.9645 -4.7243 -2.5014 0.9785
-0.5812 -4.7865 -2.5014 0.9785
-0.3880 -4.8061 -2.5014 0.9785
0.3880 -4.8061 -2.5014 0.9785
0.7734 -4.7593 -2.5014 0.9785
2.0670 -4.3562 -2.5014 0.9785
3.0495 -3.7349 -2.5014 0.9785
3.4774 -3.3401 -2.5014 0.9785
4.0752 -2.5770 -2.5014 0.9785
4.2694 -2.2408 -2.5014 0.9785
4.3562 -2.0670 -2.5014 0.9785
4.4359 -1.8900 -2.5014 0.9785
4.5084 -1.7098 -2.5014 0.9785
4.6313 -1.3415 -2.5014 0.9785
4.7242 -0.9645 -2.5014 0.9785
4.7592 -0.7734 -2.5014 0.9785
4.7865 -0.5812 -2.5014 0.9785
4.8178 -0.1942 -2.5014 0.9785
4.7242 0.9645 -2.5014 0.9785
4.6816 1.1539 -2.5014 0.9785
4.5735 1.5269 -2.5014 0.9785
4.5084 1.7098 -2.5014 0.9785
4.3562 2.0670 -2.5014 0.9785
4.2694 2.2407 -2.5014 0.9785
4.0753 2.5770 -2.5014 0.9785
3.9682 2.7390 -2.5014 0.9785
3.8547 2.8966 -2.5014 0.9785
3.7349 3.0494 -2.5014 0.9785
3.3401 3.4774 -2.5014 0.9785
3.1974 3.6091 -2.5014 0.9785
2.9343 3.5938 -2.4069 0.9793
2.7201 3.6198 -2.3490 0.9798
2.2648 3.9227 -2.3498 0.9798
1.9423 4.0933 -2.3505 0.9798
1.6071 4.2374 -2.3511 0.9798
1.0849 4.4017 -2.3519 0.9798
0.9069 4.4422 -2.3521 0.9798
-0.3174 3.9315 -2.0462 0.9824
-0.6488 3.9921 -2.0982 0.9819
-0.9073 4.4445 -2.3533 0.9798
-1.0856 4.4044 -2.3533 0.9798
-1.2620 4.3571 -2.3533 0.9798
-1.7779 4.1729 -2.3531 0.9798
-1.9444 4.0978 -2.3530 0.9798
-2.2676 3.9276 -2.3528 0.9798
-3.0062 3.3933 -2.3519 0.9798
-3.1401 3.2692 -2.3516 0.9798
-3.2689 3.1398 -2.3514 0.9798
-3.3922 3.0053 -2.3511 0.9798
-3.9222 2.2645 -2.3495 0.9798
-4.5084 1.7098 -2.5014 0.9785
-4.5736 1.5269 -2.5014 0.9785
-2.3249 0.6734 -1.2557 0.9892
-1.9473 0.1572 -1.0135 0.9912
-1.8467 -0.0000 -1.0115 0.9916
-1.8480 -0.0745 -1.0130 0.9916
-1.8463 -0.1491 -1.0145 0.9916
-1.8418 -0.2236 -1.0162 0.9916
-1.8480 -0.3003 -1.0254 0.9915
-1.8515 -0.4563 -1.0444 0.9913
-1.9096 -0.5531 -1.0889 0.9910
-4.2703 -1.6195 -2.5014 0.9794
-4.1261 -1.9579 -2.5014 0.9794
-3.9552 -2.2835 -2.5014 0.9794
-3.8600 -2.4409 -2.5014 0.9794
-3.7586 -2.5944 -2.5014 0.9794
-3.5377 -2.8884 -2.5014 0.9794
-3.4185 -3.0285 -2.5014 0.9794
-3.2938 -3.1637 -2.5014 0.9794
-3.1637 -3.2938 -2.5014 0.9794
-3.0285 -3.4185 -2.5014 0.9794
-2.8884 -3.5377 -2.5014 0.9794
-2.7436 -3.6511 -2.5014 0.9794
-2.5944 -3.7586 -2.5014 0.9794
-2.4409 -3.8600 -2.5014 0.9794
-2.2835 -3.9552 -2.5014 0.9794
-2.1224 -4.0439 -2.5014 0.9794
-1.4462 -4.3320 -2.5014 0.9794
-1.2706 -4.3868 -2.5014 0.9794
-1.0930 -4.4344 -2.5014 0.9794
-0.7326 -4.5079 -2.5014 0.9794
-0.3675 -4.5523 -2.5014 0.9794
-0.0000 -4.5671 -2.5014 0.9794
0.3675 -4.5522 -2.5014 0.9794
1.0930 -4.4344 -2.5014 0.9794
1.2706 -4.3867 -2.5014 0.9794
1.6195 -4.2703 -2.5014 0.9794
1.9579 -4.1261 -2.5014 0.9794
2.1224 -4.0439 -2.5014 0.9794
2.4409 -3.8600 -2.5014 0.9794
2.7436 -3.6511 -2.5014 0.9794
2.8884 -3.5377 -2.5014 0.9794
3.0285 -3.4185 -2.5014 0.9794
3.1637 -3.2938 -2.5014 0.9794
3.4185 -3.0285 -2.5014 0.9794
3.7586 -2.5944 -2.5014 0.9794
3.9552 -2.2835 -2.5014 0.9794
4.0439 -2.1224 -2.5014 0.9794
4.1261 -1.9579 -2.5014 0.9794
4.3867 -1.2707 -2.5014 0.9794
4.4748 -0.9135 -2.5014 0.9794
4.5338 -0.5505 -2.5014 0.9794
4.5522 0.3675 -2.5014 0.9794
4.4748 0.9135 -2.5014 0.9794
4.3867 1.2706 -2.5014 0.9794
4.2016 1.7901 -2.5014 0.9794
4.1261 1.9579 -2.5014 0.9794
4.0439 2.1224 -2.5014 0.9794
3.9552 2.2835 -2.5014 0.9794
3.8600 2.4409 -2.5014 0.9794
3.4185 3.0285 -2.5014 0.9794
2.8884 3.5377 -2.5014 0.9794
2.4363 3.5296 -2.3490 0.9806
2.2923 3.6249 -2.3490 0.9806
1.9937 3.7987 -2.3497 0.9806
1.8394 3.8764 -2.3500 0.9806
1.5218 4.0128 -2.3506 0.9806
0.1729 4.2911 -2.3522 0.9806
-0.0000 4.2948 -2.3523 0.9806
-0.6485 3.9901 -2.2141 0.9817
-0.8592 4.2086 -2.3526 0.9806
-1.0280 4.1706 -2.3526 0.9806
-1.5231 4.0162 -2.3526 0.9806
-1.8413 3.8803 -2.3524 0.9806
-1.9959 3.8029 -2.3523 0.9806
-2.1473 3.7192 -2.3522 0.9806
-2.2952 3.6295 -2.3520 0.9806
-2.4393 3.5340 -2.3519 0.9806
-2.5794 3.4326 -2.3517 0.9806
-2.7154 3.3257 -2.3515 0.9806
-3.6255 2.2926 -2.3494 0.9806
-3.7143 2.1445 -2.3491 0.9806
-3.9589 1.8785 -2.4000 0.9802
-4.2016 1.7901 -2.5014 0.9794
-4.2703 1.6195 -2.5014 0.9794
-2.7122 0.9054 -1.5661 0.9870
-1.8480 0.3003 -1.0254 0.9915
-1.8463 0.1490 -1.0145 0.9916
-1.7547 0.0000 -1.0131 0.9919
-1.7547 -0.1417 -1.0164 0.9919
-1.7550 -0.2852 -1.0265 0.9918
-1.7546 -0.5082 -1.0546 0.9916
-3.9859 -1.6982 -2.5014 0.9802
-3.9142 -1.8573 -2.5014 0.9802
-3.8363 -2.0134 -2.5014 0.9802
-3.7521 -2.1663 -2.5014 0.9802
-3.6618 -2.3156 -2.5014 0.9802
-3.4636 -2.6028 -2.5014 0.9802
-3.3560 -2.7401 -2.5014 0.9802
-3.1246 -3.0013 -2.5014 0.9802
-3.0013 -3.1247 -2.5014 0.9802
-2.8730 -3.2430 -2.5014 0.9802
-2.6027 -3.4636 -2.5014 0.9802
-2.3156 -3.6618 -2.5014 0.9802
-2.0134 -3.8363 -2.5014 0.9802
-1.8573 -3.9142 -2.5014 0.9802
-1.6982 -3.9859 -2.5014 0.9802
-1.5364 -4.0510 -2.5014 0.9802
-0.8666 -4.2450 -2.5014 0.9802
-0.6950 -4.2765 -2.5014 0.9802
-0.5222 -4.3010 -2.5014 0.9802
-0.3486 -4.3185 -2.5014 0.9802
0.1744 -4.3290 -2.5014 0.9802
0.3486 -4.3185 -2.5014 0.9802
0.5222 -4.3010 -2.5014 0.9802
0.6950 -4.2764 -2.5014 0.9802
0.8666 -4.2450 -2.5014 0.9802
1.0368 -4.2067 -2.5014 0.9802
1.2054 -4.1615 -2.5014 0.9802
1.3720 -4.1096 -2.5014 0.9802
1.5363 -4.0510 -2.5014 0.9802
1.6982 -3.9859 -2.5014 0.9802
1.8573 -3.9142 -2.5014 0.9802
2.3156 -3.6618 -2.5014 0.9802
2.7401 -3.3560 -2.5014 0.9802
3.0013 -3.1247 -2.5014 0.9802
3.3560 -2.7401 -2.5014 0.9802
3.6618 -2.3156 -2.5014 0.9802
3.7521 -2.1663 -2.5014 0.9802
3.8363 -2.0134 -2.5014 0.9802
4.1096 -1.3720 -2.5014 0.9802
4.1615 -1.2054 -2.5014 0.9802
4.2764 -0.6950 -2.5014 0.9802
4.3009 -0.5222 -2.5014 0.9802
4.3290 -0.1745 -2.5014 0.9802
4.3325 -0.0000 -2.5014 0.9802
4.3185 0.3486 -2.5014 0.9802
4.2764 0.6950 -2.5014 0.9802
4.2450 0.8666 -2.5014 0.9802
4.2066 1.0368 -2.5014 0.9802
4.1615 1.2054 -2.5014 0.9802
4.1096 1.3720 -2.5014 0.9802
3.9858 1.6982 -2.5014 0.9802
3.9142 1.8573 -2.5014 0.9802
3.8363 2.0134 -2.5014 0.9802
3.7521 2.1662 -2.5014 0.9802
3.4636 2.6027 -2.5014 0.9802
3.2430 2.8730 -2.5014 0.9802
3.1246 3.0013 -2.5014 0.9802
3.0013 3.1246 -2.5014 0.9802
2.8730 3.2429 -2.5014 0.9802
2.7401 3.3560 -2.5014 0.9802
2.1745 3.4387 -2.3490 0.9814
2.0343 3.5235 -2.3490 0.9814
1.7446 3.6766 -2.3495 0.9814
1.1327 3.9105 -2.3506 0.9814
0.9744 3.9533 -2.3508 0.9814
0.8145 3.9897 -2.3510 0.9814
0.6532 4.0196 -2.3512 0.9814
0.1640 4.0698 -2.3516 0.9814
-0.6481 3.9880 -2.3327 0.9815
-1.1334 3.9130 -2.3520 0.9814
-1.4446 3.8090 -2.3520 0.9814
-1.5967 3.7476 -2.3519 0.9814
-1.7463 3.6802 -2.3518 0.9814
-2.0366 3.5274 -2.3516 0.9814
