ply
format ascii 1.0
element vertex 1523
property float32 x
property float32 y
property float32 z
property float32 I
end_header
-49.2554 -1.9849 -2.5000 0.8208
-49.1356 -3.9666 -2.5000 0.8208
-48.9360 -5.9419 -2.5000 0.8208
-48.6571 -7.9076 -2.5000 0.8208
-48.2993 -9.8604 -2.5000 0.8208
-47.8630 -11.7972 -2.5000 0.8208
-47.3492 -13.7149 -2.5000 0.8208
-42.0580 -17.9193 -2.3185 0.8327
-38.8057 -18.4135 -2.1783 0.8420
-33.0831 -17.3634 -1.8948 0.8610
-29.7894 -17.1989 -1.7444 0.8713
-24.4295 -16.8625 -1.5054 0.8879
-20.4966 -16.7350 -1.3419 0.8994
-18.7376 -16.6000 -1.2695 0.9046
-17.2544 -16.5731 -1.2133 0.9086
-15.7737 -16.4222 -1.1548 0.9128
-14.4921 -16.3582 -1.1083 0.9162
-29.0821 -35.6191 -2.3320 0.8318
-24.5419 -38.8099 -2.3287 0.8320
-8.5939 -22.6604 -1.2291 0.9075
-7.9206 -23.7253 -1.2685 0.9047
-10.9618 -44.4738 -2.3230 0.8324
-7.3454 -45.1980 -2.3223 0.8324
3.6842 -45.6371 -2.3220 0.8325
5.2983 -43.6351 -2.2292 0.8386
5.8935 -28.8680 -1.4942 0.8887
6.6232 -26.8709 -1.4035 0.8951
7.5782 -26.1627 -1.3814 0.8966
8.7834 -26.3094 -1.4067 0.8949
6.9308 -18.2748 -0.9912 0.9247
17.9762 -42.1918 -2.3258 0.8322
19.7089 -41.5356 -2.3316 0.8318
11.9857 -18.9538 -1.1373 0.9141
11.3238 -15.0693 -0.9560 0.9273
13.3297 -15.0461 -1.0194 0.9226
16.8029 -14.8861 -1.1385 0.9140
39.4092 -29.6140 -2.5000 0.8208
40.5697 -28.0032 -2.5000 0.8208
41.1173 -23.7391 -2.4078 0.8268
41.0748 -21.5577 -2.3526 0.8304
41.8457 -19.8560 -2.3490 0.8307
42.6526 -18.1726 -2.3512 0.8305
44.4628 -12.8788 -2.3476 0.8308
48.2993 -9.8604 -2.5000 0.8208
49.1357 -3.9666 -2.5000 0.8208
49.2555 -1.9849 -2.5000 0.8208
49.2955 0.0000 -2.5000 0.8208
49.2555 1.9849 -2.5000 0.8208
49.1356 3.9666 -2.5000 0.8208
45.9529 5.5797 -2.3476 0.8308
45.6916 7.4256 -2.3476 0.8308
44.9697 11.0841 -2.3489 0.8307
43.1037 14.3902 -2.3046 0.8336
21.7732 8.2575 -1.1810 0.9110
41.8852 19.8747 -2.3512 0.8305
14.7038 8.4892 -0.8610 0.9343
12.8769 8.8883 -0.7935 0.9393
11.3481 9.2655 -0.7430 0.9430
7.7133 9.4470 -0.6185 0.9523
7.4369 9.8967 -0.6278 0.9516
1.9906 9.7504 -0.5047 0.9609
1.0387 8.5546 -0.4370 0.9661
0.3313 8.2221 -0.4173 0.9676
-0.6740 8.3496 -0.4248 0.9670
-1.0442 8.6001 -0.4394 0.9659
-2.8188 9.7315 -0.5138 0.9602
-3.2450 9.7201 -0.5197 0.9598
-3.6469 9.6160 -0.5216 0.9596
-3.7137 8.7163 -0.4805 0.9628
-4.5950 9.6838 -0.5436 0.9580
-5.4026 9.3575 -0.5480 0.9576
-6.5316 8.6920 -0.5514 0.9574
-7.2490 8.1824 -0.5544 0.9572
-7.8658 8.1892 -0.5759 0.9555
-28.7349 25.4570 -1.9469 0.8575
-35.4718 28.9618 -2.3224 0.8324
-34.8205 26.1659 -2.2089 0.8399
-33.8514 17.7666 -1.9388 0.8580
-34.6719 16.4520 -1.9463 0.8575
-33.9890 14.4813 -1.8737 0.8625
-34.5563 13.1055 -1.8743 0.8624
-33.5894 8.2791 -1.7544 0.8706
-41.9698 5.0960 -2.1441 0.8442
-33.6544 -5.4694 -2.5000 0.8722
-33.4068 -6.8201 -2.5000 0.8722
-32.7497 -9.4861 -2.5000 0.8722
-31.3675 -13.3645 -2.5000 0.8722
-28.3516 -14.8800 -2.3477 0.8795
-27.0759 -17.1218 -2.3489 0.8794
-24.4328 -16.8648 -2.1768 0.8877
-15.8822 -16.5351 -1.6811 0.9121
-13.3733 -16.3793 -1.5504 0.9187
-12.2667 -16.3241 -1.4972 0.9214
-11.2320 -16.2724 -1.4498 0.9238
-10.4421 -22.0063 -1.7860 0.9069
-6.8191 -16.0050 -1.2756 0.9326
-6.0736 -16.0148 -1.2559 0.9336
-5.3342 -15.9779 -1.2351 0.9347
-3.9208 -15.9074 -1.2013 0.9364
-3.2406 -15.8734 -1.1879 0.9371
-2.5743 -15.8401 -1.1767 0.9377
-1.9194 -15.8074 -1.1675 0.9381
-1.2735 -15.7752 -1.1604 0.9385
0.0000 -15.7116 -1.1520 0.9389
1.2633 -15.6485 -1.1511 0.9390
1.8963 -15.6169 -1.1535 0.9389
2.5328 -15.5851 -1.1577 0.9386
3.1752 -15.5531 -1.1639 0.9383
8.7602 -26.2399 -2.0284 0.8950
5.9077 -15.5774 -1.27430.9354
12.5059 -29.3524 -2.3394 0.8799
13.6810 -28.8320 -2.3399 0.8799
8.8169 -15.2714 -1.2930 0.9317
9.6313 -15.2307 -1.3213 0.9303
12.3257 -15.0962 -1.4290 0.9248
15.5493 -14.9353 -1.5808 0.9172
16.8065 -14.8893 -1.6463 0.9139
18.1343 -14.8062 -1.7165 0.9104
28.0606 -19.3688 -2.5000 0.8722
28.8177 -18.2232 -2.5000 0.8722
30.1906 -15.8452 -2.5000 0.8722
30.8041 -14.6167 -2.5000 0.8722
31.3677 -13.3645 -2.5000 0.8722
31.8803 -12.0906 -2.5000 0.8722
32.3413 -10.7971 -2.5000 0.8722
32.7498 -9.4861 -2.5000 0.8722
33.1052 -8.1597 -2.5000 0.8722
33.4069 -6.8201 -2.5000 0.8722
33.6545 -5.4694 -2.5000 0.8722
33.8474 -4.1098 -2.5000 0.8722
33.9854 -2.7436 -2.5000 0.8722
34.0683 -1.3729 -2.5000 0.8722
34.0960 0.0000 -2.5000 0.8722
13.9095 0.5605 -1.0207 0.9457
33.9854 2.7436 -2.5000 0.8722
33.6544 5.4694 -2.5000 0.8722
33.1053 8.1597 -2.5000 0.8722
32.7499 9.4861 -2.5000 0.8722
32.3414 10.7972 -2.5000 0.8722
21.7733 8.2575 -1.7074 0.9108
31.3677 13.3645 -2.5000 0.8722
16.6272 8.7266 -1.3768 0.9275
9.8177 8.6977 -0.9617 0.9488
6.2545 9.0612 -0.8073 0.9568
5.7582 9.1058 -0.7900 0.9577
4.7000 9.9050 -0.8039 0.9570
1.6323 10.0436 -0.7461 0.9600
1.0815 8.9068 -0.6579 0.9647
-0.6834 8.4650 -0.6227 0.9665
-1.0798 8.8928 -0.6568 0.9647
-1.5777 9.7083 -0.7212 0.9613
-2.8188 9.7315 -0.7429 0.9602
-5.0766 9.6726 -0.8010 0.9571
-5.3377 8.4409 -0.7323 0.9607
-6.8328 8.3687 -0.7922 0.9576
-7.2490 8.1824 -0.8015 0.9571
-8.6615 8.3195 -0.8806 0.9530
-25.1272 22.2608 -2.4614 0.8740
-26.8370 20.1667 -2.4614 0.8740
-27.6272 19.0697 -2.4614 0.8740
-27.7584 17.5533 -2.4081 0.8766
-6.0072 3.4683 -0.5086 0.9726
-27.8882 14.6369 -2.3093 0.8813
-28.4758 13.5120 -2.3110 0.8812
-29.0175 12.3632 -2.3127 0.8812
-31.2557 6.3809 -2.3390 0.8799
-31.6051 5.1363 -2.3478 0.8795
-31.7878 3.8597 -2.3479 0.8795
-31.9145 2.5764 -2.3477 0.8795
-34.0682 1.3729 -2.5000 0.8722
-25.9557 -2.0954 -2.5000 0.9006
-25.7029 -4.1771 -2.5000 0.9006
-25.5139 -5.2087 -2.5000 0.9006
-25.2834 -6.2318 -2.5000 0.9006
-24.7000 -8.2461 -2.5000 0.9006
-23.9564 -10.2069 -2.5000 0.9006
-23.5260 -11.1632 -2.5000 0.9006
-23.0574 -12.1015 -2.5000 0.9006
-22.5514 -13.0201 -2.5000 0.9006
-17.6434 -16.9467 -2.3487 0.9064
-13.3733 -16.3793 -2.0301 0.9185
-12.2667 -16.3241 -1.9604 0.9212
-11.2320 -16.2724 -1.8982 0.9236
-9.3403 -16.1779 -1.7934 0.9277
-6.8191 -16.0050 -1.6702 0.9325
-5.3342 -15.9779 -1.6172 0.9346
-3.9208 -15.9074 -1.5729 0.9363
-3.2406 -15.8734 -1.5554 0.9370
-2.5743 -15.8401 -1.5407 0.9375
-1.9194 -15.8074 -1.5287 0.9380
-1.2735 -15.7752 -1.5194 0.9384
1.9651 -24.3414 -2.3445 0.9065
2.9438 -24.2438 -2.3446 0.9065
4.8858 -23.9320 -2.3450 0.9065
10.4803 -22.0867 -2.3470 0.9064
8.0732 -15.3822 -1.6678 0.9326
8.8169 -15.2714 -1.6929 0.9316
13.9001 -20.1377 -2.3492 0.9064
12.3257 -15.0962 -1.8710 0.9247
18.9413 -15.4651 -2.3476 0.9064
20.1242 -13.8907 -2.3476 0.9064
20.6672 -13.0691 -2.3476 0.9064
23.5261 -11.1632 -2.5000 0.9006
23.9565 -10.2069 -2.5000 0.9006
24.7001 -8.2461 -2.5000 0.9006
25.0121 -7.2448 -2.5000 0.9006
25.5139 -5.2087 -2.5000 0.9006
26.0191 -1.0485 -2.5000 0.9006
13.0736 1.0554 -1.2592 0.9487
25.8503 3.1388 -2.5000 0.9006
25.7029 4.1771 -2.5000 0.9006
25.5140 5.2087 -2.5000 0.9006
23.4874 6.8032 -2.3476 0.9064
23.1945 7.7435 -2.3476 0.9064
21.7732 8.2575 -2.2356 0.9107
22.1291 10.5004 -2.3515 0.9063
14.5955 7.6603 -1.5825 0.9359
11.4742 7.9201 -1.3385 0.9455
11.3684 8.5428 -1.3652 0.9445
8.8584 8.5086 -1.1792 0.9518
5.7347 9.9328 -1.1011 0.9550
3.2314 8.5205 -0.8749 0.9640
2.4805 8.5635 -0.8559 0.9648
2.1146 8.5792 -0.8483 0.9651
1.6323 10.0436 -0.9769 0.9599
1.0485 8.6353 -0.8351 0.9656
0.0000 8.4005 -0.8065 0.9668
-0.3333 8.2716 -0.7948 0.9673
-0.6834 8.4650 -0.8153 0.9664
-1.5777 9.7083 -0.9443 0.9612
-1.9796 9.6965 -0.9501 0.9610
-2.3870 8.2410 -0.8237 0.9661
-3.2450 9.7201 -0.9838 0.9597
-3.6469 9.6160 -0.9873 0.9595
-3.8691 8.1540 -0.8665 0.9644
-5.4020 9.3565 -1.0372 0.9575
-5.3781 8.5048 -0.9661 0.9604
-5.4518 7.8983 -0.9214 0.9622
-6.5668 8.7388 -1.0494 0.9570
-7.7310 8.0488 -1.0714 0.9561
-21.6691 13.7028 -2.4614 0.9021
-6.0072 3.4683 -0.6658 0.9725
-23 0.95 11.9147 -2.4614 0.9021
-23.1628 10.9909 -2.4614 0.9021
-23.9721 9.0914 -2.4614 0.9021
-24.6259 7.1330 -2.4614 0.9021
-24.9391 6.1470 -2.4659 0.9019
-25.8052 3.1333 -2.4956 0.9008
-25.9361 2.0938 -2.4981 0.9007
-21.0461 0.0000 -2.5000 0.9187
-20.8927 -2.5368 -2.5000 0.9187
-20.7736 -3.3760 -2.5000 0.9187
-20.4346 -5.0367 -2.5000 0.9187
-20.2152 -5.8554 -2.5000 0.9187
-19.3620 -8.2494 -2.5000 0.9187
-17.7880 -11.2484 -2.5000 0.9187
-17.3206 -11.9556 -2.5000 0.9187
-16.8253 -12.6433 -2.5000 0.9187
-16.3025 -13.3105 -2.5000 0.9187
-15.2402 -13.5016 -2.4186 0.9213
-11.8736 -15.8009 -2.3478 0.9235
-10.5664 -16.7094 -2.3484 0.9235
-9.8858 -17.1230 -2.3486 0.9234
-9.1959 -17.5214 -2.3505 0.9234
-8.4852 -17.8822 -2.3512 0.9234
-6.8191 -16.0050 -2.0665 0.9323
-6.0736 -16.0148 -2.0345 0.9333
-5.3342 -15.9779 -2.0009 0.9344
-4.6177 -15.9422 -1.9715 0.9353
-3.9208 -15.9074 -1.9461 0.9361
-3.2406 -15.8734 -1.9244 0.9368
-1.9194 -15.8074 -1.8915 0.9379
-0.6325 -15.6961 -1.8660 0.9387
0.0000 -15.7116 -1.8663 0.9387
2.5328 -15.5851 -1.8756 0.9384
3.8255 -15.5206 -1.8988 0.9376
5.1593 -15.4540 -1.9353 0.9365
6.5547 -15.3843 -1.9864 0.9349
9.2011 -17.5311 -2.3518 0.9233
10.5646 -16.7065 -2.3480 0.9235
11.3916 -15.1594 -2.2525 0.9265
12.4992 -15.3087 -2.3476 0.9235
13.1054 -14.7929 -2.3476 0.9235
14.7929 -13.1054 -2.3476 0.9235
15.5183 -12.6703 -2.3797 0.9225
17.7880 -11.2484 -2.5000 0.9187
18.2265 -10.5231 -2.5000 0.9187
18.6354 -9.7806 -2.5000 0.9187
19.3620 -8.2493 -2.5000 0.9187
19.6785 -7.4630 -2.5000 0.9187
19.9630 -6.6646 -2.5000 0.9187
20.6208 -4.2098 -2.5000 0.9187
20.8928 -2.5366 -2.5000 0.9187
20.9779 -1.6935 -2.5000 0.9187
21.0291 -0.8474 -2.5000 0.9187
12.2985 0.4956 -1.4621 0.9516
20.7736 3.3760 -2.5000 0.9187
19.3638 3.9532 -2.3476 0.9235
18.9829 5.4985 -2.3476 0.9235
18.7461 6.2584 -2.3476 0.9235
18.1697 7.7414 -2.3460 0.9235
17.8540 8.4718 -2.3474 0.9235
14.6330 7.6800 -1.9630 0.9356
13.0702 7.5461 -1.7927 0.9410
12.8958 8.1548 -1.8124 0.9404
11.3877 7.8603 -1.6436 0.9458
9.6539 8.5526 -1.5320 0.9494
8.9975 8.6422 -1.4819 0.9510
8.3911 8.7361 -1.4389 0.9524
8.0952 9.1376 -1.4501 0.9520
7.1559 8.7644 -1.3440 0.9554
4.7000 9.9050 -1.3023 0.9568
4.2146 9.8919 -1.2772 0.9576
3.1949 8.4242 -1.0702 0.9644
2.4342 8.4038 -1.0393 0.9654
1.6323 10.0436 -1.2087 0.9598
1.0590 8.7217 -1.0436 0.9652
0.6821 8.4488 -1.0069 0.9664
0.3355 8.3248 -0.9897 0.9670
0.0000 8.2802 -0.9836 0.9672
-0.6834 8.4650 -1.0088 0.9664
-1.0632 8.7562 -1.0477 0.9651
-1.5777 9.7083 -1.1683 0.9612
-2.1379 8.6738 -1.0612 0.9647
-2.3332 8.0552 -0.9962 0.9668
-3.6541 8.5764 -1.1074 0.9631
-3.7203 7.8405 -1.0309 0.9656
-4.6873 8.9310 -1.1981 0.9602
-5.4030 7.8276 -1.1298 0.9624
-7.2490 8.1824 -1.2985 0.9569
-7.8659 8.1892 -1.3488 0.9553
-8.6615 8.3195 -1.4266 0.9528
-14.5627 12.9015 -2.3111 0.9246
-17.0533 11.7710 -2.4614 0.9199
-17.5134 11.0748 -2.4614 0.9199
-6.0072 3.4683 -0.8240 0.9724
-18.3478 9.6297 -2.4614 0.9199
-19.0631 8.1220 -2.4614 0.9199
-19.6698 6.5668 -2.4633 0.9199
-20.0148 5.7974 -2.4752 0.9195
-20.5109 4.1874 -2.4867 0.9191
-20.7458 3.3715 -2.4966 0.9188
-17.6441 0.0000 -2.5000 0.9312
-17.6298 -0.7104 -2.5000 0.9312
-17.5869 -1.4198 -2.5000 0.9312
-17.4156 -2.8303 -2.5000 0.9312
-16.4975 -6.2567 -2.5000 0.9312
-16.2322 -6.9159 -2.5000 0.9312
-14.9126 -9.4302 -2.5000 0.9312
-14.5208 -10.0230 -2.5000 0.9312
-13.2068 -11.7002 -2.5000 0.9312
-8.8553 -14.0036 -2.3476 0.9353
-8.2843 -14.3488 -2.3476 0.9353
-7.6998 -14.6707 -2.3476 0.9353
-7.1028 -14.9688 -2.3476 0.9353
-6.4943 -15.2427 -2.3476 0.9353
-3.9656 -16.0891 -2.3479 0.9352
-3.3147 -16.2364 -2.3480 0.9352
-1.9975 -16.4514 -2.3481 0.9352
-0.6308 -15.6533 -2.2197 0.9387
0.0000 -16.5726 -2.3482 0.9352
0.6673 -16.5590 -2.3481 0.9352
1.3335 -16.5185 -2.3481 0.9352
2.6583 -16.3567 -2.3480 0.9352
5.8753 -15.4919 -2.3476 0.9353
7.6998 -14.6707 -2.3476 0.9353
8.8553 -14.0035 -2.3476 0.9353
10.4787 -12.8341 -2.3476 0.9353
11.3199 -12.7775 -2.4187 0.9334
12.7250 -12.2225 -2.5000 0.9312
13.2068 -11.7002 -2.5000 0.9312
13.6672 -11.1589 -2.5000 0.9312
14.1055 -10.5996 -2.5000 0.9312
14.5209 -10.0230 -2.5000 0.9312
14.9127 -9.4302 -2.5000 0.9312
15.6231 -8.1996 -2.5000 0.9312
15.9406 -7.5639 -2.5000 0.9312
16.4976 -6.2567 -2.5000 0.9312
17.2876 -3.5293 -2.5000 0.9312
17.4156 -2.8303 -2.5000 0.9312
17.5155 -2.1267 -2.5000 0.9312
12.1784 0.4908 -1.7269 0.9520
12.2181 0.9864 -1.7368 0.9517
17.5155 2.1268 -2.5000 0.9312
16.2337 3.3141 -2.3476 0.9353
15.9144 4.6097 -2.3476 0.9353
15.7159 5.2467 -2.3476 0.9353
14.9689 7.1028 -2.3476 0.9353
11.3683 8.5427 -2.0149 0.9442
11.3480 9.2654 -2.0758 0.9425
8.3911 8.7361 -1.7163 0.9522
7.1559 8.7644 -1.6032 0.9553
4.9155 8.5139 -1.3930 0.9611
3.1949 8.4242 -1.2766 0.9643
2.0689 8.3940 -1.2249 0.9657
0.6821 8.4488 -1.2010 0.9663
0.3333 8.2717 -1.1730 0.9671
-0.6834 8.4650 -1.2033 0.9663
-1.0534 8.6755 -1.2383 0.9653
-1.5777 9.7083 -1.3936 0.9610
-2.1379 8.6739 -1.2658 0.9646
-3.3366 8.7978 -1.3332 0.9627
-3.6541 8.5765 -1.3209 0.9630
-4.0648 7.7448 -1.2393 0.9653
-5.3168 7.7027 -1.3261 0.9629
-7.2490 8.1824 -1.5489 0.9568
-8.6615 8.3195 -1.7017 0.9526
-13.0579 9.8124 -2.3143 0.9361
-13.4372 9.2750 -2.3134 0.9362
-13.7935 8.7225 -2.3124 0.9362
-6.0072 3.4683 -0.9828 0.9724
-14.4387 7.5780 -2.3105 0.9362
-16.5783 5.5346 -2.4764 0.9318
-17.0729 4.2081 -2.4914 0.9314
-17.4116 2.8297 -2.4994 0.9312
-17.5146 2.1267 -2.4999 0.9312
-17.5869 1.4198 -2.5000 0.9312
-15.1262 -1.2211 -2.5000 0.9403
-15.0648 -1.8292 -2.5000 0.9403
-14.8687 -3.0355 -2.5000 0.9403
-14.5762 -4.2220 -2.5000 0.9403
-14.3944 -4.8056 -2.5000 0.9403
-14.1893 -5.3813 -2.5000 0.9403
-13.9611 -5.9482 -2.5000 0.9403
-13.7102 -6.5056 -2.5000 0.9403
-13.4371 -7.0524 -2.5000 0.9403
-12.8261 -8.1107 -2.5000 0.9403
-12.4891 -8.6206 -2.5000 0.9403
-10.9445 -10.5124 -2.5000 0.9403
-10.5124 -10.9445 -2.5000 0.9403
-8.6206 -12.4891 -2.5000 0.9403
-7.5877 -13.1423 -2.5000 0.9403
-6.9629 -13.2668 -2.4683 0.9411
-5.6447 -13.2486 -2.3724 0.9433
-4.5126 -13.5169 -2.3476 0.9439
-3.9647 -13.6877 -2.3476 0.9439
-3.4103 -13.8362 -2.3476 0.9439
-2.8504 -13.9623 -2.3476 0.9439
-1.7177 -14.1464 -2.3476 0.9439
0.0000 -14.2503 -2.3476 0.9439
1.1467 -14.2041 -2.3476 0.9439
1.7177 -14.1464 -2.3476 0.9439
2.2859 -14.0658 -2.3476 0.9439
2.8504 -13.9623 -2.3476 0.9439
3.4104 -13.8362 -2.3476 0.9439
3.9647 -13.6877 -2.3476 0.9439
5.5856 -13.1100 -2.3476 0.9439
6.7730 -12.9048 -2.4009 0.9426
7.4349 -12.8777 -2.4497 0.9415
8.1107 -12.8261 -2.5000 0.9403
8.6206 -12.4891 -2.5000 0.9403
9.1165 -12.1319 -2.5000 0.9403
9.5976 -11.7549 -2.5000 0.9403
10.5124 -10.9445 -2.5000 0.9403
10.9446 -10.5124 -2.5000 0.9403
12.1319 -9.1165 -2.5000 0.9403
12.4891 -8.6206 -2.5000 0.9403
12.8261 -8.1107 -2.5000 0.9403
14.1893 -5.3813 -2.5000 0.9403
14.8687 -3.0355 -2.5000 0.9403
15.0648 -1.8292 -2.5000 0.9403
12.1199 0.4884 -1.9982 0.9520
12.1532 0.9811 -2.0086 0.9518
15.0648 1.8292 -2.5000 0.9403
14.9789 2.4343 -2.5000 0.9403
14.8687 3.0355 -2.5000 0.9403
16.5028 4.0676 -2.8000 0.9334
13.6877 3.9647 -2.3476 0.9439
12.3411 7.1252 -2.3476 0.9439
11.3875 7.8602 -2.2795 0.9455
11.3584 8.5353 -2.3406 0.9440
11.0101 8.9895 -2.3416 0.9440
8.0952 9.1376 -2.0111 0.9517
7.1559 8.7644 -1.8640 0.9552
4.8898 9.3167 -1.7334 0.9582
4.3892 9.2501 -1.6867 0.9593
4.0690 9.5502 -1.7101 0.9588
1.0815 8.9068 -1.4781 0.9643
0.6821 8.4488 -1.3964 0.9662
0.0000 8.4005 -1.3839 0.9665
-0.3333 8.2716 -1.3638 0.9670
-1.9797 9.6971 -1.6304 0.9607
-2.1380 8.6741 -1.4717 0.9644
-2.1987 7.5908 -1.3019 0.9685
-3.2694 8.6207 -1.5189 0.9633
-4.8456 8.3928 -1.5965 0.9615
-5.3572 7.7612 -1.5536 0.9625
-6.8328 8.3687 -1.7798 0.9571
-8.6615 8.3195 -1.9785 0.9525
-10.5190 9.3190 -2.3151 0.9446
-11.8736 7.5084 -2.3143 0.9446
-6.0072 3.4683 -1.1427 0.9723
-13.0635 5.5658 -2.3393 0.9441
-13.5072 4.5094 -2.3459 0.9439
-14.7283 3.6302 -2.4989 0.9404
-14.8677 3.0353 -2.4998 0.9403
-14.9789 2.4343 -2.5000 0.9403
-15.0647 1.8292 -2.5000 0.9403
-15.1262 1.2211 -2.5000 0.9403
-15.1631 0.6111 -2.5000 0.9403
-13.2574 -1.0702 -2.5000 0.9473
-13.2036 -1.6032 -2.5000 0.9473
-13.1283 -2.1336 -2.5000 0.9473
-12.9141 -3.1830 -2.5000 0.9473
-12.6161 -4.2119 -2.5000 0.9473
-12.4362 -4.7164 -2.5000 0.9473
-12.0164 -5.7018 -2.5000 0.9473
-11.7771 -6.1811 -2.5000 0.9473
-11.5186 -6.6503 -2.5000 0.9473
-11.2415 -7.1087 -2.5000 0.9473
-10.9461 -7.5556 -2.5000 0.9473
-10.6330 -7.9902 -2.5000 0.9473
-9.5924 -9.2136 -2.5000 0.9473
-8.8199 -9.9556 -2.5000 0.9473
-8.4119 -10.3027 -2.5000 0.9473
-7.9902 -10.6330 -2.5000 0.9473
-7.5556 -10.9462 -2.5000 0.9473
-7.1087 -11.2415 -2.5000 0.9473
-6.6503 -11.5186 -2.5000 0.9473
-6.1812 -11.7771 -2.5000 0.9473
-5.7019 -12.0164 -2.5000 0.9473
-5.2125 -12.2362 -2.5000 0.9473
-4.7164 -12.4362 -2.5000 0.9473
-3.7004 -12.7754 -2.5000 0.9473
-3.1830 -12.9141 -2.5000 0.9473
-2.6604 -13.0318 -2.5000 0.9473
-1.5928 -13.1175 -2.4837 0.9476
-1.0580 -13.1052 -2.4713 0.9479
0.5265 -13.0646 -2.4576 0.9482
1.0535 -13.0496 -2.4608 0.9481
2.1155 -13.0173 -2.4788 0.9477
3.1831 -12.9141 -2.5000 0.9473
4.7164 -12.4362 -2.5000 0.9473
5.2134 -12.2362 -2.5000 0.9473
6.1811 -11.7771 -2.5000 0.9473
6.6503 -11.5186 -2.5000 0.9473
7.1087 -11.2415 -2.5000 0.9473
7.5556 -10.9461 -2.5000 0.9473
7.9902 -10.6330 -2.5000 0.9473
8.8199 -9.9556 -2.5000 0.9473
9.9556 -8.8199 -2.5000 0.9473
11.7771 -6.1811 -2.5000 0.9473
12.2363 -5.2134 -2.5000 0.9473
12.4362 -4.7164 -2.5000 0.9473
12.6161 -4.2119 -2.5000 0.9473
12.7754 -3.7004 -2.5000 0.9473
12.9141 -3.1830 -2.5000 0.9473
13.0318 -2.6604 -2.5000 0.9473
13.2036 -1.6032 -2.5000 0.9473
13.2574 -1.0702 -2.5000 0.9473
12.7573 -0.5141 -2.3998 0.9494
13.3006 0.0000 -2.5000 0.9473
13.2574 1.0703 -2.5000 0.9473
13.2036 1.6032 -2.5000 0.9473
13.0318 2.6605 -2.5000 0.9473
11.9966 3.4749 -2.3476 0.9504
11.6781 4.4289 -2.3476 0.9504
11.2839 5.3543 -2.3476 0.9504
11.0591 5.8043 -2.3476 0.9504
10.8165 6.2449 -2.3476 0.9504
10.5562 6.6754 -2.3476 0.9504
10.2789 7.0950 -2.3476 0.9504
9.9629 7.4867 -2.3424 0.9505
9.6297 7.8624 -2.3367 0.9507
9.3085 8.2466 -2.3375 0.9506
8.9062 8.5545 -2.3212 0.9510
8.3911 8.7361 -2.2768 0.9519
7.9817 9.0095 -2.2624 0.9522
7.2104 8.8311 -2.1429 0.9547
7.2083 9.5925 -2.2553 0.9523
5.1671 8.1711 -1.8172 0.9614
4.9343 8.5464 -1.8549 0.9606
4.7032 8.9613 -1.9023 0.9596
3.6536 8.5753 -1.7520 0.9628
2.8090 8.4139 -1.6673 0.9645
1.6323 10.0436 -1.9126 0.9594
1.0815 8.9068 -1.6864 0.9641
0.6821 8.4488 -1.5932 0.9661
0.0000 8.4005 -1.5790 0.9664
-0.3333 8.2716 -1.5560 0.9669
-1.0798 8.8928 -1.6838 0.9642
-1.9797 9.6973 -1.8603 0.9605
-2.1836 7.5386 -1.4752 0.9686
-3.5107 8.2400 -1.6835 0.9642
-3.6277 7.6452 -1.5906 0.9661
-4.0642 7.0394 -1.5278 0.9675
-5.1643 8.1666 -1.8162 0.9614
-7.2490 8.1824 -2.0547 0.9565
-8.6615 8.3195 -2.2574 0.9523
-9.5442 7.7926 -2.3159 0.9511
-11.4903 4.8956 -2.3476 0.9504
-11.6781 4.4289 -2.3476 0.9504
-12.1268 2.9890 -2.3476 0.9504
-13.0318 2.6605 -2.5000 0.9473
-13.2898 0.5356 -2.5000 0.9473
-11.8270 0.0000 -2.5000 0.9528
-11.8174 -0.4762 -2.5000 0.9528
-11.7886 -0.9517 -2.5000 0.9528
-11.6738 -1.8972 -2.5000 0.9528
-11.4833 -2.8304 -2.5000 0.9528
-11.2183 -3.7452 -2.5000 0.9528
-10.8806 -4.6358 -2.5000 0.9528
-10.6851 -5.0701 -2.5000 0.9528
-9.9960 -6.3211 -2.5000 0.9528
-8.8526 -7.8427 -2.5000 0.9528
-8.5296 -8.1928 -2.5000 0.9528
-7.4799 -9.1612 -2.5000 0.9528
-7.1050 -9.4550 -2.5000 0.9528
-6.3211 -9.9960 -2.5000 0.9528
-3.7453 -11.2183 -2.5000 0.9528
-3.2906 -11.3600 -2.5000 0.9528
-1.8972 -11.6738 -2.5000 0.9528
-0.9517 -11.7886 -2.5000 0.9528
-0.4762 -11.8174 -2.5000 0.9528
0.0000 -11.8270 -2.5000 0.9528
0.4762 -11.8174 -2.5000 0.9528
1.4256 -11.7407 -2.5000 0.9528
1.8972 -11.6738 -2.5000 0.9528
2.8304 -11.4833 -2.5000 0.9528
3.2905 -11.3600 -2.5000 0.9528
4.1939 -11.0584 -2.5000 0.9528
5.4963 -10.4723 -2.5000 0.9528
5.9135 -10.2425 -2.5000 0.9528
6.7184 -9.7334 -2.5000 0.9528
7.1050 -9.4550 -2.5000 0.9528
7.4799 -9.1612 -2.5000 0.9528
8.5297 -8.1928 -2.5000 0.9528
8.8526 -7.8427 -2.5000 0.9528
9.1612 -7.4799 -2.5000 0.9528
9.7334 -6.7185 -2.5000 0.9528
10.2425 -5.9135 -2.5000 0.9528
10.4723 -5.4963 -2.5000 0.9528
10.6851 -5.0701 -2.5000 0.9528
11.0584 -4.1939 -2.5000 0.9528
11.2183 -3.7452 -2.5000 0.9528
11.4833 -2.8304 -2.5000 0.9528
11.6738 -1.8972 -2.5000 0.9528
11.8174 -0.4762 -2.5000 0.9528
11.8174 0.4762 -2.5000 0.9528
11.7886 0.9517 -2.5000 0.9528
11.6738 1.8972 -2.5000 0.9528
11.5880 2.3657 -2.5000 0.9528
11.4833 2.8304 -2.5000 0.9528
9.6181 5.5530 -2.3476 0.9556
9.3867 5.9358 -2.3476 0.9556
9.1401 6.3089 -2.3476 0.9556
8.6028 7.0239 -2.3476 0.9556
8.2947 7.3484 -2.3424 0.9557
7.6517 7.9662 -2.3349 0.9558
7.3265 8.2699 -2.3354 0.9558
5.1746 8.1829 -2.0465 0.9612
3.9746 8.3763 -1.9598 0.9628
3.6224 8.5021 -1.9535 0.9629
3.1949 8.4242 -1.9045 0.9638
2.4342 8.4038 -1.8494 0.9649
1.7818 8.7277 -1.8829 0.9642
1.6323 10.0436 -2.1509 0.9593
1.0712 8.8221 -1.8785 0.9643
0.3389 8.4096 -1.7791 0.9662
-0.6834 8.4650 -1.7951 0.9659
-1.0790 8.8865 -1.8922 0.9641
-1.5777 9.7083 -2.0791 0.9606
-2.1380 8.6743 -1.8884 0.9641
-2.7207 8.1495 -1.8161 0.9655
-3.0583 8.0642 -1.8231 0.9654
-3.6278 7.6455 -1.7888 0.9660
-3.7215 7.0907 -1.6927 0.9678
-4.6126 7.9893 -1.9500 0.9630
-4.9521 7.8311 -1.9585 0.9628
-5.3574 7.7615 -1.9935 0.9622
-6.8658 8.4091 -2.2947 0.9566
-7.5969 7.9092 -2.3181 0.9562
-7.9079 7.5957 -2.3178 0.9562
-9.1400 6.3089 -2.3476 0.9556
-9.3867 5.9358 -2.3476 0.9556
-10.5344 3.5169 -2.3476 0.9556
-10.6675 3.0899 -2.3476 0.9556
-11.5879 2.3657 -2.5000 0.9528
-11.7407 1.4256 -2.5000 0.9528
-11.7886 0.9517 -2.5000 0.9528
-10.6027 -0.8559 -2.5000 0.9572
-10.5596 -1.2822 -2.5000 0.9572
-10.2172 -2.9595 -2.5000 0.9572
-10.0898 -3.3685 -2.5000 0.9572
-9.7860 -4.1694 -2.5000 0.9572
-9.2121 -5.3186 -2.5000 0.9572
-8.9904 -5.6852 -2.5000 0.9572
-8.7542 -6.0426 -2.5000 0.9572
-8.2396 -6.7274 -2.5000 0.9572
-7.9620 -7.0538 -2.5000 0.9572
-7.0538 -7.9621 -2.5000 0.9572
-6.7274 -8.2396 -2.5000 0.9572
-6.0426 -8.7542 -2.5000 0.9572
-5.6852 -8.9904 -2.5000 0.9572
-4.5601 -9.6102 -2.5000 0.9572
-3.7720 -9.9459 -2.5000 0.9572
-3.3685 -10.0898 -2.5000 0.9572
-2.9595 -10.2172 -2.5000 0.9572
-1.7064 -10.4994 -2.5000 0.9572
-0.8560 -10.6027 -2.5000 0.9572
-0.4283 -10.6286 -2.5000 0.9572
0.0000 -10.6372 -2.5000 0.9572
0.4284 -10.6285 -2.5000 0.9572
1.2820 -10.5597 -2.5000 0.9572
1.7061 -10.4995 -2.5000 0.9572
2.1277 -10.4222 -2.5000 0.9572
2.5459 -10.3281 -2.5000 0.9572
2.9595 -10.2172 -2.5000 0.9572
3.3685 -10.0897 -2.5000 0.9572
3.7720 -9.9459 -2.5000 0.9572
4.5600 -9.6102 -2.5000 0.9572
6.3902 -8.5038 -2.5000 0.9572
6.7275 -8.2396 -2.5000 0.9572
7.0538 -7.9620 -2.5000 0.9572
7.9621 -7.0538 -2.5000 0.9572
8.7542 -6.0426 -2.5000 0.9572
8.9905 -5.6852 -2.5000 0.9572
9.2121 -5.3186 -2.5000 0.9572
9.4188 -4.9433 -2.5000 0.9572
9.6102 -4.5601 -2.5000 0.9572
9.9460 -3.7720 -2.5000 0.9572
10.2172 -2.9595 -2.5000 0.9572
10.3281 -2.5456 -2.5000 0.9572
10.4222 -2.1277 -2.5000 0.9572
10.4995 -1.7063 -2.5000 0.9572
10.6286 0.4283 -2.5000 0.9572
10.6027 0.8559 -2.5000 0.9572
10.5596 1.2822 -2.5000 0.9572
10.4222 2.1277 -2.5000 0.9572
10.3281 2.5457 -2.5000 0.9572
9.3396 3.5421 -2.3476 0.9598
9.1895 3.9153 -2.3476 0.9598
9.0243 4.2821 -2.3476 0.9598
8.8446 4.6420 -2.3476 0.9598
8.6505 4.9944 -2.3476 0.9598
8.4424 5.3386 -2.3476 0.9598
8.2206 5.6743 -2.3476 0.9598
6.5843 7.4321 -2.3336 0.9600
6.2784 7.6897 -2.3331 0.9600
5.6397 8.1705 -2.3333 0.9600
4.9652 8.5999 -2.3338 0.9600
3.9556 8.3362 -2.1686 0.9628
3.1453 9.4213 -2.3343 0.9600
2.7629 9.5387 -2.3340 0.9600
2.3761 9.6400 -2.3334 0.9600
1.5919 9.7952 -2.3323 0.9600
0.6821 8.4488 -1.9921 0.9658
0.3389 8.4096 -1.9781 0.9660
-1.0798 8.8928 -2.1054 0.9639
-1.9798 9.6977 -2.3262 0.9601
-2.1379 8.6739 -2.0996 0.9640
-2.6350 7.8929 -1.9556 0.9664
-2.9903 7.8847 -1.9819 0.9659
-3.3558 7.8764 -2.0122 0.9654
-3.7260 7.0993 -1.8843 0.9676
-4.4475 7.7033 -2.0905 0.9641
-4.8366 7.6485 -2.1268 0.9635
-5.2701 7.6350 -2.1804 0.9626
-5.3377 7.1032 -2.0882 0.9641
-6.5440 7.3866 -2.3193 0.9603
-7.2038 6.9193 -2.3475 0.9598
-7.4767 6.6238 -2.3476 0.9598
-7.9854 6.0007 -2.3476 0.9598
-8.2206 5.6743 -2.3476 0.9598
-6.0072 3.4683 -1.6303 0.9719
-9.1894 3.9153 -2.3476 0.9598
-9.3396 3.5421 -2.3476 0.9598
-9.5944 2.7791 -2.3476 0.9598
-10.4994 1.7063 -2.5000 0.9572
-10.5596 1.2822 -2.5000 0.9572
-10.6286 0.4283 -2.5000 0.9572
-9.5305 -1.5488 -2.5000 0.9609
-9.4604 -1.9313 -2.5000 0.9609
-9.1586 -3.0576 -2.5000 0.9609
-9.0281 -3.4239 -2.5000 0.9609
-8.7233 -4.1392 -2.5000 0.9609
-8.5495 -4.4871 -2.5000 0.9609
-7.9463 -5.4850 -2.5000 0.9609
-7.7190 -5.8005 -2.5000 0.9609
-7.2272 -6.4028 -2.5000 0.9609
-6.6886 -6.9636 -2.5000 0.9609
-6.1066 -7.4792 -2.5000 0.9609
-5.8004 -7.7190 -2.5000 0.9609
-5.4849 -7.9463 -2.5000 0.9609
-5.1605 -8.1607 -2.5000 0.9609
-4.4871 -8.5495 -2.5000 0.9609
-3.0576 -9.1586 -2.5000 0.9609
-2.6863 -9.2743 -2.5000 0.9609
-1.9314 -9.4604 -2.5000 0.9609
-0.7769 -9.6242 -2.5000 0.9609
-0.3888 -9.6477 -2.5000 0.9609
1.5489 -9.5305 -2.5000 0.9609
1.9313 -9.4604 -2.5000 0.9609
2.3107 -9.3749 -2.5000 0.9609
2.6863 -9.2743 -2.5000 0.9609
4.1393 -8.7233 -2.5000 0.9609
5.8005 -7.7190 -2.5000 0.9609
6.4028 -7.2272 -2.5000 0.9609
6.6886 -6.9636 -2.5000 0.9609
6.9636 -6.6886 -2.5000 0.9609
7.2273 -6.4028 -2.5000 0.9609
8.3619 -4.8278 -2.5000 0.9609
8.5495 -4.4871 -2.5000 0.9609
8.7233 -4.1392 -2.5000 0.9609
9.2743 -2.6863 -2.5000 0.9609
9.3750 -2.3107 -2.5000 0.9609
9.4604 -1.9313 -2.5000 0.9609
9.6242 -0.7769 -2.5000 0.9609
9.6555 0.0000 -2.5000 0.9609
9.5851 1.1639 -2.5000 0.9609
9.5305 1.5489 -2.5000 0.9609
9.4604 1.9314 -2.5000 0.9609
9.1586 3.0576 -2.5000 0.9609
8.4777 3.2152 -2.3476 0.9632
8.3414 3.5539 -2.3476 0.9632
8.1915 3.8869 -2.3476 0.9632
8.0284 4.2136 -2.3476 0.9632
7.8522 4.5334 -2.3476 0.9632
7.6633 4.8460 -2.3476 0.9632
7.4619 5.1506 -2.3476 0.9632
7.2485 5.4469 -2.3476 0.9632
7.0233 5.7343 -2.3476 0.9632
6.7867 6.0125 -2.3476 0.9632
6.5391 6.2809 -2.3476 0.9632
6.2809 6.5391 -2.3476 0.9632
6.0125 6.7867 -2.3476 0.9632
4.5017 7.7972 -2.3312 0.9635
3.8599 8.1345 -2.3312 0.9635
1.4441 8.8858 -2.3309 0.9635
1.0485 8.6353 -2.2522 0.9647
0.6821 8.4488 -2.1947 0.9656
0.3349 8.3093 -2.1532 0.9662
-0.3333 8.2716 -2.1434 0.9664
-1.0534 8.6755 -2.2627 0.9645
-1.4421 8.8738 -2.3277 0.9635
-2.1377 8.6732 -2.3128 0.9638
-2.1020 7.2571 -1.9562 0.9693
-2.5733 7.7081 -2.1041 0.9670
-3.2773 7.6921 -2.1648 0.9660
-3.6281 7.6461 -2.1913 0.9656
-4.3264 7.4936 -2.2404 0.9649
-4.7308 7.4811 -2.2918 0.9641
-5.3374 7.1028 -2.3004 0.9640
-5.7267 7.0140 -2.3445 0.9633
-6.2809 6.5391 -2.3476 0.9632
-6.5391 6.2809 -2.3476 0.9632
-6.7867 6.0125 -2.3476 0.9632
-7.0233 5.7343 -2.3476 0.9632
-7.2485 5.4469 -2.3476 0.9632
-7.4619 5.1506 -2.3476 0.9632
-8.0283 4.2136 -2.3476 0.9632
-8.1915 3.8869 -2.3476 0.9632
-8.3414 3.5539 -2.3476 0.9632
-8.4777 3.2152 -2.3476 0.9632
-8.6003 2.8712 -2.3476 0.9632
-8.9461 2.5913 -2.4115 0.9622
-9.3749 2.3107 -2.5000 0.9609
-9.5851 1.1638 -2.5000 0.9609
-9.6477 0.3888 -2.5000 0.9609
-8.8310 0.0000 -2.5000 0.9640
-8.7166 -1.4166 -2.5000 0.9640
-8.5744 -2.1134 -2.5000 0.9640
-8.4823 -2.4569 -2.5000 0.9640
-8.2571 -3.1315 -2.5000 0.9640
-7.9783 -3.7858 -2.5000 0.9640
-7.6478 -4.4155 -2.5000 0.9640
-7.4638 -4.7198 -2.5000 0.9640
-7.2677 -5.0166 -2.5000 0.9640
-6.6101 -5.8560 -2.5000 0.9640
-5.5851 -6.8405 -2.5000 0.9640
-5.3051 -7.0598 -2.5000 0.9640
-5.0166 -7.2677 -2.5000 0.9640
-4.7198 -7.4638 -2.5000 0.9640
-4.4155 -7.6478 -2.5000 0.9640
-3.4614 -8.1243 -2.5000 0.9640
-3.1315 -8.2571 -2.5000 0.9640
-2.7965 -8.3765 -2.5000 0.9640
-2.1134 -8.5743 -2.5000 0.9640
-1.4165 -8.7166 -2.5000 0.9640
-1.0644 -8.7666 -2.5000 0.9640
-0.7106 -8.8023 -2.5000 0.9640
0.0000 -8.8310 -2.5000 0.9640
1.0645 -8.7666 -2.5000 0.9640
1.4166 -8.7166 -2.5000 0.9640
1.7664 -8.6525 -2.5000 0.9640
2.4569 -8.4823 -2.5000 0.9640
2.7965 -8.3765 -2.5000 0.9640
3.1315 -8.2571 -2.5000 0.9640
3.7858 -7.9783 -2.5000 0.9640
4.1040 -7.8194 -2.5000 0.9640
4.7199 -7.4638 -2.5000 0.9640
5.0166 -7.2677 -2.5000 0.9640
5.8560 -6.6101 -2.5000 0.9640
6.3689 -6.1174 -2.5000 0.9640
6.8405 -5.5851 -2.5000 0.9640
7.0599 -5.3051 -2.5000 0.9640
7.4638 -4.7199 -2.5000 0.9640
7.6479 -4.4155 -2.5000 0.9640
8.1243 -3.4614 -2.5000 0.9640
8.3765 -2.7965 -2.5000 0.9640
8.4823 -2.4569 -2.5000 0.9640
8.5744 -2.1134 -2.5000 0.9640
8.6525 -1.7664 -2.5000 0.9640
8.7166 -1.4166 -2.5000 0.9640
8.7666 -1.0645 -2.5000 0.9640
8.8023 -0.7106 -2.5000 0.9640
8.8238 -0.3556 -2.5000 0.9640
8.8024 0.7106 -2.5000 0.9640
8.7666 1.0645 -2.5000 0.9640
8.7166 1.4166 -2.5000 0.9640
8.6525 1.7664 -2.5000 0.9640
8.5743 2.1134 -2.5000 0.9640
8.4823 2.4569 -2.5000 0.9640
8.0424 3.0501 -2.4350 0.9649
7.6291 3.2504 -2.3476 0.9661
7.4920 3.5550 -2.3476 0.9661
7.0089 4.4321 -2.3476 0.9661
6.8247 4.7108 -2.3476 0.9661
6.6295 4.9817 -2.3476 0.9661
6.4235 5.2446 -2.3476 0.9661
5.9807 5.7445 -2.3476 0.9661
5.2447 6.4235 -2.3476 0.9661
4.7108 6.8247 -2.3476 0.9661
4.4321 7.0089 -2.3476 0.9661
4.1463 7.1816 -2.3476 0.9661
3.5287 7.4366 -2.3302 0.9664
3.2259 7.5714 -2.3298 0.9664
2.9179 7.6939 -2.3295 0.9664
2.6054 7.8039 -2.3291 0.9664
1.3194 8.1185 -2.3284 0.9664
0.9913 8.1643 -2.3282 0.9664
0.6617 8.1967 -2.3280 0.9664
0.3311 8.2156 -2.3277 0.9664
-0.3310 8.2130 -2.3269 0.9664
-0.9904 8.1566 -2.3260 0.9664
-1.6428 8.0469 -2.3250 0.9664
-1.9650 7.9723 -2.3244 0.9664
-2.1023 7.2581 -2.1392 0.9691
-2.5168 7.5388 -2.2500 0.9675
-2.8561 7.5311 -2.2802 0.9671
-3.2053 7.5231 -2.3150 0.9666
-3.7352 7.1168 -2.2753 0.9671
-5.2446 6.4235 -2.3476 0.9661
-5.7445 5.9807 -2.3476 0.9661
-5.9806 5.7445 -2.3476 0.9661
-6.2071 5.4990 -2.3476 0.9661
-6.4235 5.2446 -2.3476 0.9661
-6.6295 4.9817 -2.3476 0.9661
-6.8247 4.7108 -2.3476 0.9661
-6.0072 3.4683 -1.9637 0.9716
-7.3427 3.8538 -2.3476 0.9661
-7.4920 3.5550 -2.3476 0.9661
-7.7537 2.9406 -2.3476 0.9661
-7.8946 2.6356 -2.3562 0.9660
-8.5743 2.1134 -2.5000 0.9640
-8.6525 1.7664 -2.5000 0.9640
-8.7166 1.4166 -2.5000 0.9640
-8.1279 0.0000 -2.5000 0.9666
-8.1016 -0.6540 -2.5000 0.9666
-8.0227 -1.3038 -2.5000 0.9666
-7.9637 -1.6258 -2.5000 0.9666
-7.8918 -1.9451 -2.5000 0.9666
-7.7096 -2.5739 -2.5000 0.9666
-7.4775 -3.1859 -2.5000 0.9666
-7.3432 -3.4844 -2.5000 0.9666
-7.0390 -4.0640 -2.5000 0.9666
-6.8696 -4.3441 -2.5000 0.9666
-5.8619 -5.6304 -2.5000 0.9666
-5.6304 -5.8619 -2.5000 0.9666
-5.3898 -6.0839 -2.5000 0.9666
-5.1405 -6.2959 -2.5000 0.9666
-4.6172 -6.6892 -2.5000 0.9666
-4.3441 -6.8697 -2.5000 0.9666
-4.0640 -7.0390 -2.5000 0.9666
-3.1859 -7.4775 -2.5000 0.9666
-1.9452 -7.8918 -2.5000 0.9666
-1.3038 -8.0227 -2.5000 0.9666
-0.9797 -8.0687 -2.5000 0.9666
-0.3273 -8.1214 -2.5000 0.9666
0.0000 -8.1279 -2.5000 0.9666
1.3038 -8.0227 -2.5000 0.9666
1.6258 -7.9637 -2.5000 0.9666
1.9452 -7.8918 -2.5000 0.9666
2.8822 -7.5998 -2.5000 0.9666
3.1859 -7.4775 -2.5000 0.9666
3.7772 -7.1969 -2.5000 0.9666
4.0640 -7.0390 -2.5000 0.9666
5.6304 -5.8619 -2.5000 0.9666
5.8619 -5.6304 -2.5000 0.9666
7.0390 -4.0640 -2.5000 0.9666
7.1970 -3.7772 -2.5000 0.9666
7.5998 -2.8822 -2.5000 0.9666
7.7097 -2.5738 -2.5000 0.9666
7.8070 -2.2613 -2.5000 0.9666
7.8918 -1.9451 -2.5000 0.9666
7.9637 -1.6258 -2.5000 0.9666
8.0687 -0.9797 -2.5000 0.9666
8.1214 -0.3273 -2.5000 0.9666
8.1214 0.3273 -2.5000 0.9666
8.1016 0.6540 -2.5000 0.9666
8.0227 1.3038 -2.5000 0.9666
7.8071 2.2613 -2.5000 0.9666
7.7097 2.5739 -2.5000 0.9666
7.5998 2.8822 -2.5000 0.9666
7.1232 3.0349 -2.3815 0.9681
6.8956 3.2720 -2.3476 0.9686
5.7130 5.0613 -2.3476 0.9686
5.5046 5.2872 -2.3476 0.9686
5.0613 5.7130 -2.3476 0.9686
4.8271 5.9121 -2.3476 0.9686
4.5852 6.1017 -2.3476 0.9686
4.3357 6.2814 -2.3476 0.9686
3.8162 6.6099 -2.3476 0.9686
3.5470 6.7582 -2.3476 0.9686
3.2720 6.8956 -2.3476 0.9686
1.2140 7.4698 -2.3277 0.9688
0.9121 7.5115 -2.3274 0.9688
0.3046 7.5584 -2.3267 0.9688
-1.5118 7.4055 -2.3248 0.9689
-2.6988 7.1162 -2.3409 0.9687
-2.9916 7.0216 -2.3475 0.9686
-3.8162 6.6099 -2.3476 0.9686
-4.5851 6.1017 -2.3476 0.9686
-4.8271 5.9122 -2.3476 0.9686
-5.0612 5.7130 -2.3476 0.9686
-5.2872 5.5046 -2.3476 0.9686
-5.5046 5.2872 -2.3476 0.9686
-5.9121 4.8271 -2.3476 0.9686
-6.1017 4.5852 -2.3476 0.9686
-6.2814 4.3357 -2.3476 0.9686
-6.7582 3.5470 -2.3476 0.9686
-6.8955 3.2720 -2.3476 0.9686
-7.1365 2.7065 -2.3476 0.9686
-7.7097 2.5739 -2.5000 0.9666
-8.0227 1.3038 -2.5000 0.9666
-8.1016 0.6540 -2.5000 0.9666
-8.1214 0.3273 -2.5000 0.9666
-7.5209 0.0000 -2.5000 0.9688
-7.4660 -0.9065 -2.5000 0.9688
-7.4235 -1.2064 -2.5000 0.9688
-7.3690 -1.5044 -2.5000 0.9688
-7.1338 -2.3816 -2.5000 0.9688
-7.0321 -2.6669 -2.5000 0.9688
-6.7947 -3.2242 -2.5000 0.9688
-6.5133 -3.7604 -2.5000 0.9688
-6.3566 -4.0197 -2.5000 0.9688
-6.1896 -4.2724 -2.5000 0.9688
-6.0125 -4.5181 -2.5000 0.9688
-5.6295 -4.9873 -2.5000 0.9688
-5.4241 -5.2099 -2.5000 0.9688
-4.0196 -6.3566 -2.5000 0.9688
-3.7604 -6.5133 -2.5000 0.9688
-2.9479 -6.9191 -2.5000 0.9688
-0.9065 -7.4660 -2.5000 0.9688
-0.6052 -7.4965 -2.5000 0.9688
0.3029 -7.5148 -2.5000 0.9688
2.3816 -7.1338 -2.5000 0.9688
3.2242 -6.7947 -2.5000 0.9688
4.5181 -6.0125 -2.5000 0.9688
4.9873 -5.6295 -2.5000 0.9688
5.2099 -5.4241 -2.5000 0.9688
5.4241 -5.2099 -2.5000 0.9688
5.6295 -4.9873 -2.5000 0.9688
6.1896 -4.2723 -2.5000 0.9688
6.5133 -3.7604 -2.5000 0.9688
6.6594 -3.4951 -2.5000 0.9688
6.7948 -3.2241 -2.5000 0.9688
6.9191 -2.9479 -2.5000 0.9688
7.0322 -2.6669 -2.5000 0.9688
7.3024 -1.7999 -2.5000 0.9688
7.4965 -0.6052 -2.5000 0.9688
7.5148 -0.3028 -2.5000 0.9688
7.5209 0.0000 -2.5000 0.9688
7.5148 0.3028 -2.5000 0.9688
7.4661 0.9065 -2.5000 0.9688
7.4235 1.2064 -2.5000 0.9688
7.3023 1.7999 -2.5000 0.9688
7.2239 2.0924 -2.5000 0.9688
6.9191 2.9479 -2.5000 0.9688
6.3876 3.0310 -2.3502 0.9706
6.1162 3.5312 -2.3476 0.9707
5.9691 3.7746 -2.3476 0.9707
5.4706 4.4666 -2.3476 0.9707
5.0934 4.8923 -2.3476 0.9707
4.6833 5.2863 -2.3476 0.9707
4.4666 5.4706 -2.3476 0.9707
4.2427 5.6460 -2.3476 0.9707
3.5312 6.1162 -2.3476 0.9707
2.5044 6.6035 -2.3476 0.9707
2.2364 6.6990 -2.3476 0.9707
1.4127 6.9197 -2.3476 0.9707
0.8513 7.0109 -2.3476 0.9707
-1.4126 6.9197 -2.3476 0.9707
-1.6901 6.8572 -2.3476 0.9707
-1.9649 6.7836 -2.3476 0.9707
-2.2364 6.6990 -2.3476 0.9707
-3.0276 6.3805 -2.3476 0.9707
-4.4666 5.4706 -2.3476 0.9707
-4.8923 5.0934 -2.3476 0.9707
-5.2863 4.6833 -2.3476 0.9707
-5.8122 4.0119 -2.3476 0.9707
-5.9691 3.7746 -2.3476 0.9707
-6.1113 3.2075 -2.2942 0.9713
-7.2239 2.0924 -2.5000 0.9688
-7.3023 1.7999 -2.5000 0.9688
-7.3689 1.5044 -2.5000 0.9688
-7.4235 1.2065 -2.5000 0.9688
-7.4660 0.9065 -2.5000 0.9688
-6.9909 0.0000 -2.5000 0.9707
-6.9852 -0.2815 -2.5000 0.9707
-6.9682 -0.5625 -2.5000 0.9707
-6.9399 -0.8427 -2.5000 0.9707
-6.8496 -1.3983 -2.5000 0.9707
-6.7878 -1.6730 -2.5000 0.9707
-6.7148 -1.9450 -2.5000 0.9707
-6.6311 -2.2138 -2.5000 0.9707
-6.3159 -2.9969 -2.5000 0.9707
-5.9086 -3.7364 -2.5000 0.9707
-5.2327 -4.6358 -2.5000 0.9707
-5.0418 -4.8428 -2.5000 0.9707
-4.8427 -5.0418 -2.5000 0.9707
-4.6358 -5.2327 -2.5000 0.9707
-4.4213 -5.4152 -2.5000 0.9707
-3.7364 -5.9086 -2.5000 0.9707
-3.4954 -6.0543 -2.5000 0.9707
-3.2488 -6.1901 -2.5000 0.9707
-2.9969 -6.3159 -2.5000 0.9707
-2.7402 -6.4314 -2.5000 0.9707
-1.9450 -6.7149 -2.5000 0.9707
-1.1214 -6.9003 -2.5000 0.9707
-0.8427 -6.9399 -2.5000 0.9707
-0.5625 -6.9682 -2.5000 0.9707
-0.2815 -6.9852 -2.5000 0.9707
0.2815 -6.9852 -2.5000 0.9707
0.5625 -6.9682 -2.5000 0.9707
0.8427 -6.9399 -2.5000 0.9707
1.6730 -6.7877 -2.5000 0.9707
2.2138 -6.6311 -2.5000 0.9707
2.4790 -6.5366 -2.5000 0.9707
2.7402 -6.4314 -2.5000 0.9707
2.9969 -6.3159 -2.5000 0.9707
3.4954 -6.0543 -2.5000 0.9707
3.9713 -5.7534 -2.5000 0.9707
4.1997 -5.5888 -2.5000 0.9707
4.4213 -5.4151 -2.5000 0.9707
4.6358 -5.2327 -2.5000 0.9707
4.8428 -5.0418 -2.5000 0.9707
5.0418 -4.8427 -2.5000 0.9707
5.4152 -4.4213 -2.5000 0.9707
5.7534 -3.9712 -2.5000 0.9707
5.9086 -3.7364 -2.5000 0.9707
6.1901 -3.2488 -2.5000 0.9707
6.4315 -2.7402 -2.5000 0.9707
6.5366 -2.4790 -2.5000 0.9707
6.7877 -1.6730 -2.5000 0.9707
6.8496 -1.3983 -2.5000 0.9707
6.9004 -1.1214 -2.5000 0.9707
6.9399 -0.8427 -2.5000 0.9707
6.9852 -0.2815 -2.5000 0.9707
6.9909 -0.0000 -2.5000 0.9707
6.9852 0.2815 -2.5000 0.9707
6.9682 0.5625 -2.5000 0.9707
6.9004 1.1214 -2.5000 0.9707
6.8496 1.3983 -2.5000 0.9707
6.7877 1.6730 -2.5000 0.9707
6.3044 2.9915 -2.4954 0.9708
5.8128 3.0508 -2.3476 0.9725
5.5484 3.5086 -2.3476 0.9725
5.4026 3.7292 -2.3476 0.9725
5.0851 4.1518 -2.3476 0.9725
4.9138 4.3532 -2.3476 0.9725
4.7345 4.5475 -2.3476 0.9725
4.5475 4.7345 -2.3476 0.9725
4.3532 4.9138 -2.3476 0.9725
3.5086 5.5484 -2.3476 0.9725
3.2823 5.6852 -2.3476 0.9725
3.0508 5.8128 -2.3476 0.9725
2.8142 5.9309 -2.3476 0.9725
2.5732 6.0394 -2.3476 0.9725
2.3279 6.1381 -2.3476 0.9725
1.8264 6.3055 -2.3476 0.9725
0.5283 6.5434 -2.3476 0.9725
0.2644 6.5594 -2.3476 0.9725
-0.5282 6.5434 -2.3476 0.9725
-1.0530 6.4797 -2.3476 0.9725
-1.3131 6.4320 -2.3476 0.9725
-1.5710 6.3740 -2.3476 0.9725
-1.8264 6.3055 -2.3476 0.9725
-2.8142 5.9309 -2.3476 0.9725
-3.0508 5.8128 -2.3476 0.9725
-3.2823 5.6852 -2.3476 0.9725
-3.7292 5.4026 -2.3476 0.9725
-3.9437 5.2481 -2.3476 0.9725
-4.1518 5.0850 -2.3476 0.9725
-4.3532 4.9137 -2.3476 0.9725
-5.0850 4.1518 -2.3476 0.9725
-5.2481 3.9437 -2.3476 0.9725
-5.5484 3.5086 -2.3476 0.9725
-5.6852 3.2824 -2.3476 0.9725
-5.8127 3.0508 -2.3476 0.9725
-5.9309 2.8142 -2.3476 0.9725
-6.5366 2.4790 -2.5000 0.9707
-6.7148 1.9450 -2.5000 0.9707
-6.8496 1.3984 -2.5000 0.9707
-6.9003 1.1214 -2.5000 0.9707
-6.9682 0.5625 -2.5000 0.9707
-6.9852 0.2815 -2.5000 0.9707
-6.4392 -1.0465 -2.5000 0.9724
-6.3341 -1.5612 -2.5000 0.9724
-6.2661 -1.8150 -2.5000 0.9724
-6.1879 -2.0658 -2.5000 0.9724
-6.0997 -2.3133 -2.5000 0.9724
-6.0016 -2.5571 -2.5000 0.9724
-5.7764 -3.0317 -2.5000 0.9724
-5.2153 -3.9190 -2.5000 0.9724
-4.8830 -4.3260 -2.5000 0.9724
-4.5191 -4.7049 -2.5000 0.9724
-4.1259 -5.0533 -2.5000 0.9724
-3.7059 -5.3689 -2.5000 0.9724
-3.4867 -5.5137 -2.5000 0.9724
-3.0317 -5.7764 -2.5000 0.9724
-2.7966 -5.8938 -2.5000 0.9724
-1.8150 -6.2661 -2.5000 0.9724
-1.3049 -6.3918 -2.5000 0.9724
-1.0464 -6.4392 -2.5000 0.9724
-0.2627 -6.5184 -2.5000 0.9724
0.0000 -6.5237 -2.5000 0.9724
0.2627 -6.5184 -2.5000 0.9724
0.5250 -6.5025 -2.5000 0.9724
0.7864 -6.4761 -2.5000 0.9724
1.3049 -6.3918 -2.5000 0.9724
1.8150 -6.2661 -2.5000 0.9724
2.3133 -6.0997 -2.5000 0.9724
2.5571 -6.0016 -2.5000 0.9724
3.2619 -5.6496 -2.5000 0.9724
3.4867 -5.5137 -2.5000 0.9724
3.9191 -5.2153 -2.5000 0.9724
4.1259 -5.0533 -2.5000 0.9724
4.3260 -4.8830 -2.5000 0.9724
4.7049 -4.5191 -2.5000 0.9724
5.0533 -4.1259 -2.5000 0.9724
5.3689 -3.7058 -2.5000 0.9724
6.0017 -2.5570 -2.5000 0.9724
6.0997 -2.3133 -2.5000 0.9724
6.2661 -1.8150 -2.5000 0.9724
6.3341 -1.5612 -2.5000 0.9724
6.4761 -0.7863 -2.5000 0.9724
6.5025 -0.5249 -2.5000 0.9724
6.5025 0.5249 -2.5000 0.9724
6.4761 0.7863 -2.5000 0.9724
6.3918 1.3049 -2.5000 0.9724
6.2661 1.8150 -2.5000 0.9724
6.1879 2.0658 -2.5000 0.9724
6.0016 2.5571 -2.5000 0.9724
5.8938 2.7967 -2.5000 0.9724
5.6804 2.9813 -2.4584 0.9729
5.1776 3.2741 -2.3476 0.9741
4.7452 3.8743 -2.3476 0.9741
4.5854 4.0623 -2.3476 0.9741
4.2436 4.4181 -2.3476 0.9741
4.0623 4.5854 -2.3476 0.9741
3.8743 4.7452 -2.3476 0.9741
3.6801 4.8974 -2.3476 0.9741
3.4800 5.0416 -2.3476 0.9741
2.8469 5.4243 -2.3476 0.9741
2.4012 5.6358 -2.3476 0.9741
2.1723 5.7279 -2.3476 0.9741
1.4661 5.9480 -2.3476 0.9741
1.2254 6.0022 -2.3476 0.9741
0.9827 6.0466 -2.3476 0.9741
0.7384 6.0813 -2.3476 0.9741
0.4930 6.1061 -2.3476 0.9741
0.2467 6.1210 -2.3476 0.9741
-0.2467 6.1210 -2.3476 0.9741
-0.4929 6.1061 -2.3476 0.9741
-0.7384 6.0813 -2.3476 0.9741
-0.9827 6.0467 -2.3476 0.9741
-1.4660 5.9480 -2.3476 0.9741
-1.9399 5.8107 -2.3476 0.9741
-2.1723 5.7279 -2.3476 0.9741
-2.8469 5.4243 -2.3476 0.9741
-3.0630 5.3053 -2.3476 0.9741
-3.4800 5.0416 -2.3476 0.9741
-3.6801 4.8974 -2.3476 0.9741
-3.8743 4.7452 -2.3476 0.9741
-4.4181 4.2436 -2.3476 0.9741
-4.7452 3.8743 -2.3476 0.9741
-5.6551 2.6834 -2.3987 0.9735
-6.0016 2.5570 -2.5000 0.9724
-6.0997 2.3133 -2.5000 0.9724
-6.1879 2.0658 -2.5000 0.9724
-6.3341 1.5612 -2.5000 0.9724
-6.3918 1.3049 -2.5000 0.9724
-6.4392 1.0465 -2.5000 0.9724
-3.5921 0.4362 -1.3867 0.9846
-2.8096 -0.2268 -1.1536 0.9879
-2.9322 -0.3560 -1.2089 0.9873
-3.0246 -0.4916 -1.2541 0.9868
-3.0070 -0.6139 -1.2561 0.9868
-5.9309 -1.4618 -2.5000 0.9739
-5.6195 -2.3942 -2.5000 0.9739
-5.4086 -2.8387 -2.5000 0.9739
-5.2900 -3.0542 -2.5000 0.9739
-5.1627 -3.2647 -2.5000 0.9739
-5.0270 -3.4699 -2.5000 0.9739
-4.7315 -3.8632 -2.5000 0.9739
-4.4053 -4.2314 -2.5000 0.9739
-4.0506 -4.5721 -2.5000 0.9739
-3.6695 -4.8833 -2.5000 0.9739
-3.2648 -5.1627 -2.5000 0.9739
-3.0542 -5.2900 -2.5000 0.9739
-2.6186 -5.5186 -2.5000 0.9739
-2.1660 -5.7114 -2.5000 0.9739
-1.9343 -5.7940 -2.5000 0.9739
-1.4618 -5.9308 -2.5000 0.9739
-1.2218 -5.9849 -2.5000 0.9739
-0.4915 -6.0885 -2.5000 0.9739
0.0000 -6.1083 -2.5000 0.9739
0.2460 -6.1034 -2.5000 0.9739
0.4915 -6.0885 -2.5000 0.9739
0.7363 -6.0638 -2.5000 0.9739
0.9799 -6.0292 -2.5000 0.9739
1.4618 -5.9308 -2.5000 0.9739
2.1660 -5.7114 -2.5000 0.9739
2.3943 -5.6195 -2.5000 0.9739
2.6186 -5.5186 -2.5000 0.9739
2.8387 -5.4087 -2.5000 0.9739
3.2647 -5.1627 -2.5000 0.9739
3.6695 -4.8833 -2.5000 0.9739
4.2314 -4.4053 -2.5000 0.9739
4.4054 -4.2314 -2.5000 0.9739
4.8833 -3.6695 -2.5000 0.9739
5.2900 -3.0542 -2.5000 0.9739
5.4087 -2.8387 -2.5000 0.9739
5.6196 -2.3942 -2.5000 0.9739
5.7114 -2.1660 -2.5000 0.9739
5.7940 -1.9343 -2.5000 0.9739
5.8672 -1.6994 -2.5000 0.9739
5.9308 -1.4618 -2.5000 0.9739
6.0292 -0.9798 -2.5000 0.9739
6.0638 -0.7363 -2.5000 0.9739
6.1083 0.0000 -2.5000 0.9739
6.0885 0.4915 -2.5000 0.9739
6.0638 0.7363 -2.5000 0.9739
5.9849 1.2218 -2.5000 0.9739
5.7940 1.9343 -2.5000 0.9739
5.7114 2.1660 -2.5000 0.9739
5.6196 2.3943 -2.5000 0.9739
5.5186 2.6186 -2.5000 0.9739
5.1470 2.9716 -2.4324 0.9746
4.8480 3.0657 -2.3476 0.9755
4.5856 3.4458 -2.3476 0.9755
4.4431 3.6277 -2.3476 0.9755
4.2934 3.8036 -2.3476 0.9755
4.1368 3.9734 -2.3476 0.9755
3.6277 4.4431 -2.3476 0.9755
3.2584 4.7206 -2.3476 0.9755
3.0657 4.8480 -2.3476 0.9755
2.4590 5.1822 -2.3476 0.9755
2.2483 5.2770 -2.3476 0.9755
1.8164 5.4408 -2.3476 0.9755
1.3727 5.5693 -2.3476 0.9755
0.9201 5.6617 -2.3476 0.9755
0.2310 5.7313 -2.3476 0.9755
0.0000 5.7360 -2.3476 0.9755
-0.2309 5.7313 -2.3476 0.9755
-0.4615 5.7174 -2.3476 0.9755
-0.6914 5.6941 -2.3476 0.9755
-0.9201 5.6617 -2.3476 0.9755
-1.1473 5.6200 -2.3476 0.9755
-1.3727 5.5693 -2.3476 0.9755
-1.5958 5.5095 -2.3476 0.9755
-1.8164 5.4408 -2.3476 0.9755
-2.0340 5.3632 -2.3476 0.9755
-2.4589 5.1822 -2.3476 0.9755
-2.8680 4.9675 -2.3476 0.9755
-3.0657 4.8480 -2.3476 0.9755
-3.4458 4.5856 -2.3476 0.9755
-3.8036 4.2934 -2.3476 0.9755
-4.1368 3.9734 -2.3476 0.9755
-4.5856 3.4458 -2.3476 0.9755
-4.8479 3.0657 -2.3476 0.9755
-5.1461 2.7009 -2.3787 0.9752
-5.5186 2.6186 -2.5000 0.9739
-5.6195 2.3943 -2.5000 0.9739
-5.7114 2.1660 -2.5000 0.9739
-5.7940 1.9343 -2.5000 0.9739
-5.8671 1.6994 -2.5000 0.9739
-5.9308 1.4618 -2.5000 0.9739
-3.0246 0.4915 -1.2541 0.9868
-2.8096 0.2268 -1.1536 0.9879
-2.8203 0.1137 -1.1552 0.9879
-2.3670 -0.0954 -1.0324 0.9897
-2.4207 -0.4942 -1.0767 0.9893
-5.5099 -1.5959 -2.5000 0.9753
-5.3635 -2.0341 -2.5000 0.9753
-5.1825 -2.4591 -2.5000 0.9753
-5.0793 -2.6658 -2.5000 0.9753
-4.7209 -3.2586 -2.5000 0.9753
-4.5858 -3.4461 -2.5000 0.9753
-4.4434 -3.6279 -2.5000 0.9753
-3.9737 -4.1370 -2.5000 0.9753
-3.8039 -4.2937 -2.5000 0.9753
-3.2586 -4.7209 -2.5000 0.9753
-2.8682 -4.9678 -2.5000 0.9753
-2.6658 -5.0793 -2.5000 0.9753
-2.4591 -5.1825 -2.5000 0.9753
-2.0341 -5.3636 -2.5000 0.9753
-1.5959 -5.5098 -2.5000 0.9753
-1.1474 -5.6204 -2.5000 0.9753
-0.6914 -5.6945 -2.5000 0.9753
0.0000 -5.7363 -2.5000 0.9753
0.2310 -5.7317 -2.5000 0.9753
1.3728 -5.5696 -2.5000 0.9753
1.5960 -5.5098 -2.5000 0.9753
1.8165 -5.4411 -2.5000 0.9753
2.2485 -5.2773 -2.5000 0.9753
2.4591 -5.1825 -2.5000 0.9753
3.0659 -4.8483 -2.5000 0.9753
3.9737 -4.1370 -2.5000 0.9753
4.1371 -3.9737 -2.5000 0.9753
4.4434 -3.6279 -2.5000 0.9753
4.5859 -3.4460 -2.5000 0.9753
4.7209 -3.2586 -2.5000 0.9753
4.8483 -3.0659 -2.5000 0.9753
4.9678 -2.8682 -2.5000 0.9753
5.1825 -2.4591 -2.5000 0.9753
5.2773 -2.2484 -2.5000 0.9753
5.5098 -1.5959 -2.5000 0.9753
5.5696 -1.3728 -2.5000 0.9753
5.6621 -0.9201 -2.5000 0.9753
5.7317 -0.2310 -2.5000 0.9753
5.7317 0.2310 -2.5000 0.9753
5.7177 0.4616 -2.5000 0.9753
5.6945 0.6914 -2.5000 0.9753
5.6204 1.1474 -2.5000 0.9753
5.5696 1.3728 -2.5000 0.9753
5.5099 1.5959 -2.5000 0.9753
5.4411 1.8165 -2.5000 0.9753
4.3063 3.2360 -2.3476 0.9768
3.8849 3.7315 -2.3476 0.9768
3.7315 3.8849 -2.3476 0.9768
3.5720 4.0320 -2.3476 0.9768
3.4068 4.1725 -2.3476 0.9768
3.2360 4.3063 -2.3476 0.9768
2.8790 4.5527 -2.3476 0.9768
2.6933 4.6650 -2.3476 0.9768
2.3092 4.8666 -2.3476 0.9768
1.4987 5.1740 -2.3476 0.9768
1.2891 5.2301 -2.3476 0.9768
1.0775 5.2778 -2.3476 0.9768
0.6493 5.3474 -2.3476 0.9768
0.4335 5.3692 -2.3476 0.9768
0.2169 5.3823 -2.3476 0.9768
-0.2169 5.3823 -2.3476 0.9768
-0.4334 5.3692 -2.3476 0.9768
-0.8641 5.3169 -2.3476 0.9768
-1.2891 5.2301 -2.3476 0.9768
-1.9101 5.0366 -2.3476 0.9768
-2.1114 4.9556 -2.3476 0.9768
-2.5033 4.7696 -2.3476 0.9768
-2.6933 4.6650 -2.3476 0.9768
-3.0600 4.4331 -2.3476 0.9768
-3.2360 4.3063 -2.3476 0.9768
-3.4067 4.1725 -2.3476 0.9768
-3.5720 4.0320 -2.3476 0.9768
-3.8849 3.7315 -2.3476 0.9768
-4.0319 3.5720 -2.3476 0.9768
-4.1725 3.4068 -2.3476 0.9768
-4.3063 3.2360 -2.3476 0.9768
-4.5602 2.8837 -2.3514 0.9767
-4.7029 2.7152 -2.3667 0.9766
-5.4411 1.8165 -2.5000 0.9753
-5.5696 1.3728 -2.5000 0.9753
-2.4207 0.4942 -1.0767 0.9893
-2.4021 0.3904 -1.0606 0.9894
-2.3649 0.1909 -1.0340 0.9897
-2.3670 0.0954 -1.0324 0.9897
-2.2079 -0.2681 -1.0295 0.9902
-2.2302 -0.3624 -1.0459 0.9901
-2.2466 -0.4586 -1.0614 0.9899
-5.1876 -1.5026 -2.5000 0.9765
-5.1229 -1.7103 -2.5000 0.9765
-5.0499 -1.9152 -2.5000 0.9765
-4.9687 -2.1170 -2.5000 0.9765
-4.8794 -2.3153 -2.5000 0.9765
-4.6773 -2.7004 -2.5000 0.9765
-4.3177 -3.2445 -2.5000 0.9765
-4.0426 -3.5814 -2.5000 0.9765
-3.7413 -3.8951 -2.5000 0.9765
-3.2445 -4.3177 -2.5000 0.9765
-3.0680 -4.4448 -2.5000 0.9765
-2.8866 -4.5648 -2.5000 0.9765
-2.1170 -4.9687 -2.5000 0.9765
-1.7103 -5.1229 -2.5000 0.9765
-1.5026 -5.1876 -2.5000 0.9765
-1.0803 -5.2917 -2.5000 0.9765
-0.8664 -5.3309 -2.5000 0.9765
-0.4346 -5.3834 -2.5000 0.9765
0.0000 -5.4009 -2.5000 0.9765
0.2175 -5.3965 -2.5000 0.9765
0.8664 -5.3309 -2.5000 0.9765
1.0803 -5.2917 -2.5000 0.9765
1.5026 -5.1876 -2.5000 0.9765
1.9152 -5.0499 -2.5000 0.9765
2.8866 -4.5648 -2.5000 0.9765
3.2445 -4.3177 -2.5000 0.9765
3.4158 -4.1835 -2.5000 0.9765
3.5814 -4.0426 -2.5000 0.9765
3.7413 -3.8951 -2.5000 0.9765
3.8951 -3.7413 -2.5000 0.9765
4.1836 -3.4158 -2.5000 0.9765
4.3177 -3.2445 -2.5000 0.9765
4.4449 -3.0680 -2.5000 0.9765
4.6773 -2.7004 -2.5000 0.9765
4.7823 -2.5099 -2.5000 0.9765
4.8794 -2.3153 -2.5000 0.9765
5.2439 -1.2925 -2.5000 0.9765
5.2918 -1.0803 -2.5000 0.9765
5.3615 -0.6510 -2.5000 0.9765
5.3834 0.4346 -2.5000 0.9765
5.3615 0.6510 -2.5000 0.9765
5.3310 0.8664 -2.5000 0.9765
