ply
format ascii 1.0
element vertex 1570
property float32 x
property float32 y
property float32 z
property float32 I
end_header
35.7065 7.2895 3.9133 0.8636
25.4679 7.3769 2.8472 0.8988
19.5170 8.3154 2.2781 0.9182
18.9597 8.9965 2.2535 0.9190
16.6705 9.6247 2.0671 0.9255
12.2272 7.7321 1.5535 0.9435
11.8452 8.1762 1.5455 0.9437
10.8141 9.5804 1.5514 0.9435
10.8048 10.3781 1.6088 0.9415
10.8048 11.2490 1.6749 0.9392
10.7638 14.3240 1.9240 0.9305
6.2515 9.8859 1.2560 0.9540
5.4192 10.3256 1.2522 0.9542
3.1382 8.2749 0.9503 0.9650
2.7473 8.2293 0.9316 0.9657
1.8522 9.0729 0.9944 0.9634
1.5642 9.6248 1.0471 0.9615
1.1686 9.6247 1.0411 0.9617
0.7739 9.5870 1.0328 0.9620
-0.3863 9.5853 1.0301 0.9621
-0.7770 9.6247 1.0369 0.9619
-1.1755 9.6811 1.0472 0.9615
-1.5734 9.6811 1.0532 0.9613
-1.9698 9.6487 1.0575 0.9612
-3.4016 8.9692 1.0301 0.9621
-3.6094 8.4716 0.9888 0.9636
-3.9466 8.3172 0.9886 0.9636
-4.7775 8.2749 1.0260 0.9623
-5.2612 8.3198 1.0570 0.9612
-32.1043 26.2123 4.4505 0.8464
-23.2489 16.0476 3.0335 0.8926
-39.6003 13.2205 4.4831 0.8454
-31.6519 7.8015 3.5006 0.8771
-32.9445 6.7257 3.6106 0.8735
-20.9263 -18.5391 2.3667 0.8938
-17.7828 -20.0725 2.2701 0.8979
-18.8511 -27.3105 2.8092 0.8753
-16.3944 -43.2284 3.9137 0.8306
-11.1392 -38.4569 3.3893 0.8515
-4.5042 -27.7151 2.3769 0.8934
-1.3617 -33.7906 2.8628 0.8731
-0.0000 -21.2708 1.8006 0.9182
0.9692 -24.0487 2.0374 0.9079
1.4299 -17.7126 1.5043 0.9311
2.9029 -23.9073 2.0387 0.9078
3.0078 -18.5081 1.5873 0.9275
3.8068 -18.6468 1.6111 0.9264
12.7041 -43.8596 3.8654 0.8325
6.6726 -17.5942 1.5929 0.9272
7.5153 -15.8381 1.4840 0.9320
9.8714 -17.0978 1.6713 0.9238
46.7138 -5.6721 3.9835 0.8279
46.6679 -1.8806 3.9538 0.8290
46.6477 0.0000 3.9489 0.8292
19.4547 8.2889 1.7901 0.9186
18.8258 8.9329 1.7640 0.9198
11.9057 8.2179 1.2246 0.9436
11.3703 8.5442 1.2040 0.9445
9.7984 8.0001 1.0708 0.9505
8.7716 8.4253 1.0296 0.9523
10.8048 13.2335 1.4462 0.9337
7.6191 10.1392 1.0736 0.9504
7.3556 10.6564 1.0961 0.9493
6.0065 9.4985 0.9514 0.9559
6.1328 10.6223 1.0383 0.9520
5.1920 9.8925 0.9458 0.9561
3.1281 8.2481 0.7468 0.9652
2.7473 8.2293 0.7344 0.9658
1.5642 9.6248 0.8255 0.9616
0.7739 9.5870 0.8142 0.9621
-0.0000 9.6951 0.8207 0.9618
-0.3863 9.5853 0.8121 0.9622
-0.7770 9.6247 0.8174 0.9620
-3.4016 8.9692 0.8120 0.9622
-4.3430 8.2749 0.7911 0.9632
-4.7775 8.2749 0.8089 0.9624
-5.2612 8.3198 0.8333 0.9613
-30.9849 34.9747 3.9555 0.8290
-22.8917 17.2020 2.4240 0.8914
-23.5217 14.8742 2.3559 0.8943
-22.7880 13.1566 2.2275 0.8998
-23.1030 12.1254 2.2087 0.9006
-30.6335 14.5357 2.8703 0.8727
-31.8939 13.5887 2.9347 0.8701
-35.7743 13.5674 3.2389 0.8576
-44.2055 14.7580 3.9451 0.8294
-31.9482 7.8746 2.7854 0.8763
-32.4456 6.6238 2.8033 0.8755
-41.9258 -24.2059 3.0020 0.8236
-21.1744 -17.2883 1.6951 0.8962
-20.2978 -17.9823 1.6816 0.8970
-18.7058 -19.4747 1.6745 0.8974
-18.9249 -21.3617 1.7697 0.8919
-15.6597 -20.8393 1.6164 0.9008
-15.2116 -22.0377 1.6605 0.8982
-16.5500 -28.6653 2.0525 0.8758
-13.4267 -28.2960 1.9422 0.8820
-12.2509 -28.7539 1.9381 0.8823
-16.1447 -42.5701 2.8232 0.8332
-6.2573 -25.3868 1.6214 0.9005
-4.2627 -20.8800 1.3215 0.9181
0.9571 -23.7495 1.4739 0.9091
1.9658 -24.3509 1.5149 0.9067
3.8214 -23.5143 1.4773 0.9089
9.3696 -38.0139 2.4278 0.8548
5.9269 -17.7532 1.1606 0.9277
6.6637 -17.5707 1.1653 0.9275
7.8400 -18.4011 1.2403 0.9230
8.2183 -17.3197 1.1888 0.9260
9.6231 -16.6676 1.1935 0.9258
11.5975 -16.8018 1.2660 0.9214
19.5301 8.3210 1.3164 0.9184
18.8826 8.9599 1.2961 0.9196
18.3384 9.6247 1.2843 0.9203
11.8990 8.2133 0.8966 0.9437
10.8676 10.4385 0.9344 0.9414
10.9728 11.4239 0.9822 0.9385
10.8676 13.3104 1.0656 0.9335
7.3055 9.7218 0.7541 0.9524
6.8262 10.7948 0.7920 0.9501
5.8440 10.1221 0.7248 0.9542
3.9664 8.3592 0.5737 0.9636
3.5256 8.2749 0.5578 0.9646
2.1648 8.7831 0.5609 0.9644
1.5642 9.6248 0.6047 0.9617
0.7739 9.5870 0.5964 0.9622
0.3901 9.6811 0.6008 0.9619
-0.7770 9.6247 0.5988 0.9620
-1.5734 9.6811 0.6082 0.9615
-1.9764 9.6811 0.6127 0.9612
-3.4016 8.9692 0.5948 0.9623
-3.6094 8.4716 0.5710 0.9638
-3.9466 8.3172 0.5709 0.9638
-4.7775 8.2749 0.5925 0.9624
-23.6709 26.7188 2.2135 0.8667
-24.3037 23.3440 2.0897 0.8737
-30.9472 27.4168 2.5638 0.8473
-32.3625 26.4231 2.5908 0.8458
-30.6371 23.0222 2.3764 0.8576
-21.9355 13.8712 1.6094 0.9012
-24.4030 12.8077 1.7090 0.8954
-31.9585 7.8771 2.0411 0.8764
-42.6410 5.1775 2.6636 0.8419
-19.4574 -18.6891 1.0638 0.8976
-20.5190 -23.1612 1.2201 0.8835
-16.4481 -20.1452 1.0255 0.9011
-15.5317 -20.6689 1.0195 0.9017
-13.7986 -26.2910 1.1708 0.8879
-12.5413 -37.5658 1.5616 0.8534
-6.5466 -26.5603 1.0786 0.8963
-5.4272 -26.5842 1.0699 0.8971
-2.6184 -21.5646 0.8566 0.9167
0.9783 -24.2756 0.9580 0.9073
3.7872 -23.3035 0.9309 0.9098
5.4208 -26.5531 1.0686 0.8972
6.0599 -24.5860 0.9985 0.9036
5.9702 -20.6117 0.8461 0.9177
7.2359 -19.0795 0.8046 0.9216
8.6060 -16.3973 0.7302 0.9285
11.2378 -16.2808 0.7801 0.9239
15.3971 -20.4898 1.0106 0.9025
18.1150 -20.4476 1.0772 0.8964
18.3384 9.6247 0.8166 0.9204
16.6001 9.5841 0.7558 0.9261
13.2756 8.3950 0.6194 0.9391
11.8990 8.2133 0.5701 0.9438
10.8693 9.6293 0.5726 0.9435
10.9728 11.4239 0.6246 0.9386
6.4910 10.2647 0.4789 0.9525
6.1791 10.7026 0.4873 0.9517
3.1382 8.2749 0.3490 0.9652
2.4304 8.3907 0.3445 0.9656
2.1648 8.7831 0.3567 0.9644
1.5642 9.6248 0.3845 0.9617
1.1686 9.6247 0.3823 0.9619
0.7739 9.5870 0.3793 0.9622
-0.0000 9.6811 0.3817 0.9620
-0.3863 9.5853 0.3783 0.9623
-1.5734 9.6811 0.3867 0.9615
-1.9764 9.6811 0.3896 0.9612
-2.7879 9.6248 0.3951 0.9607
-3.6094 8.4716 0.3631 0.9638
-4.3430 8.2749 0.3685 0.9633
-5.2612 8.3198 0.3881 0.9614
-22.7632 25.6943 1.3536 0.8716
-24.2526 25.2496 1.3805 0.8692
-21.6915 17.7105 1.1042 0.8940
-30.6433 14.5404 1.3374 0.8730
-42.6882 14.2515 1.7746 0.8351
-46.9330 13.5943 1.9267 0.8223
-40.9817 -25.9153 0.8191 0.8237
-21.9922 -16.5261 0.4647 0.8958
-21.7701 -17.7747 0.4747 0.8937
-20.3806 -18.0556 0.4599 0.8968
-19.4234 -18.6564 0.4549 0.8979
-21.7387 -24.5379 0.5538 0.8771
-16.6367 -20.3762 0.4443 0.9001
-15.0491 -21.8023 0.4475 0.8994
-21.5353 -41.0321 0.7828 0.8308
-9.4929 -25.0309 0.4522 0.8984
-5.4784 -26.8348 0.4626 0.8962
-3.2839 -27.0454 0.4602 0.8967
-1.8110 -22.4327 0.3802 0.9139
0.9414 -23.3610 0.3949 0.9107
1.9122 -23.6874 0.4014 0.9093
1.9263 -15.8648 0.2700 0.9381
5.0120 -24.5503 0.4233 0.9046
6.2321 -18.6676 0.3324 0.9243
7.3633 -15.5180 0.2901 0.9336
9.7020 -16.8044 0.3278 0.9253
16.1001 -19.7190 0.4300 0.9032
19.5301 8.3210 0.3586 0.9186
11.8990 8.2133 0.2442 0.9438
11.4351 8.5929 0.2416 0.9444
11.0960 9.0596 0.2420 0.9443
10.8878 12.2897 0.2773 0.9364
10.8676 13.3104 0.2903 0.9336
5.8394 10.1142 0.1973 0.9544
5.3962 10.2815 0.1961 0.9546
3.9664 8.3592 0.1563 0.9637
2.4304 8.3907 0.1476 0.9657
1.5642 9.6247 0.1647 0.9617
1.1686 9.6247 0.1638 0.9620
0.7739 9.5869 0.1625 0.9623
0.3901 9.6811 0.1637 0.9620
-0.0000 9.6811 0.1635 0.9620
-0.7770 9.6247 0.1631 0.9621
-1.9764 9.6811 0.1669 0.9612
-2.3723 9.6247 0.1674 0.9611
-2.7879 9.6248 0.1693 0.9607
-3.9466 8.3172 0.1555 0.9638
-31.0570 35.0561 0.7911 0.8291
-32.4045 31.1249 0.7590 0.8355
-28.6662 25.3960 0.6469 0.8579
-32.3760 26.4341 0.7060 0.8460
-30.6636 23.0422 0.6479 0.8577
-11.1530 7.6984 0.2289 0.9472
-32.0699 18.5156 0.6255 0.8623
-32.0135 16.8020 0.6107 0.8653
-32.4710 9.4053 0.5710 0.8735
-41.4507 5.0330 0.7053 0.8462
-40.2815 -21.1413 -0.2561 0.8336
-36.8474 -23.3010 -0.2455 0.8400
-23.1648 -15.9895 -0.1585 0.8935
-21.8204 -16.3970 -0.1537 0.8966
-20.1181 -17.8231 -0.1513 0.8981
-19.1593 -18.4027 -0.1496 0.8992
-17.2489 -19.4700 -0.1464 0.9012
-15.6528 -20.8301 -0.1467 0.9010
-14.4877 -20.9890 -0.1436 0.9030
-22.8649 -43.5654 -0.2770 0.8213
-17.2600 -36.3746 -0.2267 0.8512
-8.5613 -22.5743 -0.1359 0.9079
-7.5909 -22.7375 -0.1350 0.9086
-6.6614 -27.0261 -0.1567 0.8946
-5.2223 -25.5805 -0.1470 0.9008
-4.3384 -26.6951 -0.1523 0.8975
-1.8105 -22.4275 -0.1267 0.9139
0.0000 -23.9701 -0.1350 0.9086
2.0298 -25.1434 -0.1420 0.9040
1.9214 -15.8240 -0.0897 0.9382
6.5311 -40.1878 -0.2292 0.8497
7.8885 -38.6407 -0.2220 0.8541
8.9029 -26.6672 -0.1583 0.8936
7.3522 -17.2562 -0.1056 0.9277
8.8843 -16.9276 -0.1076 0.9264
9.5316 -16.5092 -0.1073 0.9266
11.9665 -18.9235 -0.1261 0.9143
14.3603 -20.8045 -0.1423 0.9038
16.0734 -21.3898 -0.1506 0.8985
16.6354 -20.3747 -0.1481 0.9001
18.9694 9.0011 -0.1182 0.9194
16.6001 9.5841 -0.1079 0.9262
13.2756 8.3950 -0.0884 0.9391
11.8990 8.2133 -0.0814 0.9438
11.4351 8.5929 -0.0805 0.9444
11.0961 9.0596 -0.0807 0.9443
10.8693 9.6294 -0.0818 0.9436
10.0494 9.6526 -0.0785 0.9458
7.2534 9.6526 -0.0680 0.9529
6.6627 9.6526 -0.0660 0.9542
6.1039 9.6526 -0.0643 0.9553
5.0231 9.5708 -0.0609 0.9577
2.7473 8.2293 -0.0488 0.9659
2.1648 8.7831 -0.0509 0.9645
1.5642 9.6248 -0.0549 0.9617
0.7739 9.5869 -0.0542 0.9623
0.3901 9.6811 -0.0546 0.9620
-0.3863 9.5853 -0.0540 0.9624
-1.1755 9.6811 -0.0549 0.9617
-1.5734 9.6811 -0.0552 0.9615
-2.3723 9.6247 -0.0558 0.9611
-3.1431 9.4146 -0.0559 0.9611
-3.6094 8.4716 -0.0518 0.9638
-3.9466 8.3172 -0.0518 0.9638
-5.2612 8.3198 -0.0554 0.9614
-25.0940 26.1256 -0.2040 0.8651
-30.6637 23.0422 -0.2160 0.8578
-11.1530 7.6984 -0.0763 0.9472
-32.0135 16.8020 -0.2036 0.8653
-31.9127 13.5967 -0.1953 0.8704
-30.4038 8.8066 -0.1782 0.8811
-30.5177 6.2302 -0.1754 0.8829
-44.6831 -16.9460 -1.3456 0.8259
-39.4320 -16.8004 -1.2069 0.8424
-31.5061 -16.5357 -1.0019 0.8673
-21.9280 -16.4778 -0.7723 0.8960
-22.2328 -18.1525 -0.8082 0.8915
-20.0930 -17.8009 -0.7559 0.8981
-18.7973 -18.0551 -0.7339 0.9010
-19.3649 -21.8584 -0.8223 0.8897
-17.9429 -23.8776 -0.8410 0.8873
-10.1869 -16.1092 -0.5367 0.9266
-8.5127 -22.4462 -0.6760 0.9084
-5.8103 -23.5731 -0.6836 0.9074
-3.2929 -27.1190 -0.7692 0.8964
-1.8101 -22.4223 -0.6334 0.9139
-1.0084 -25.0234 -0.7052 0.9046
0.0000 -25.2504 -0.7110 0.9039
7.1431 -43.9530 -1.2539 0.8368
4.9059 -19.9041 -0.5772 0.9212
5.5912 -19.3030 -0.5659 0.9227
8.9285 -26.7440 -0.7939 0.8933
11.3276 -26.5868 -0.8137 0.8908
8.7307 -15.1221 -0.4917 0.9325
9.0265 -14.2743 -0.4756 0.9347
15.1527 -20.1645 -0.7102 0.9040
13.9289 -15.7225 -0.5915 0.9194
19.6119 -20.4181 -0.7972 0.8929
24.9568 -20.3766 -0.9072 0.8790
18.9693 9.0011 -0.5912 0.9194
16.1483 8.4753 -0.5135 0.9296
16.0636 9.2743 -0.5223 0.9285
10.9495 8.9400 -0.3980 0.9450
9.2714 9.6526 -0.3769 0.9479
6.1039 9.6526 -0.3216 0.9553
5.5729 9.6526 -0.3138 0.9564
3.9664 8.3592 -0.2605 0.9637
3.5256 8.2749 -0.2533 0.9646
3.1382 8.2749 -0.2492 0.9652
2.7473 8.2293 -0.2443 0.9659
1.8522 9.0730 -0.2607 0.9636
1.5642 9.6248 -0.2746 0.9617
0.7739 9.5869 -0.2708 0.9622
-1.1755 9.6811 -0.2746 0.9617
-1.9764 9.6811 -0.2782 0.9612
-2.3723 9.6247 -0.2791 0.9611
-2.7879 9.6248 -0.2822 0.9607
-3.1431 9.4146 -0.2795 0.9611
-3.9466 8.3172 -0.2592 0.9638
-4.7598 8.2441 -0.2680 0.9626
-31.0570 35.0561 -1.3188 0.8291
-31.3484 30.1105 -1.2239 0.8404
-30.9556 27.4242 -1.1645 0.8475
-32.3760 26.4342 -1.1769 0.8460
-30.4637 22.8919 -1.0730 0.8586
-30.1956 19.0946 -1.0060 0.8668
-30.6434 14.5404 -0.9551 0.8731
-31.9127 13.5967 -0.9768 0.8704
-30.4038 11.5307 -0.9156 0.8780
-30.4038 10.1503 -0.9026 0.8796
-30.4038 8.8066 -0.8913 0.8810
-30.5177 6.2302 -0.8770 0.8828
-37.5261 6.0986 -1.0705 0.8589
-49.1356 -3.9667 -2.5000 0.8208
-48.9361 -5.9419 -2.5000 0.8208
-48.6571 -7.9076 -2.5000 0.8208
-48.2993 -9.8604 -2.5000 0.8208
-47.8630 -11.7972 -2.5000 0.8208
-45.6572 -13.2248 -2.4106 0.8266
-43.3173 -16.4281 -2.3495 0.8306
-39.5733 -16.8606 -2.1815 0.8417
-28.6602 -16.5470 -1.6783 0.8759
-23.8691 -16.4757 -1.4709 0.8903
-20.0227 -16.3480 -1.3109 0.9017
-18.4112 -16.3109 -1.2474 0.9062
-15.5292 -16.1676 -1.1369 0.9141
-14.2982 -16.1393 -1.0935 0.9173
-29.0752 -35.6107 -2.3315 0.8318
-10.1933 -16.1194 -0.9672 0.9265
-8.4328 -22.2354 -1.2060 0.9091
-7.4100 -22.1956 -1.1867 0.9105
-5.7826 -23.4610 -1.2254 0.9078
-5.5187 -45.4501 -2.3219 0.8325
3.6844 -45.6397 -2.3221 0.8324
9.1630 -44.8832 -2.3232 0.8324
8.2815 -28.5909 -1.5096 0.8876
8.9801 -26.8986 -1.4382 0.8926
10.1320 -26.7158 -1.4490 0.8919
12.6249 -26.6064 -1.4935 0.8887
21.3584 -40.6951 -2.3308 0.8319
23.0642 -39.9483 -2.3394 0.8313
10.0555 -15.9015 -0.9541 0.9274
16.1525 -15.5147 -1.1358 0.9142
20.6667 -15.5300 -1.3110 0.9016
43.3992 -22.7776 -2.4857 0.8218
43.4115 -18.4959 -2.3931 0.8278
44.5178 -14.8622 -2.3802 0.8286
46.4440 -13.4527 -2.4522 0.8239
48.9361 -5.9419 -2.5000 0.8208
49.1356 -3.9666 -2.5000 0.8208
49.2555 -1.9849 -2.5000 0.8208
49.2955 0.0000 -2.5000 0.8208
49.2555 1.9849 -2.5000 0.8208
46.1403 3.7248 -2.3476 0.8308
45.6911 7.4255 -2.3476 0.8308
43.9320 14.6667 -2.3489 0.8307
43.2857 16.4161 -2.3478 0.8308
17.7875 8.4403 -0.9985 0.9242
16.0621 8.4300 -0.9200 0.9299
14.5443 8.3972 -0.8517 0.9349
11.8990 8.2133 -0.7332 0.9437
11.4351 8.5929 -0.7254 0.9443
11.0960 9.0596 -0.7265 0.9442
10.3071 9.1313 -0.6983 0.9463
9.5901 9.2114 -0.6744 0.9481
6.6627 9.6526 -0.5948 0.9541
6.1039 9.6526 -0.5792 0.9553
5.5729 9.6526 -0.5653 0.9563
5.0231 9.5708 -0.5482 0.9576
3.4640 8.1304 -0.4482 0.9652
2.1176 8.5915 -0.4488 0.9652
0.3901 9.6811 -0.4914 0.9619
-0.3863 9.5853 -0.4865 0.9623
-1.1755 9.6811 -0.4946 0.9617
-1.5734 9.6811 -0.4974 0.9615
-1.9764 9.6811 -0.5011 0.9612
-2.1582 8.7560 -0.4573 0.9645
-3.1431 9.4147 -0.5034 0.9610
-3.3279 8.7748 -0.4759 0.9631
-3.9466 8.3172 -0.4669 0.9638
-25.8923 37.5114 -2.3115 0.8331
-28.9188 35.4191 -2.3189 0.8327
-30.3408 34.2476 -2.3204 0.8326
-30.9556 27.4242 -2.0974 0.8474
-29.8888 17.2563 -1.7503 0.8709
-32.0130 16.8017 -1.8335 0.8652
-30.6433 14.5404 -1.7201 0.8730
-30.4038 11.5307 -1.6491 0.8779
-37.5261 6.0986 -1.9281 0.8588
-45.9892 5.5841 -2.3494 0.8307
-46.1508 3.7257 -2.3481 0.8307
-49.2555 1.9849 -2.5000 0.8208
-33.9853 -2.7436 -2.5000 0.8722
-33.8473 -4.1098 -2.5000 0.8722
-33.4069 -6.8201 -2.5000 0.8722
-32.7497 -9.4861 -2.5000 0.8722
-32.3412 -10.7971 -2.5000 0.8722
-27.7392 -16.0152 -2.3485 0.8794
-27.0821 -17.1257 -2.3494 0.8794
-20.0227 -16.3480 -1.8953 0.9015
-18.6168 -16.4931 -1.8236 0.9051
-15.6047 -16.2463 -1.6517 0.9136
-21.1986 -23.9283 -2.3440 0.8797
-12.1484 -16.1666 -1.4827 0.9221
-11.1430 -16.1435 -1.4383 0.9243
-10.1500 -16.0510 -1.3925 0.9267
-9.3461 -16.1879 -1.3706 0.9278
-7.6217 -16.0624 -1.3036 0.9312
-6.8358 -16.0443 -1.2787 0.9324
-5.3449 -16.0099 -1.2376 0.9345
-4.6326 -15.9935 -1.2209 0.9354
-3.9381 -15.9775 -1.2066 0.9361
-3.2587 -15.9619 -1.1945 0.9367
-2.5916 -15.9465 -1.1846 0.9373
1.2801 -15.8573 -1.1665 0.9382
3.8936 -15.7971 -1.1929 0.9368
4.5712 -15.7815 -1.2047 0.9362
5.2633 -15.7656 -1.2187 0.9355
5.9729 -15.7492 -1.2350 0.9347
6.7029 -15.7324 -1.2539 0.9337
8.2384 -15.6971 -1.2998 0.9314
15.9686 -27.6584 -2.3417 0.8798
19.2054 -25.5578 -2.3441 0.8797
12.7317 -15.5935 -1.4761 0.9224
13.8965 -15.6859 -1.5365 0.9194
14.9291 -15.5429 -1.5802 0.9172
18.9239 -15.4509 -1.7913 0.9067
26.3759 -18.2060 -2.3499 0.8794
29.5282 -17.0481 -2.5000 0.8722
31.3676 -13.3645 -2.5000 0.8722
32.3413 -10.7971 -2.5000 0.8722
32.7498 -9.4861 -2.5000 0.8722
33.1052 -8.1597 -2.5000 0.8722
33.4069 -6.8201 -2.5000 0.8722
34.0683 -1.3729 -2.5000 0.8722
33.9854 2.7436 -2.5000 0.8722
33.6545 5.4694 -2.5000 0.8722
33.1053 8.1597 -2.5000 0.8722
32.7499 9.4861 -2.5000 0.8722
31.8804 12.0906 -2.5000 0.8722
16.1278 7.6527 -1.3089 0.9309
13.2756 8.3950 -1.1517 0.9389
11.3703 8.5442 -1.0428 0.9446
9.5695 8.4778 -0.9374 0.9500
8.9404 8.5874 -0.9089 0.9515
8.8862 9.2515 -0.9406 0.9499
6.4599 8.5966 -0.7885 0.9578
5.9739 8.6547 -0.7711 0.9587
5.5061 8.7072 -0.7554 0.9595
5.0544 8.7545 -0.7412 0.9603
3.9664 8.3592 -0.6784 0.9636
3.5256 8.2749 -0.6595 0.9646
3.1382 8.2749 -0.6489 0.9651
2.7473 8.2293 -0.6361 0.9658
2.4304 8.3907 -0.6405 0.9656
2.1648 8.7831 -0.6633 0.9644
1.8522 9.0728 -0.6790 0.9635
1.0550 8.6892 -0.6418 0.9655
0.7739 9.5868 -0.7052 0.9622
0.3901 9.6811 -0.7104 0.9619
-0.0000 9.6811 -0.7098 0.9619
-0.3863 9.5853 -0.7034 0.9623
-2.1581 8.7558 -0.6612 0.9645
-5.2612 8.3198 -0.7218 0.9613
-19.0697 27.6272 -2.4614 0.8740
-20.1667 26.8370 -2.4614 0.8740
-24.4644 21.6736 -2.3965 0.8771
-24.4228 19.9409 -2.3118 0.8812
-30.3115 10.1195 -2.3431 0.8797
-30.4038 7.4939 -2.2960 0.8820
-30.5177 6.2302 -2.2838 0.8826
-31.6107 5.1372 -2.3482 0.8795
-31.7862 3.8595 -2.3477 0.8795
-25.8503 -3.1388 -2.5000 0.9006
-25.5139 -5.2087 -2.5000 0.9006
-25.0120 -7.2448 -2.5000 0.9006
-24.3480 -9.2340 -2.5000 0.9006
-23.9564 -10.2069 -2.5000 0.9006
-22.5515 -13.0201 -2.5000 0.9006
-19.5488 -14.6900 -2.3476 0.9064
-18.9422 -15.4658 -2.3477 0.9064
-18.3103 -16.2215 -2.3485 0.9064
-14.3677 -16.2178 -2.0801 0.9166
-12.1484 -16.1666 -1.9414 0.9220
-11.1430 -16.1435 -1.8832 0.9242
-5.3973 -16.1669 -1.6363 0.9338
-6.5079 -22.4679 -2.2457 0.9103
-0.6408 -15.9016 -1.5279 0.9381
-0.0000 -15.8868 -1.5252 0.9382
1.2801 -15.8573 -1.5273 0.9381
1.9179 -15.7956 -1.5276 0.9381
3.8936 -15.7971 -1.5620 0.9367
5.9729 -15.7492 -1.6171 0.9346
6.7029 -15.7324 -1.6418 0.9336
7.4569 -15.7150 -1.6700 0.9325
10.7942 -15.6382 -1.8243 0.9265
11.7350 -15.6165 -1.8754 0.9245
13.9333 -15.7274 -2.0172 0.9190
16.9731 -17.6708 -2.3523 0.9062
17.6371 -16.9407 -2.3478 0.9064
18.3032 -16.2152 -2.3476 0.9064
20.1242 -13.8907 -2.3476 0.9064
22.5514 -13.0201 -2.5000 0.9006
23.5260 -11.1632 -2.5000 0.9006
24.3480 -9.2340 -2.5000 0.9006
25.0120 -7.2448 -2.5000 0.9006
25.7029 -4.1771 -2.5000 0.9006
25.8503 -3.1389 -2.5000 0.9006
10.9037 -0.4394 -1.0477 0.9571
10.6664 -0.0000 -1.0240 0.9580
25.8503 3.1387 -2.5000 0.9006
23.2872 7.7744 -2.3570 0.9061
22.9076 8.6877 -2.3521 0.9062
17.7864 7.5781 -1.8561 0.9253
14.8016 7.0235 -1.5729 0.9363
14.5455 7.6341 -1.5771 0.9361
14.5444 8.3972 -1.6124 0.9347
11.8990 8.2133 -1.3881 0.9436
11.4351 8.5929 -1.3732 0.9441
10.3450 8.4465 -1.2822 0.9477
9.5341 8.4465 -1.2229 0.9501
8.8527 8.5032 -1.1785 0.9519
8.7677 9.1282 -1.2151 0.9504
7.8811 9.6526 -1.1963 0.9512
5.6905 8.2442 -0.9617 0.9605
4.9666 8.6024 -0.9536 0.9609
3.9664 8.3592 -0.8883 0.9635
3.4640 8.1304 -0.8485 0.9651
3.0784 8.1172 -0.8335 0.9657
2.7473 8.2293 -0.8329 0.9657
2.4304 8.3907 -0.8387 0.9655
2.1176 8.5915 -0.8495 0.9651
1.8385 9.0054 -0.8824 0.9637
1.5641 9.6243 -0.9361 0.9616
-0.3863 9.5853 -0.9210 0.9622
-1.1755 9.6811 -0.9363 0.9616
-1.5734 9.6811 -0.9416 0.9614
-2.1970 8.9136 -0.8814 0.9638
-3.6094 8.4716 -0.8841 0.9637
-3.9466 8.3172 -0.8838 0.9637
-4.2748 8.1450 -0.8831 0.9637
-4.6798 8.1057 -0.8986 0.9631
-17.0013 19.1904 -2.4614 0.9021
-17.7602 18.4903 -2.4614 0.9021
-18.4904 17.7602 -2.4614 0.9021
-19.1905 17.0013 -2.4614 0.9021
-19.8595 16.2147 -2.4614 0.9021
-21.0998 14.5641 -2.4614 0.9021
-22.2034 12.8191 -2.4614 0.9021
-22.7015 11.9147 -2.4614 0.9021
-23.1629 10.9909 -2.4614 0.9021
-23.9272 7.9881 -2.4218 0.9036
-24.5398 5.0098 -2.4045 0.9043
-25.2596 4.1051 -2.4569 0.9023
-25.8496 3.1387 -2.4999 0.9007
-25.9341 2.0936 -2.4979 0.9007
-26.0044 1.0479 -2.4986 0.9007
-21.0462 0.0000 -2.5000 0.9187
-21.0292 -0.8475 -2.5000 0.9187
-20.9779 -1.6935 -2.5000 0.9187
-20.6208 -4.2098 -2.5000 0.9187
-20.2152 -5.8554 -2.5000 0.9187
-17.3207 -11.9556 -2.5000 0.9187
-16.1674 -13.2003 -2.4793 0.9194
-14.2533 -13.6904 -2.3476 0.9235
-13.6904 -14.2532 -2.3476 0.9235
-12.4991 -15.3087 -2.3476 0.9235
-10.1444 -16.0421 -2.2546 0.9264
-9.1988 -17.5269 -2.3513 0.9234
-6.0782 -16.0268 -2.0361 0.9333
-5.3449 -16.0099 -2.0049 0.9343
-3.9381 -15.9775 -1.9547 0.9359
-3.2587 -15.9619 -1.9352 0.9365
-2.5916 -15.9465 -1.9191 0.9370
-1.9344 -15.9314 -1.9063 0.9374
-1.2849 -15.9164 -1.8968 0.9377
-0.6408 -15.9016 -1.8904 0.9379
-0.0000 -15.8868 -1.8871 0.9380
0.6396 -15.8721 -1.8869 0.9380
1.9179 -15.7956 -1.8901 0.9379
2.5722 -15.8276 -1.9048 0.9375
4.5712 -15.7815 -1.9517 0.9360
5.9729 -15.7492 -2.0008 0.9344
9.8837 -17.1191 -2.3481 0.9235
10.5642 -16.7060 -2.3479 0.9235
11.2268 -16.2648 -2.3476 0.9235
12.4991 -15.3086 -2.3476 0.9235
13.1054 -14.7929 -2.3476 0.9235
14.2532 -13.6904 -2.3476 0.9235
14.9096 -13.2088 -2.3661 0.9229
16.8252 -12.6433 -2.5000 0.9187
17.7880 -11.2484 -2.5000 0.9187
19.3620 -8.2494 -2.5000 0.9187
19.9630 -6.6646 -2.5000 0.9187
20.2152 -5.8554 -2.5000 0.9187
20.7736 -3.3760 -2.5000 0.9187
10.0070 0.0000 -1.1887 0.9605
20.8927 2.5368 -2.5000 0.9187
18.9829 5.4985 -2.3476 0.9235
18.4613 7.0014 -2.3454 0.9235
16.0613 7.6212 -2.1117 0.9309
14.5444 8.3972 -1.9949 0.9346
13.2756 8.3950 -1.8658 0.9387
11.4351 8.5929 -1.6991 0.9440
10.3450 8.4465 -1.5864 0.9476
8.5515 9.6526 -1.5318 0.9494
6.7641 8.2846 -1.2704 0.9578
4.9330 8.5442 -1.1719 0.9610
5.0231 9.5708 -1.2839 0.9574
3.4880 8.1867 -1.0570 0.9648
3.0972 8.1667 -1.0375 0.9654
2.7473 8.2293 -1.0306 0.9657
0.9562 7.8754 -0.9424 0.9685
0.7738 9.5850 -1.1423 0.9620
0.3870 9.6025 -1.1416 0.9620
-0.3863 9.5853 -1.1395 0.9621
-0.6486 8.0338 -0.9574 0.9681
-1.1573 9.5311 -1.1405 0.9621
-1.5411 9.4825 -1.1412 0.9620
-3.3527 8.8402 -1.1231 0.9626
-11.0561 16.0175 -2.3119 0.9246
-13.1051 16.0508 -2.4614 0.9199
-13.7408 15.5101 -2.4614 0.9199
-14.3541 14.9442 -2.4614 0.9199
-14.9442 14.3541 -2.4614 0.9199
-15.5101 13.7407 -2.4614 0.9199
-17.5134 11.0748 -2.4614 0.9199
-18.3478 9.6296 -2.4614 0.9199
-21.0265 0.8473 -2.4997 0.9187
-17.6298 -0.7105 -2.5000 0.9312
-17.5155 -2.1268 -2.5000 0.9312
-17.4156 -2.8303 -2.5000 0.9312
-16.9475 -4.9089 -2.5000 0.9312
-16.7361 -5.5873 -2.5000 0.9312
-16.4976 -6.2567 -2.5000 0.9312
-15.9406 -7.5639 -2.5000 0.9312
-14.5208 -10.0230 -2.5000 0.9312
-14.1055 -10.5996 -2.5000 0.9312
-12.2225 -12.7250 -2.5000 0.9312
-9.9534 -13.2456 -2.3476 0.9353
-8.2843 -14.3488 -2.3476 0.9353
-7.1028 -14.9689 -2.3476 0.9353
-6.4943 -15.2427 -2.3476 0.9353
-5.8753 -15.4920 -2.3476 0.9353
-4.6102 -15.9162 -2.3479 0.9352
-3.3148 -16.2368 -2.3480 0.9352
-2.6584 -16.3575 -2.3481 0.9352
-1.9976 -16.4516 -2.3481 0.9352
-0.6673 -16.5592 -2.3482 0.9352
0.6673 -16.5589 -2.3481 0.9352
3.3145 -16.2354 -2.3478 0.9352
3.9653 -16.0879 -2.3477 0.9353
5.2467 -15.7159 -2.3476 0.9353
5.8753 -15.4918 -2.3476 0.9353
6.4943 -15.2427 -2.3476 0.9353
8.2843 -14.3488 -2.3476 0.9353
8.8553 -14.0036 -2.3476 0.9353
9.9534 -13.2456 -2.3476 0.9353
10.7786 -13.2015 -2.4148 0.9335
11.6818 -13.1860 -2.4961 0.9313
12.2225 -12.7250 -2.5000 0.9312
12.7251 -12.2225 -2.5000 0.9312
13.6672 -11.1590 -2.5000 0.9312
14.1054 -10.5996 -2.5000 0.9312
14.5208 -10.0230 -2.5000 0.9312
14.9127 -9.4302 -2.5000 0.9312
15.6231 -8.1996 -2.5000 0.9312
15.9406 -7.5639 -2.5000 0.9312
16.2322 -6.9159 -2.5000 0.9312
16.4975 -6.2567 -2.5000 0.9312
16.9475 -4.9089 -2.5000 0.9312
17.2875 -3.5293 -2.5000 0.9312
17.4156 -2.8303 -2.5000 0.9312
9.4987 0.0000 -1.3459 0.9624
16.7298 2.7189 -2.4015 0.9338
16.2337 3.3141 -2.3476 0.9353
16.0871 3.9651 -2.3476 0.9353
15.9144 4.6097 -2.3476 0.9353
15.7158 5.2467 -2.3476 0.9353
15.4918 5.8753 -2.3476 0.9353
15.2427 6.4943 -2.3476 0.9353
14.9402 7.0892 -2.3431 0.9354
14.5450 7.6338 -2.3275 0.9358
11.8990 8.2133 -2.0486 0.9433
8.3980 8.7432 -1.7177 0.9522
7.8940 8.9105 -1.6867 0.9530
5.1935 8.2128 -1.3768 0.9615
3.9664 8.3592 -1.3110 0.9633
2.7473 8.2293 -1.2293 0.9656
1.5641 9.6243 -1.3816 0.9614
0.7182 8.8972 -1.2647 0.9646
0.3592 8.9150 -1.2642 0.9646
-0.6346 7.8603 -1.1173 0.9686
-1.0746 8.8500 -1.2632 0.9646
-3.4016 8.9692 -1.3592 0.9620
-3.6094 8.4716 -1.3047 0.9635
-4.3430 8.2749 -1.3241 0.9629
-4.7775 8.2749 -1.3538 0.9621
-5.2612 8.3198 -1.3948 0.9610
-11.2977 11.7621 -2.3108 0.9362
-11.7556 11.2914 -2.3095 0.9363
-13.4563 10.9867 -2.4614 0.9322
-14.2967 9.8683 -2.4614 0.9322
-14.6825 9.2846 -2.4614 0.9322
-15.6968 7.4482 -2.4617 0.9322
-16.0023 6.8179 -2.4646 0.9321
-16.3349 6.1950 -2.4753 0.9319
-16.6001 5.5419 -2.4797 0.9317
-16.8353 4.8764 -2.4834 0.9316
-17.2785 3.5274 -2.4987 0.9312
-17.4092 2.8292 -2.4991 0.9312
-17.5868 1.4197 -2.5000 0.9312
-17.6298 0.7105 -2.5000 0.9312
-15.1631 -0.6111 -2.5000 0.9403
-15.0648 -1.8292 -2.5000 0.9403
-14.9789 -2.4343 -2.5000 0.9403
-14.8687 -3.0355 -2.5000 0.9403
-14.7344 -3.6317 -2.5000 0.9403
-13.4372 -7.0524 -2.5000 0.9403
-12.8261 -8.1108 -2.5000 0.9403
-11.7550 -9.5976 -2.5000 0.9403
-10.9446 -10.5124 -2.5000 0.9403
-9.5976 -11.7550 -2.5000 0.9403
-8.6206 -12.4891 -2.5000 0.9403
-8.1108 -12.8261 -2.5000 0.9403
-5.6312 -13.2169 -2.3667 0.9434
-3.9647 -13.6877 -2.3476 0.9439
-3.4104 -13.8362 -2.3476 0.9439
-2.2859 -14.0658 -2.3476 0.9439
-1.7177 -14.1464 -2.3476 0.9439
-0.0000 -14.2503 -2.3476 0.9439
1.1467 -14.2041 -2.3476 0.9439
2.2859 -14.0658 -2.3476 0.9439
2.8504 -13.9623 -2.3476 0.9439
3.4103 -13.8362 -2.3476 0.9439
3.9647 -13.6877 -2.3476 0.9439
4.5126 -13.5169 -2.3476 0.9439
5.0532 -13.3243 -2.3476 0.9439
5.6293 -13.2126 -2.3660 0.9434
7.5876 -13.1423 -2.5000 0.9403
8.1107 -12.8261 -2.5000 0.9403
9.5976 -11.7550 -2.5000 0.9403
10.0631 -11.3590 -2.5000 0.9403
10.9445 -10.5124 -2.5000 0.9403
12.1320 -9.1165 -2.5000 0.9403
12.4891 -8.6206 -2.5000 0.9403
12.8261 -8.1107 -2.5000 0.9403
13.9611 -5.9482 -2.5000 0.9403
14.3944 -4.8056 -2.5000 0.9403
14.8687 -3.0355 -2.5000 0.9403
14.9789 -2.4343 -2.5000 0.9403
9.3472 -0.7546 -1.5449 0.9627
9.0947 -0.0000 -1.4983 0.9638
9.1412 0.3684 -1.5071 0.9636
9.3240 0.7527 -1.5410 0.9628
13.8362 3.4103 -2.3476 0.9439
13.5169 4.5126 -2.3476 0.9439
13.3242 5.0532 -2.3476 0.9439
12.8744 6.1090 -2.3476 0.9439
12.6180 6.6224 -2.3476 0.9439
11.9850 7.5789 -2.3360 0.9441
11.6755 8.0590 -2.3371 0.9441
11.3464 8.5263 -2.3381 0.9441
10.3788 8.4741 -2.2073 0.9471
8.2331 7.9080 -1.8806 0.9548
8.3980 8.7432 -1.9972 0.9520
6.8156 8.3476 -1.7753 0.9573
5.1935 8.2128 -1.6008 0.9614
4.9666 8.6024 -1.6364 0.9605
3.9664 8.3592 -1.5242 0.9632
3.1382 8.2749 -1.4579 0.9648
1.8522 9.0728 -1.5255 0.9632
0.9156 7.5406 -1.2514 0.9697
0.6926 8.5796 -1.4180 0.9657
0.3458 8.5810 -1.4148 0.9658
-0.0000 8.5825 -1.4139 0.9658
-0.6211 7.6930 -1.2715 0.9692
-0.9336 7.6888 -1.2760 0.9691
-2.1146 8.5794 -1.4557 0.9648
-2.2157 7.6496 -1.3120 0.9682
-3.1431 9.4147 -1.6351 0.9606
-3.4016 8.9692 -1.5803 0.9619
-4.7775 8.2749 -1.5741 0.9620
-9.3159 10.5154 -2.3143 0.9446
-9.7317 10.1318 -2.3143 0.9446
-10.1291 9.7291 -2.3137 0.9447
-10.5079 9.3091 -2.3127 0.9447
-11.2133 8.4262 -2.3107 0.9447
-11.5389 7.9647 -2.3098 0.9447
-12.9394 7.4706 -2.4614 0.9412
-13.2355 6.9465 -2.4625 0.9412
-14.0990 5.3470 -2.4841 0.9407
-14.7295 3.6305 -2.4992 0.9404
-14.8653 3.0348 -2.4994 0.9403
-15.1631 0.6111 -2.5000 0.9403
-13.2036 -1.6032 -2.5000 0.9473
-13.1283 -2.1336 -2.5000 0.9473
-13.0318 -2.6605 -2.5000 0.9473
-12.7754 -3.7004 -2.5000 0.9473
-12.6161 -4.2119 -2.5000 0.9473
-12.4362 -4.7164 -2.5000 0.9473
-10.6331 -7.9902 -2.5000 0.9473
-9.5924 -9.2136 -2.5000 0.9473
-8.4119 -10.3027 -2.5000 0.9473
-7.9902 -10.6330 -2.5000 0.9473
-7.1087 -11.2415 -2.5000 0.9473
-6.6503 -11.5186 -2.5000 0.9473
-6.1811 -11.7771 -2.5000 0.9473
-5.2127 -12.2362 -2.5000 0.9473
-4.7165 -12.4362 -2.5000 0.9473
-3.7005 -12.7754 -2.5000 0.9473
-3.1831 -12.9141 -2.5000 0.9473
-1.6017 -13.1911 -2.4976 0.9474
-1.0650 -13.1927 -2.4878 0.9476
-0.5317 -13.1935 -2.4819 0.9477
-0.0000 -13.1937 -2.4799 0.9477
2.1335 -13.1283 -2.5000 0.9473
3.7004 -12.7754 -2.5000 0.9473
5.2151 -12.2362 -2.5000 0.9473
5.7018 -12.0164 -2.5000 0.9473
6.6503 -11.5186 -2.5000 0.9473
7.5556 -10.9461 -2.5000 0.9473
7.9902 -10.6330 -2.5000 0.9473
9.5924 -9.2136 -2.5000 0.9473
10.3027 -8.4119 -2.5000 0.9473
10.6330 -7.9902 -2.5000 0.9473
10.9461 -7.5556 -2.5000 0.9473
11.5186 -6.6503 -2.5000 0.9473
11.7771 -6.1811 -2.5000 0.9473
12.2362 -5.2134 -2.5000 0.9473
12.7754 -3.7005 -2.5000 0.9473
12.9141 -3.1830 -2.5000 0.9473
9.1560 -0.7392 -1.7266 0.9633
9.0078 0.0000 -1.6931 0.9640
13.0318 2.6605 -2.5000 0.9473
11.9966 3.4749 -2.3476 0.9504
11.8470 3.9551 -2.3476 0.9504
11.2839 5.3542 -2.3476 0.9504
10.8164 6.2449 -2.3476 0.9504
10.5562 6.6753 -2.3476 0.9504
10.2496 7.0748 -2.3409 0.9506
9.6191 7.8537 -2.3341 0.9507
9.2981 8.2374 -2.3349 0.9507
7.1851 8.1103 -2.0366 0.9569
6.1715 8.2128 -1.9310 0.9590
5.6689 8.2128 -1.8757 0.9602
5.1935 8.2128 -1.8264 0.9612
3.9664 8.3592 -1.7391 0.9630
2.4304 8.3907 -1.6420 0.9651
0.6778 8.3958 -1.5832 0.9663
-0.0000 8.3985 -1.5786 0.9664
-0.5886 7.2903 -1.3748 0.9707
-1.3649 8.3985 -1.5993 0.9660
-2.0694 8.3957 -1.6253 0.9654
-2.1678 7.4842 -1.4646 0.9688
-3.1431 9.4147 -1.8656 0.9604
-3.6094 8.4716 -1.7308 0.9632
-4.7775 8.2749 -1.7960 0.9619
-5.2612 8.3198 -1.8502 0.9607
-6.9983 10.1388 -2.3156 0.9511
-7.3991 9.8463 -2.3150 0.9511
-8.5294 8.8800 -2.3143 0.9511
-9.5376 7.7872 -2.3143 0.9511
-10.4192 6.5887 -2.3171 0.9511
-10.7101 6.1835 -2.3245 0.9509
-11.2281 5.3278 -2.3360 0.9507
-12.1664 5.1836 -2.4857 0.9476
-12.3935 4.7002 -2.4914 0.9475
-12.5976 4.2057 -2.4963 0.9474
-12.7715 3.6993 -2.4992 0.9473
-13.2575 1.0702 -2.5000 0.9473
-11.8174 -0.4762 -2.5000 0.9528
-11.7886 -0.9517 -2.5000 0.9528
-11.7408 -1.4256 -2.5000 0.9528
-11.5880 -2.3657 -2.5000 0.9528
-11.0584 -4.1939 -2.5000 0.9528
-10.8806 -4.6358 -2.5000 0.9528
-10.4723 -5.4963 -2.5000 0.9528
-10.2425 -5.9135 -2.5000 0.9528
-9.7334 -6.7185 -2.5000 0.9528
-9.1612 -7.4799 -2.5000 0.9528
-8.8526 -7.8427 -2.5000 0.9528
-7.1050 -9.4550 -2.5000 0.9528
-6.7185 -9.7334 -2.5000 0.9528
-6.3211 -9.9961 -2.5000 0.9528
-5.0701 -10.6851 -2.5000 0.9528
-4.6358 -10.8806 -2.5000 0.9528
-2.8304 -11.4833 -2.5000 0.9528
-0.9517 -11.7886 -2.5000 0.9528
-0.4762 -11.8174 -2.5000 0.9528
0.4762 -11.8174 -2.5000 0.9528
1.8972 -11.6738 -2.5000 0.9528
2.3657 -11.5880 -2.5000 0.9528
2.8304 -11.4833 -2.5000 0.9528
3.2905 -11.3600 -2.5000 0.9528
3.7452 -11.2183 -2.5000 0.9528
4.1939 -11.0584 -2.5000 0.9528
4.6358 -10.8806 -2.5000 0.9528
5.0703 -10.6851 -2.5000 0.9528
6.7183 -9.7334 -2.5000 0.9528
7.1050 -9.4550 -2.5000 0.9528
8.5296 -8.1928 -2.5000 0.9528
9.4550 -7.1050 -2.5000 0.9528
10.2425 -5.9135 -2.5000 0.9528
10.4722 -5.4963 -2.5000 0.9528
10.6851 -5.0701 -2.5000 0.9528
11.2183 -3.7452 -2.5000 0.9528
11.3600 -3.2905 -2.5000 0.9528
11.5879 -2.3657 -2.5000 0.9528
11.6738 -1.8972 -2.5000 0.9528
11.7407 -1.4256 -2.5000 0.9528
9.0793 -0.7330 -1.9254 0.9634
8.9646 -0.3613 -1.8965 0.9640
11.5879 2.3657 -2.5000 0.9528
10.6675 3.0899 -2.3476 0.9556
10.2173 4.3532 -2.3476 0.9556
9.1400 6.3089 -2.3476 0.9556
8.8786 6.6718 -2.3476 0.9556
7.6427 7.9569 -2.3321 0.9559
7.2300 8.1610 -2.3047 0.9564
6.6319 8.8254 -2.3335 0.9559
5.9011 9.3319 -2.3339 0.9559
5.0231 9.5708 -2.2848 0.9568
3.9664 8.3592 -1.9558 0.9629
3.5256 8.2749 -1.9013 0.9639
3.1281 8.2481 -1.8647 0.9646
2.7473 8.2293 -1.8339 0.9652
2.1648 8.7831 -1.9121 0.9637
0.6623 8.2046 -1.7399 0.9669
-0.0000 8.2073 -1.7349 0.9670
-0.3308 8.2086 -1.7365 0.9670
-0.5771 7.1480 -1.5159 0.9711
-2.0223 8.2046 -1.7862 0.9660
-2.3445 7.0226 -1.5650 0.9702
-3.4016 8.9692 -2.0277 0.9615
-4.3430 8.2749 -1.9754 0.9625
-6.2257 9.0194 -2.3166 0.9562
-6.5823 8.7595 -2.3161 0.9562
-6.9283 8.4855 -2.3156 0.9562
-7.2629 8.1980 -2.3151 0.9562
-8.5292 6.9638 -2.3275 0.9560
-8.8267 6.6328 -2.3339 0.9559
-9.3716 5.9262 -2.3438 0.9557
-9.6098 5.5482 -2.3456 0.9556
-9.8286 5.1584 -2.3463 0.9556
-10.0323 4.7604 -2.3473 0.9556
-10.2170 4.3530 -2.3475 0.9556
-10.3843 3.9382 -2.3476 0.9556
-11.2169 3.7448 -2.4997 0.9528
-11.3597 3.2904 -2.4999 0.9528
-11.4833 2.8304 -2.5000 0.9528
-11.5880 2.3657 -2.5000 0.9528
-11.7408 1.4256 -2.5000 0.9528
-10.6372 0.0000 -2.5000 0.9572
-10.6286 -0.4283 -2.5000 0.9572
-10.6027 -0.8559 -2.5000 0.9572
-10.5596 -1.2822 -2.5000 0.9572
-10.4995 -1.7063 -2.5000 0.9572
-10.3281 -2.5457 -2.5000 0.9572
-10.2172 -2.9595 -2.5000 0.9572
-10.0898 -3.3685 -2.5000 0.9572
-9.7860 -4.1694 -2.5000 0.9572
-9.6102 -4.5601 -2.5000 0.9572
-9.4188 -4.9433 -2.5000 0.9572
-9.2121 -5.3186 -2.5000 0.9572
-8.5038 -6.3902 -2.5000 0.9572
-8.2396 -6.7274 -2.5000 0.9572
-7.9621 -7.0538 -2.5000 0.9572
-7.0538 -7.9621 -2.5000 0.9572
-6.7275 -8.2396 -2.5000 0.9572
-6.3902 -8.5038 -2.5000 0.9572
-6.0426 -8.7542 -2.5000 0.9572
-5.6852 -8.9905 -2.5000 0.9572
-4.9434 -9.4188 -2.5000 0.9572
-4.5601 -9.6102 -2.5000 0.9572
-4.1695 -9.7860 -2.5000 0.9572
-3.3685 -10.0898 -2.5000 0.9572
-2.9595 -10.2172 -2.5000 0.9572
-2.5457 -10.3281 -2.5000 0.9572
-2.1277 -10.4222 -2.5000 0.9572
-0.8560 -10.6027 -2.5000 0.9572
-0.0001 -10.6372 -2.5000 0.9572
0.8559 -10.6027 -2.5000 0.9572
1.2821 -10.5596 -2.5000 0.9572
2.1277 -10.4222 -2.5000 0.9572
2.5457 -10.3281 -2.5000 0.9572
2.9594 -10.2172 -2.5000 0.9572
4.1693 -9.7860 -2.5000 0.9572
4.5600 -9.6102 -2.5000 0.9572
4.9433 -9.4188 -2.5000 0.9572
5.3186 -9.2121 -2.5000 0.9572
6.0426 -8.7542 -2.5000 0.9572
6.3902 -8.5038 -2.5000 0.9572
6.7274 -8.2396 -2.5000 0.9572
7.3686 -7.6716 -2.5000 0.9572
7.6716 -7.3686 -2.5000 0.9572
8.5038 -6.3902 -2.5000 0.9572
9.6102 -4.5601 -2.5000 0.9572
9.9459 -3.7720 -2.5000 0.9572
10.2172 -2.9595 -2.5000 0.9572
10.4222 -2.1277 -2.5000 0.9572
9.0304 -0.7290 -2.1293 0.9635
10.4222 2.1277 -2.5000 0.9572
10.3281 2.5457 -2.5000 0.9572
9.5944 2.7790 -2.3476 0.9598
9.3396 3.5421 -2.3476 0.9598
9.1894 3.9152 -2.3476 0.9598
8.4424 5.3386 -2.3476 0.9598
7.7373 6.3173 -2.3476 0.9598
6.8690 7.1514 -2.3305 0.9601
6.5742 7.4208 -2.3300 0.9601
5.9558 7.9258 -2.3301 0.9601
5.6326 8.1603 -2.3304 0.9601
4.6093 8.7823 -2.3310 0.9601
3.9664 8.3592 -2.1745 0.9627
3.1382 8.2749 -2.0800 0.9643
1.8385 9.0054 -2.1601 0.9629
1.5642 9.6247 -2.2917 0.9607
0.8578 7.0649 -1.6726 0.9712
-0.3233 8.0225 -1.8870 0.9675
-0.5703 7.0643 -1.6657 0.9713
-0.8579 7.0649 -1.6726 0.9712
-1.3036 8.0215 -1.9100 0.9672
-3.6094 8.4716 -2.1642 0.9629
-4.2748 8.1450 -2.1619 0.9629
-5.2612 8.3198 -2.3135 0.9604
-5.6007 8.1140 -2.3171 0.9603
-6.5345 7.3759 -2.3159 0.9603
-7.2039 6.9195 -2.3476 0.9598
-7.7373 6.3173 -2.3476 0.9598
-8.2206 5.6743 -2.3476 0.9598
-8.6505 4.9944 -2.3476 0.9598
-9.0243 4.2821 -2.3476 0.9598
-9.1894 3.9153 -2.3476 0.9598
-10.0898 3.3685 -2.5000 0.9572
-10.2172 2.9594 -2.5000 0.9572
-10.3281 2.5456 -2.5000 0.9572
-10.4222 2.1277 -2.5000 0.9572
-10.4995 1.7063 -2.5000 0.9572
-10.5596 1.2822 -2.5000 0.9572
-10.6286 0.4283 -2.5000 0.9572
-9.6555 -0.0000 -2.5000 0.9609
-9.6477 -0.3888 -2.5000 0.9609
-9.5851 -1.1638 -2.5000 0.9609
-9.4604 -1.9313 -2.5000 0.9609
-9.1586 -3.0576 -2.5000 0.9609
-9.0281 -3.4239 -2.5000 0.9609
-8.8829 -3.7846 -2.5000 0.9609
-8.5496 -4.4871 -2.5000 0.9609
-8.3619 -4.8278 -2.5000 0.9609
-8.1608 -5.1606 -2.5000 0.9609
-7.9463 -5.4850 -2.5000 0.9609
-7.2272 -6.4028 -2.5000 0.9609
-6.9636 -6.6886 -2.5000 0.9609
-6.6886 -6.9636 -2.5000 0.9609
-5.4850 -7.9463 -2.5000 0.9609
-4.8278 -8.3619 -2.5000 0.9609
-4.4871 -8.5495 -2.5000 0.9609
-4.1393 -8.7233 -2.5000 0.9609
-3.7847 -8.8829 -2.5000 0.9609
-3.4239 -9.0281 -2.5000 0.9609
-1.9314 -9.4604 -2.5000 0.9609
-1.5488 -9.5305 -2.5000 0.9609
-0.3888 -9.6477 -2.5000 0.9609
0.3888 -9.6477 -2.5000 0.9609
3.0576 -9.1586 -2.5000 0.9609
3.7846 -8.8829 -2.5000 0.9609
4.4871 -8.5496 -2.5000 0.9609
4.8277 -8.3619 -2.5000 0.9609
5.4849 -7.9463 -2.5000 0.9609
5.8005 -7.7190 -2.5000 0.9609
6.4028 -7.2273 -2.5000 0.9609
6.9636 -6.6886 -2.5000 0.9609
7.2272 -6.4028 -2.5000 0.9609
7.7190 -5.8005 -2.5000 0.9609
8.1607 -5.1605 -2.5000 0.9609
8.3619 -4.8278 -2.5000 0.9609
8.8829 -3.7846 -2.5000 0.9609
9.0280 -3.4239 -2.5000 0.9609
9.2743 -2.6863 -2.5000 0.9609
9.4604 -1.9314 -2.5000 0.9609
9.6477 -0.3888 -2.5000 0.9609
9.6555 -0.0000 -2.5000 0.9609
9.6242 0.7769 -2.5000 0.9609
9.5851 1.1638 -2.5000 0.9609
9.5305 1.5488 -2.5000 0.9609
9.3749 2.3107 -2.5000 0.9609
8.6003 2.8712 -2.3476 0.9632
8.4777 3.2152 -2.3476 0.9632
8.1915 3.8869 -2.3476 0.9632
8.0283 4.2136 -2.3476 0.9632
7.8521 4.5335 -2.3476 0.9632
6.5391 6.2809 -2.3476 0.9632
6.2808 6.5391 -2.3476 0.9632
6.0125 6.7867 -2.3476 0.9632
5.7252 7.0121 -2.3438 0.9633
4.4955 7.7864 -2.3279 0.9635
4.1786 7.9617 -2.3281 0.9635
3.4880 8.1867 -2.3040 0.9639
3.0784 8.1172 -2.2478 0.9648
2.7473 8.2293 -2.2463 0.9648
2.4304 8.3907 -2.2618 0.9645
2.1321 8.6503 -2.3067 0.9639
1.7983 8.8090 -2.3278 0.9635
1.4420 8.8730 -2.3275 0.9635
0.8588 7.0728 -1.8447 0.9710
0.3159 7.8390 -2.0313 0.9681
-0.3160 7.8416 -2.0320 0.9681
-0.5709 7.0721 -1.8370 0.9711
-1.6004 7.8394 -2.0716 0.9675
-3.8398 8.0922 -2.3191 0.9637
-4.1611 7.9283 -2.3183 0.9637
-5.0846 7.3663 -2.3175 0.9637
-6.0125 6.7867 -2.3476 0.9632
-7.0233 5.7343 -2.3476 0.9632
-7.8522 4.5335 -2.3476 0.9632
-8.1915 3.8869 -2.3476 0.9632
-8.3414 3.5539 -2.3476 0.9632
-8.4777 3.2152 -2.3476 0.9632
-9.2743 2.6863 -2.5000 0.9609
-9.4604 1.9313 -2.5000 0.9609
-9.5305 1.5489 -2.5000 0.9609
-9.6477 0.3888 -2.5000 0.9609
-8.8310 0.0000 -2.5000 0.9640
-8.8238 -0.3556 -2.5000 0.9640
-8.8023 -0.7106 -2.5000 0.9640
-8.7666 -1.0645 -2.5000 0.9640
-8.7166 -1.4166 -2.5000 0.9640
-8.2571 -3.1315 -2.5000 0.9640
-8.1243 -3.4614 -2.5000 0.9640
-7.6479 -4.4155 -2.5000 0.9640
-7.4639 -4.7199 -2.5000 0.9640
-7.0598 -5.3051 -2.5000 0.9640
-6.8405 -5.5851 -2.5000 0.9640
-6.3689 -6.1174 -2.5000 0.9640
-6.1175 -6.3689 -2.5000 0.9640
-5.5851 -6.8405 -2.5000 0.9640
-5.3052 -7.0599 -2.5000 0.9640
-5.0166 -7.2677 -2.5000 0.9640
-4.4155 -7.6479 -2.5000 0.9640
-4.1040 -7.8194 -2.5000 0.9640
-3.7858 -7.9783 -2.5000 0.9640
-3.4615 -8.1243 -2.5000 0.9640
-2.7965 -8.3765 -2.5000 0.9640
-2.1134 -8.5744 -2.5000 0.9640
-1.4166 -8.7166 -2.5000 0.9640
-1.0645 -8.7666 -2.5000 0.9640
-0.7106 -8.8023 -2.5000 0.9640
-0.3556 -8.8238 -2.5000 0.9640
-0.0000 -8.8310 -2.5000 0.9640
0.7106 -8.8023 -2.5000 0.9640
1.4166 -8.7166 -2.5000 0.9640
1.7664 -8.6525 -2.5000 0.9640
2.1134 -8.5744 -2.5000 0.9640
3.1315 -8.2571 -2.5000 0.9640
3.4614 -8.1243 -2.5000 0.9640
3.7858 -7.9783 -2.5000 0.9640
4.1039 -7.8194 -2.5000 0.9640
5.0166 -7.2677 -2.5000 0.9640
5.3051 -7.0599 -2.5000 0.9640
5.8560 -6.6101 -2.5000 0.9640
6.3689 -6.1174 -2.5000 0.9640
6.8405 -5.5851 -2.5000 0.9640
7.0598 -5.3051 -2.5000 0.9640
7.2677 -5.0166 -2.5000 0.9640
7.4638 -4.7199 -2.5000 0.9640
7.6478 -4.4155 -2.5000 0.9640
7.8194 -4.1040 -2.5000 0.9640
7.9783 -3.7858 -2.5000 0.9640
8.2571 -3.1315 -2.5000 0.9640
8.7166 -1.4166 -2.5000 0.9640
8.8023 -0.7106 -2.5000 0.9640
8.8310 0.0000 -2.5000 0.9640
8.7666 1.0645 -2.5000 0.9640
8.6525 1.7664 -2.5000 0.9640
8.4823 2.4569 -2.5000 0.9640
7.6290 3.2504 -2.3476 0.9661
6.2071 5.4990 -2.3476 0.9661
5.9807 5.7445 -2.3476 0.9661
5.4990 6.2071 -2.3476 0.9661
4.1236 7.1423 -2.3347 0.9663
3.8202 7.2787 -2.3271 0.9664
3.5234 7.4255 -2.3268 0.9664
3.2211 7.5601 -2.3264 0.9664
2.9136 7.6825 -2.3260 0.9664
2.6016 7.7927 -2.3257 0.9664
2.2856 7.8909 -2.3257 0.9664
1.9659 7.9761 -2.3256 0.9664
1.3175 8.1072 -2.3252 0.9664
0.8597 7.0807 -2.0192 0.9708
0.6177 7.6517 -2.1732 0.9686
-0.0000 7.6542 -2.1669 0.9687
-0.5716 7.0800 -2.0108 0.9709
-2.1906 7.5626 -2.2289 0.9678
-2.3651 7.0844 -2.1144 0.9694
-3.2115 7.5377 -2.3195 0.9665
-3.5120 7.4013 -2.3192 0.9665
-3.8067 7.2531 -2.3189 0.9665
-4.1236 7.1423 -2.3347 0.9663
-4.4318 7.0087 -2.3475 0.9661
-4.7108 6.8247 -2.3476 0.9661
-4.9817 6.6295 -2.3476 0.9661
-5.4990 6.2071 -2.3476 0.9661
-5.7445 5.9807 -2.3476 0.9661
-5.9807 5.7445 -2.3476 0.9661
-6.4235 5.2446 -2.3476 0.9661
-6.6295 4.9817 -2.3476 0.9661
-6.8247 4.7108 -2.3476 0.9661
-7.1816 4.1463 -2.3476 0.9661
-7.3428 3.8538 -2.3476 0.9661
-7.4920 3.5550 -2.3476 0.9661
-7.6291 3.2504 -2.3476 0.9661
-8.5744 2.1134 -2.5000 0.9640
-8.7666 1.0644 -2.5000 0.9640
-8.8238 0.3556 -2.5000 0.9640
-8.1214 -0.3273 -2.5000 0.9666
-8.1016 -0.6540 -2.5000 0.9666
-8.0227 -1.3038 -2.5000 0.9666
-7.8918 -1.9452 -2.5000 0.9666
-7.5998 -2.8822 -2.5000 0.9666
-7.4776 -3.1859 -2.5000 0.9666
-7.1970 -3.7772 -2.5000 0.9666
-7.0390 -4.0640 -2.5000 0.9666
-6.8697 -4.3441 -2.5000 0.9666
-6.6892 -4.6172 -2.5000 0.9666
-6.4979 -4.8828 -2.5000 0.9666
-6.2960 -5.1405 -2.5000 0.9666
-6.0839 -5.3898 -2.5000 0.9666
-5.8619 -5.6304 -2.5000 0.9666
-5.3899 -6.0839 -2.5000 0.9666
-4.8828 -6.4978 -2.5000 0.9666
-4.6172 -6.6892 -2.5000 0.9666
-4.3441 -6.8697 -2.5000 0.9666
-4.0640 -7.0390 -2.5000 0.9666
-2.8822 -7.5998 -2.5000 0.9666
-1.9452 -7.8918 -2.5000 0.9666
-0.9797 -8.0687 -2.5000 0.9666
-0.0000 -8.1280 -2.5000 0.9666
0.6540 -8.1016 -2.5000 0.9666
0.9797 -8.0687 -2.5000 0.9666
1.3038 -8.0227 -2.5000 0.9666
1.9451 -7.8918 -2.5000 0.9666
2.5738 -7.7097 -2.5000 0.9666
2.8822 -7.5998 -2.5000 0.9666
3.1859 -7.4775 -2.5000 0.9666
4.0640 -7.0390 -2.5000 0.9666
4.6172 -6.6892 -2.5000 0.9666
4.8828 -6.4978 -2.5000 0.9666
5.1405 -6.2960 -2.5000 0.9666
5.3898 -6.0839 -2.5000 0.9666
5.6304 -5.8619 -2.5000 0.9666
6.6892 -4.6172 -2.5000 0.9666
7.4775 -3.1859 -2.5000 0.9666
7.8070 -2.2613 -2.5000 0.9666
7.8918 -1.9451 -2.5000 0.9666
8.0227 -1.3038 -2.5000 0.9666
8.1016 -0.6540 -2.5000 0.9666
8.1016 0.6540 -2.5000 0.9666
8.0687 0.9797 -2.5000 0.9666
7.8918 1.9452 -2.5000 0.9666
7.7096 2.5739 -2.5000 0.9666
7.1801 2.7231 -2.3620 0.9684
7.0217 2.9917 -2.3476 0.9686
6.8956 3.2720 -2.3476 0.9686
6.7582 3.5470 -2.3476 0.9686
6.2814 4.3357 -2.3476 0.9686
6.1017 4.5851 -2.3476 0.9686
5.7130 5.0612 -2.3476 0.9686
5.5045 5.2872 -2.3476 0.9686
5.2872 5.5046 -2.3476 0.9686
4.5851 6.1017 -2.3476 0.9686
4.3357 6.2814 -2.3476 0.9686
3.5470 6.7582 -2.3476 0.9686
3.2720 6.8956 -2.3476 0.9686
2.9883 7.0138 -2.3449 0.9686
2.1033 7.2615 -2.3253 0.9689
0.8607 7.0887 -2.1964 0.9706
0.6039 7.4812 -2.3085 0.9691
-0.0000 7.4837 -2.3018 0.9692
-0.3017 7.4849 -2.3041 0.9691
-1.2108 7.4504 -2.3216 0.9689
-1.5096 7.3946 -2.3213 0.9689
-1.8059 7.3269 -2.3210 0.9689
-2.3679 7.0928 -2.3000 0.9692
-2.6952 7.1067 -2.3378 0.9687
-2.9910 7.0201 -2.3470 0.9686
-3.5470 6.7582 -2.3476 0.9686
-4.3357 6.2814 -2.3476 0.9686
-4.5852 6.1017 -2.3476 0.9686
-4.8271 5.9121 -2.3476 0.9686
-5.0613 5.7130 -2.3476 0.9686
-5.5046 5.2872 -2.3476 0.9686
-5.7130 5.0612 -2.3476 0.9686
-6.2814 4.3357 -2.3476 0.9686
-6.7582 3.5470 -2.3476 0.9686
-7.1721 2.7200 -2.3593 0.9684
-7.7097 2.5738 -2.5000 0.9666
-7.8071 2.2613 -2.5000 0.9666
-7.9637 1.6258 -2.5000 0.9666
-8.0687 0.9797 -2.5000 0.9666
-8.1214 0.3273 -2.5000 0.9666
-7.5148 -0.3028 -2.5000 0.9688
-7.4965 -0.6052 -2.5000 0.9688
-7.3024 -1.7999 -2.5000 0.9688
-7.2239 -2.0925 -2.5000 0.9688
-7.1338 -2.3816 -2.5000 0.9688
-7.0321 -2.6669 -2.5000 0.9688
-6.9191 -2.9479 -2.5000 0.9688
-6.6594 -3.4951 -2.5000 0.9688
-6.5133 -3.7604 -2.5000 0.9688
-6.3566 -4.0197 -2.5000 0.9688
-6.0125 -4.5181 -2.5000 0.9688
-5.8257 -4.7566 -2.5000 0.9688
-5.6295 -4.9873 -2.5000 0.9688
-5.4241 -5.2099 -2.5000 0.9688
-4.7566 -5.8257 -2.5000 0.9688
-4.5181 -6.0125 -2.5000 0.9688
-3.4951 -6.6594 -2.5000 0.9688
-2.9479 -6.9191 -2.5000 0.9688
-2.3816 -7.1338 -2.5000 0.9688
-1.7999 -7.3023 -2.5000 0.9688
-1.5044 -7.3689 -2.5000 0.9688
-1.2065 -7.4235 -2.5000 0.9688
-0.6052 -7.4965 -2.5000 0.9688
0.3028 -7.5148 -2.5000 0.9688
0.6052 -7.4965 -2.5000 0.9688
1.2064 -7.4235 -2.5000 0.9688
1.7999 -7.3023 -2.5000 0.9688
2.9479 -6.9191 -2.5000 0.9688
3.4951 -6.6594 -2.5000 0.9688
3.7604 -6.5133 -2.5000 0.9688
4.5181 -6.0125 -2.5000 0.9688
4.7565 -5.8257 -2.5000 0.9688
4.9873 -5.6295 -2.5000 0.9688
5.6294 -4.9873 -2.5000 0.9688
5.8257 -4.7566 -2.5000 0.9688
6.0125 -4.5181 -2.5000 0.9688
6.1896 -4.2723 -2.5000 0.9688
7.0321 -2.6670 -2.5000 0.9688
7.1338 -2.3816 -2.5000 0.9688
7.3023 -1.7999 -2.5000 0.9688
7.4660 -0.9066 -2.5000 0.9688
7.4965 -0.6052 -2.5000 0.9688
7.5148 -0.3029 -2.5000 0.9688
7.5148 0.3028 -2.5000 0.9688
7.4965 0.6052 -2.5000 0.9688
7.4235 1.2064 -2.5000 0.9688
7.3689 1.5044 -2.5000 0.9688
7.1338 2.3816 -2.5000 0.9688
6.3805 3.0276 -2.3476 0.9707
6.2534 3.2821 -2.3476 0.9707
6.1162 3.5312 -2.3476 0.9707
5.9691 3.7746 -2.3476 0.9707
5.6460 4.2427 -2.3476 0.9707
5.2863 4.6832 -2.3476 0.9707
5.0934 4.8923 -2.3476 0.9707
4.8923 5.0934 -2.3476 0.9707
4.4666 5.4706 -2.3476 0.9707
4.2427 5.6460 -2.3476 0.9707
3.7746 5.9691 -2.3476 0.9707
3.2820 6.2534 -2.3476 0.9707
2.2364 6.6989 -2.3476 0.9707
1.4127 6.9197 -2.3476 0.9707
1.1328 6.9708 -2.3475 0.9707
0.8509 7.0078 -2.3466 0.9707
0.5675 7.0299 -2.3444 0.9707
0.0000 7.0478 -2.3427 0.9707
-1.4127 6.9197 -2.3476 0.9707
-1.6902 6.8572 -2.3476 0.9707
-2.2365 6.6990 -2.3476 0.9707
-2.7682 6.4973 -2.3476 0.9707
-3.2821 6.2534 -2.3476 0.9707
-3.5312 6.1162 -2.3476 0.9707
-4.4666 5.4706 -2.3476 0.9707
-4.6833 5.2863 -2.3476 0.9707
-5.0934 4.8923 -2.3476 0.9707
-5.6460 4.2427 -2.3476 0.9707
-6.1163 3.5312 -2.3476 0.9707
-7.4965 0.6052 -2.5000 0.9688
-7.5148 0.3028 -2.5000 0.9688
-6.9909 0.0000 -2.5000 0.9707
-6.9852 -0.2815 -2.5000 0.9707
-6.9004 -1.1214 -2.5000 0.9707
-6.7877 -1.6730 -2.5000 0.9707
-6.6311 -2.2138 -2.5000 0.9707
-6.1901 -3.2488 -2.5000 0.9707
-6.0543 -3.4954 -2.5000 0.9707
-5.9086 -3.7364 -2.5000 0.9707
-5.7534 -3.9713 -2.5000 0.9707
-5.5888 -4.1997 -2.5000 0.9707
-5.2328 -4.6358 -2.5000 0.9707
-4.8428 -5.0418 -2.5000 0.9707
-4.6358 -5.2327 -2.5000 0.9707
-4.4214 -5.4152 -2.5000 0.9707
-4.1997 -5.5888 -2.5000 0.9707
-3.7364 -5.9086 -2.5000 0.9707
-3.2488 -6.1901 -2.5000 0.9707
-2.9970 -6.3159 -2.5000 0.9707
-1.9450 -6.7149 -2.5000 0.9707
-1.3984 -6.8496 -2.5000 0.9707
-1.1214 -6.9003 -2.5000 0.9707
-0.2815 -6.9852 -2.5000 0.9707
0.2815 -6.9852 -2.5000 0.9707
0.8426 -6.9399 -2.5000 0.9707
1.1214 -6.9003 -2.5000 0.9707
1.3983 -6.8496 -2.5000 0.9707
1.9450 -6.7149 -2.5000 0.9707
2.2138 -6.6311 -2.5000 0.9707
2.4790 -6.5366 -2.5000 0.9707
2.7402 -6.4315 -2.5000 0.9707
2.9969 -6.3159 -2.5000 0.9707
3.2488 -6.1901 -2.5000 0.9707
3.4954 -6.0543 -2.5000 0.9707
3.9712 -5.7534 -2.5000 0.9707
4.1997 -5.5888 -2.5000 0.9707
4.4213 -5.4152 -2.5000 0.9707
4.6358 -5.2327 -2.5000 0.9707
5.0418 -4.8427 -2.5000 0.9707
5.4151 -4.4214 -2.5000 0.9707
5.5888 -4.1997 -2.5000 0.9707
5.7534 -3.9713 -2.5000 0.9707
6.1901 -3.2488 -2.5000 0.9707
6.3159 -2.9969 -2.5000 0.9707
6.4314 -2.7402 -2.5000 0.9707
6.8496 -1.3983 -2.5000 0.9707
6.9003 -1.1214 -2.5000 0.9707
6.9682 -0.5625 -2.5000 0.9707
6.9852 -0.2815 -2.5000 0.9707
6.9909 0.0000 -2.5000 0.9707
6.9852 0.2815 -2.5000 0.9707
6.9682 0.5625 -2.5000 0.9707
6.9399 0.8426 -2.5000 0.9707
6.9003 1.1214 -2.5000 0.9707
6.8496 1.3984 -2.5000 0.9707
6.7877 1.6730 -2.5000 0.9707
6.7148 1.9450 -2.5000 0.9707
6.6311 2.2138 -2.5000 0.9707
6.3437 2.7028 -2.4659 0.9711
5.6852 3.2824 -2.3476 0.9725
5.4026 3.7292 -2.3476 0.9725
5.0850 4.1518 -2.3476 0.9725
4.9137 4.3532 -2.3476 0.9725
4.7345 4.5475 -2.3476 0.9725
4.5475 4.7345 -2.3476 0.9725
4.3532 4.9137 -2.3476 0.9725
4.1518 5.0850 -2.3476 0.9725
3.2823 5.6852 -2.3476 0.9725
3.0508 5.8127 -2.3476 0.9725
2.5731 6.0394 -2.3476 0.9725
1.3131 6.4320 -2.3476 0.9725
1.0530 6.4797 -2.3476 0.9725
0.5282 6.5434 -2.3476 0.9725
-0.0000 6.5647 -2.3476 0.9725
-1.0531 6.4797 -2.3476 0.9725
-1.3131 6.4320 -2.3476 0.9725
-1.5711 6.3739 -2.3476 0.9725
-2.3279 6.1381 -2.3476 0.9725
-2.8142 5.9309 -2.3476 0.9725
-3.2824 5.6852 -2.3476 0.9725
-4.1518 5.0850 -2.3476 0.9725
-4.7345 4.5475 -2.3476 0.9725
-4.9138 4.3532 -2.3476 0.9725
-5.2481 3.9437 -2.3476 0.9725
-5.4027 3.7292 -2.3476 0.9725
-5.5484 3.5086 -2.3476 0.9725
-5.8128 3.0508 -2.3476 0.9725
-6.7149 1.9450 -2.5000 0.9707
-6.7877 1.6730 -2.5000 0.9707
-6.9004 1.1214 -2.5000 0.9707
-6.9852 0.2815 -2.5000 0.9707
-3.5687 -0.2881 -1.3720 0.9848
-3.5921 -0.4362 -1.3867 0.9846
-6.4392 -1.0465 -2.5000 0.9724
-6.3918 -1.3049 -2.5000 0.9724
-6.3341 -1.5612 -2.5000 0.9724
-6.0997 -2.3133 -2.5000 0.9724
-6.0017 -2.5571 -2.5000 0.9724
-5.7764 -3.0317 -2.5000 0.9724
-5.6497 -3.2618 -2.5000 0.9724
-5.5138 -3.4867 -2.5000 0.9724
-4.8830 -4.3260 -2.5000 0.9724
-4.7049 -4.5191 -2.5000 0.9724
-4.3260 -4.8830 -2.5000 0.9724
-4.1259 -5.0533 -2.5000 0.9724
-3.2618 -5.6497 -2.5000 0.9724
-3.0317 -5.7764 -2.5000 0.9724
-2.5571 -6.0016 -2.5000 0.9724
-2.0658 -6.1879 -2.5000 0.9724
-0.5250 -6.5025 -2.5000 0.9724
-0.0000 -6.5237 -2.5000 0.9724
0.2627 -6.5184 -2.5000 0.9724
0.7863 -6.4761 -2.5000 0.9724
1.0465 -6.4392 -2.5000 0.9724
1.5612 -6.3341 -2.5000 0.9724
1.8150 -6.2661 -2.5000 0.9724
2.3133 -6.0997 -2.5000 0.9724
2.5571 -6.0016 -2.5000 0.9724
3.2618 -5.6497 -2.5000 0.9724
3.7058 -5.3689 -2.5000 0.9724
4.1259 -5.0533 -2.5000 0.9724
4.3260 -4.8830 -2.5000 0.9724
4.7049 -4.5191 -2.5000 0.9724
4.8830 -4.3260 -2.5000 0.9724
5.0533 -4.1259 -2.5000 0.9724
5.2153 -3.9190 -2.5000 0.9724
5.3688 -3.7059 -2.5000 0.9724
5.7764 -3.0317 -2.5000 0.9724
5.8938 -2.7966 -2.5000 0.9724
6.0997 -2.3133 -2.5000 0.9724
6.1879 -2.0658 -2.5000 0.9724
6.2661 -1.8150 -2.5000 0.9724
6.3341 -1.5612 -2.5000 0.9724
6.3918 -1.3049 -2.5000 0.9724
6.4392 -1.0465 -2.5000 0.9724
6.4761 -0.7863 -2.5000 0.9724
6.5025 -0.5249 -2.5000 0.9724
6.5237 -0.0000 -2.5000 0.9724
6.5183 0.2627 -2.5000 0.9724
6.3918 1.3049 -2.5000 0.9724
