ply
format ascii 1.0
element vertex 1571
property float32 x
property float32 y
property float32 z
property float32 I
end_header
1.1687 9.6248 0.1638 0.9620
0.7770 9.6248 0.1631 0.9621
0.3901 9.6811 0.1637 0.9620
-0.0000 9.6811 0.1635 0.9620
-0.3901 9.6811 0.1637 0.9620
-0.7770 9.6248 0.1631 0.9621
-1.9764 9.6811 0.1669 0.9612
-3.2132 9.6247 0.1714 0.9602
-3.9887 8.4061 0.1572 0.9635
-4.3226 8.2360 0.1571 0.9635
-4.7775 8.2749 0.1614 0.9625
-22.5559 27.6259 0.6024 0.8670
-31.1945 35.2113 0.7946 0.8285
-25.2337 26.2711 0.6153 0.8644
-32.6131 31.3253 0.7639 0.8345
-30.8803 23.2050 0.6525 0.8568
-11.1530 7.6984 0.2289 0.9472
-32.2448 18.6166 0.6289 0.8616
-32.2301 16.9157 0.6149 0.8645
-42.6781 14.2481 0.7600 0.8353
-32.7300 9.4804 0.5756 0.8726
-32.6980 6.6754 0.5637 0.8750
-41.6781 5.0606 0.7092 0.8454
-39.8269 -16.9687 -0.2437 0.8410
-22.8268 -17.1532 -0.1608 0.8921
-20.1988 -17.8946 -0.1519 0.8977
-19.2549 -18.4946 -0.1503 0.8987
-17.1644 -19.3746 -0.1457 0.9016
-15.8235 -19.3803 -0.1409 0.9048
-17.3211 -27.3911 -0.1825 0.8784
-24.8580 -43.0553 -0.2799 0.8197
-17.2805 -36.4180 -0.2270 0.8511
-8.5685 -22.5934 -0.1360 0.9079
-6.8012 -23.4803 -0.1376 0.9068
-5.1843 -25.3944 -0.1459 0.9015
-4.3704 -26.8921 -0.1534 0.8967
-3.2312 -26.6111 -0.1509 0.8983
-1.8148 -22.4803 -0.1270 0.9137
2.0281 -25.1220 -0.1419 0.9041
9.0247 -36.6147 -0.2123 0.8600
7.2822 -17.0918 -0.1046 0.9284
7.8167 -16.4734 -0.1027 0.9297
8.8389 -16.8411 -0.1071 0.9267
13.4521 -21.2727 -0.1417 0.9042
9.9296 -14.3854 -0.0984 0.9325
16.0089 -21.3039 -0.1500 0.8989
19.4122 8.2708 -0.1188 0.9191
18.8083 8.9246 -0.1172 0.9201
16.7682 9.6811 -0.1090 0.9255
11.9882 8.2749 -0.0820 0.9434
11.2048 8.4198 -0.0789 0.9455
10.9601 8.9486 -0.0797 0.9450
10.6793 9.4611 -0.0803 0.9445
9.2714 9.6526 -0.0754 0.9479
8.5515 9.6526 -0.0726 0.9497
6.6627 9.6526 -0.0660 0.9542
5.5729 9.6526 -0.0628 0.9564
5.0232 9.5708 -0.0609 0.9577
4.3217 9.1078 -0.0568 0.9605
3.1382 8.2749 -0.0498 0.9652
2.7626 8.2749 -0.0491 0.9657
2.0748 8.4177 -0.0488 0.9659
1.5425 9.4912 -0.0541 0.9623
-0.0000 9.6811 -0.0545 0.9620
-0.3901 9.6811 -0.0546 0.9620
-0.7770 9.6248 -0.0544 0.9621
-1.5733 9.6811 -0.0552 0.9615
-2.3630 9.5869 -0.0556 0.9613
-3.4410 9.0731 -0.0546 0.9619
-4.7775 8.2749 -0.0538 0.9625
-25.2255 26.2626 -0.2050 0.8644
-12.1740 7.6984 -0.0811 0.9440
-32.2451 18.6167 -0.2096 0.8616
-32.2301 16.9157 -0.2049 0.8645
-30.7748 14.6028 -0.1920 0.8726
-30.6205 10.2227 -0.1818 0.8789
-30.6205 8.8693 -0.1795 0.8803
-30.6205 7.5473 -0.1776 0.8815
-30.7343 6.2745 -0.1766 0.8821
-35.1779 -16.6921 -1.0964 0.8557
-31.4962 -16.5304 -1.0016 0.8673
-37.1557 -23.4959 -1.2379 0.8387
-22.9249 -17.2269 -0.8075 0.8916
-20.1693 -17.8684 -0.7587 0.8978
-18.8795 -19.6556 -0.7674 0.8967
-19.5793 -22.1004 -0.8314 0.8886
-8.4953 -22.4004 -0.6746 0.9086
-7.5236 -22.5359 -0.6690 0.9093
-5.4543 -26.7171 -0.7678 0.8966
-4.7409 -29.1720 -0.8322 0.8885
-3.2932 -27.1215 -0.7693 0.8964
-1.8142 -22.4731 -0.6348 0.9137
0.0000 -25.2244 -0.7103 0.9040
1.0473 -25.9891 -0.7324 0.9012
2.2304 -27.6285 -0.7805 0.8950
7.5472 -46.4394 -1.3248 0.8284
4.8724 -19.7680 -0.5733 0.9218
8.8476 -26.5016 -0.7867 0.8942
8.2389 -15.6979 -0.4992 0.9315
8.6213 -14.9325 -0.4855 0.9333
24.9447 -39.4468 -1.3142 0.8296
13.9871 -20.2638 -0.6933 0.9062
15.0246 -19.9941 -0.7042 0.9048
15.4724 -18.9502 -0.6889 0.9067
24.7402 -20.1997 -0.8993 0.8800
18.8082 8.9246 -0.5862 0.9201
14.3267 9.0597 -0.4773 0.9344
11.1657 8.3905 -0.3933 0.9456
10.7966 8.8151 -0.3925 0.9458
7.8811 9.6526 -0.3509 0.9514
6.6627 9.6526 -0.3303 0.9542
5.5729 9.6526 -0.3138 0.9564
5.0232 9.5708 -0.3044 0.9577
2.0748 8.4177 -0.2441 0.9659
1.1687 9.6248 -0.2730 0.9619
0.7151 8.8584 -0.2502 0.9651
-0.0000 9.6811 -0.2726 0.9620
-0.3901 9.6811 -0.2728 0.9620
-1.5746 9.6891 -0.2764 0.9615
-1.9783 9.6902 -0.2785 0.9612
-2.3630 9.5869 -0.2780 0.9613
-2.5032 8.6421 -0.2534 0.9646
-3.2132 9.6247 -0.2857 0.9602
-3.9887 8.4061 -0.2620 0.9635
-4.3226 8.2360 -0.2619 0.9635
-4.7598 8.2441 -0.2680 0.9626
-5.9315 8.5933 -0.2940 0.9591
-31.1945 35.2113 -1.3246 0.8284
-31.0866 27.5403 -1.1694 0.8469
-11.1530 7.6984 -0.3816 0.9472
-12.1740 7.6984 -0.4056 0.9440
-30.8219 14.6252 -0.9606 0.8724
-30.7343 6.2745 -0.8833 0.8820
-37.0032 6.0136 -1.0556 0.8607
-49.2555 -1.9849 -2.5000 0.8208
-48.6571 -7.9076 -2.5000 0.8208
-47.8630 -11.7972 -2.5000 0.8208
-43.9220 -14.6633 -2.3483 0.8307
-43.3171 -16.4280 -2.3495 0.8306
-28.7053 -16.5730 -1.6810 0.8757
-21.8032 -16.3840 -1.3831 0.8965
-20.0995 -16.4107 -1.3159 0.9013
-29.0749 -35.6103 -2.3314 0.8318
-26.0895 -37.7971 -2.3291 0.8320
-11.4009 -24.0269 -1.3487 0.8990
-9.5178 -22.3392 -1.2315 0.9073
-7.4209 -22.2282 -1.1885 0.9104
-6.5425 -22.5872 -1.1926 0.9101
-9.1598 -44.8675 -2.3224 0.8324
-7.3449 -45.1948 -2.3221 0.8324
-1.8434 -45.7441 -2.3218 0.8325
0.0000 -26.5595 -1.3469 0.8991
2.4137 -19.8790 -1.0156 0.9229
7.3470 -45.2076 -2.3228 0.8324
10.9652 -44.4876 -2.3237 0.8323
19.6725 -41.4588 -2.3273 0.8321
23.0753 -39.9676 -2.3405 0.8312
10.7386 -15.5576 -0.9587 0.9271
11.6746 -15.5360 -0.9856 0.9251
12.7277 -15.5886 -1.0206 0.9226
14.9245 -15.5380 -1.0926 0.9173
17.4725 -15.4793 -1.1838 0.9107
19.1363 -15.6243 -1.2529 0.9058
42.6914 -24.6478 -2.5000 0.8208
43.1848 -22.6651 -2.4734 0.8226
43.1969 -18.4045 -2.3813 0.8286
43.4026 -16.4604 -2.3541 0.8303
44.3537 -14.8074 -2.3714 0.8292
47.8630 -11.7972 -2.5000 0.8208
49.2955 0.0000 -2.5000 0.8208
49.2555 1.9849 -2.5000 0.8208
46.1403 3.7249 -2.3476 0.8308
45.9529 5.5797 -2.3476 0.8308
45.3552 9.2594 -2.3476 0.8308
45.0150 11.0952 -2.3512 0.8305
17.5708 8.3374 -0.9863 0.9251
15.8453 8.3163 -0.9075 0.9308
11.9882 8.2749 -0.7387 0.9433
10.6793 9.4611 -0.7236 0.9445
8.9169 9.2834 -0.6528 0.9498
7.2534 9.6526 -0.6123 0.9528
6.6627 9.6526 -0.5948 0.9541
4.0334 8.5003 -0.4772 0.9630
3.0532 8.0507 -0.4367 0.9661
2.7020 8.0935 -0.4327 0.9664
2.0612 8.3628 -0.4368 0.9661
1.7789 8.7136 -0.4510 0.9650
1.5425 9.4912 -0.4877 0.9622
1.1685 9.6239 -0.4917 0.9619
0.7015 8.6902 -0.4421 0.9657
-0.0000 9.6811 -0.4910 0.9620
-0.7016 8.6906 -0.4422 0.9657
-1.9764 9.6811 -0.5011 0.9612
-2.5032 8.6421 -0.4563 0.9646
-3.4203 9.0186 -0.4892 0.9621
-3.6741 8.6235 -0.4754 0.9632
-4.3226 8.2360 -0.4717 0.9634
-4.6848 8.1143 -0.4752 0.9632
-5.1513 8.1461 -0.4888 0.9621
-5.9315 8.5933 -0.5295 0.9590
-27.4193 36.4885 -2.3147 0.8329
-28.9119 35.4107 -2.3184 0.8327
-31.3485 30.1107 -2.2044 0.8402
-31.0866 27.5403 -2.1062 0.8468
-32.4078 26.4601 -2.1218 0.8457
-30.8803 23.2050 -1.9590 0.8567
-29.8893 17.2566 -1.7503 0.8709
-30.7747 14.6028 -1.7274 0.8725
-31.9714 13.6217 -1.7624 0.8701
-30.6205 11.6128 -1.6608 0.8771
-30.6205 10.2227 -1.6371 0.8787
-30.6205 8.8694 -1.6167 0.8801
-30.6205 7.5473 -1.5994 0.8813
-30.7343 6.2745 -1.5908 0.8819
-45.9888 5.5841 -2.3494 0.8307
-46.1504 3.7257 -2.3481 0.8307
-49.2555 1.9850 -2.5000 0.8208
-34.0683 -1.3729 -2.5000 0.8722
-33.9853 -2.7436 -2.5000 0.8722
-33.8473 -4.1098 -2.5000 0.8722
-33.6544 -5.4694 -2.5000 0.8722
-33.1051 -8.1597 -2.5000 0.8722
-32.7497 -9.4861 -2.5000 0.8722
-32.3412 -10.7971 -2.5000 0.8722
-30.9997 -13.2077 -2.4707 0.8736
-28.3541 -14.8813 -2.3479 0.8795
-27.7392 -16.0152 -2.3485 0.8794
-27.0820 -17.1256 -2.3494 0.8794
-21.8032 -16.3840 -1.9997 0.8964
-16.9410 -16.2720 -1.7223 0.9101
-15.5998 -16.2411 -1.6512 0.9136
-14.3632 -16.2127 -1.5882 0.9168
-11.1396 -16.1384 -1.4378 0.9244
-10.2209 -16.1630 -1.4022 0.9262
-15.9589 -27.6415 -2.3403 0.8798
-8.4374 -16.0762 -1.3312 0.9298
-6.8337 -16.0392 -1.2783 0.9325
-5.3432 -16.0049 -1.2372 0.9346
-3.2576 -15.9568 -1.1941 0.9368
-2.5908 -15.9415 -1.1842 0.9373
-1.9338 -15.9263 -1.1763 0.9377
-1.2845 -15.9114 -1.1705 0.9380
-0.0000 -15.8818 -1.1645 0.9383
0.6394 -15.8671 -1.1644 0.9383
3.2271 -15.8075 -1.1829 0.9373
5.2617 -15.7606 -1.2183 0.9355
10.1544 -26.7750 -2.0996 0.8915
11.2418 -26.3854 -2.1029 0.8913
12.5172 -26.3795 -2.1409 0.8895
9.0739 -15.7165 -1.3306 0.9298
11.7313 -15.6116 -1.4318 0.9247
20.2266 -24.7731 -2.3450 0.8796
13.7108 -15.4763 -1.5160 0.9204
16.1475 -15.5099 -1.6417 0.9141
26.3700 -18.2019 -2.3494 0.8794
29.5282 -17.0480 -2.5000 0.8722
30.8041 -14.6167 -2.5000 0.8722
31.3676 -13.3645 -2.5000 0.8722
33.4069 -6.8201 -2.5000 0.8722
33.6544 -5.4694 -2.5000 0.8722
33.8474 -4.1098 -2.5000 0.8722
34.0683 -1.3729 -2.5000 0.8722
34.0959 0.0000 -2.5000 0.8722
34.0683 1.3729 -2.5000 0.8722
33.4070 6.8201 -2.5000 0.8722
32.7499 9.4861 -2.5000 0.8722
32.3414 10.7971 -2.5000 0.8722
31.8804 12.0906 -2.5000 0.8722
17.7014 7.5419 -1.4108 0.9257
14.3279 8.2722 -1.2131 0.9358
14.3270 9.0599 -1.2429 0.9343
11.8653 8.1900 -1.0571 0.9438
11.2466 8.4513 -1.0315 0.9451
8.5515 9.6526 -0.9455 0.9496
7.8811 9.6526 -0.9137 0.9512
7.2534 9.6526 -0.8853 0.9527
5.0544 8.7545 -0.7412 0.9603
4.3216 9.1077 -0.7392 0.9604
3.1382 8.2749 -0.6489 0.9651
2.7626 8.2749 -0.6397 0.9656
1.8271 8.9498 -0.6698 0.9640
0.3901 9.6811 -0.7104 0.9619
-0.0000 9.6811 -0.7098 0.9619
-0.3901 9.6811 -0.7104 0.9619
-0.7016 8.6902 -0.6393 0.9656
-2.3630 9.5869 -0.7240 0.9612
-2.4737 8.5402 -0.6519 0.9650
-3.2131 9.6245 -0.7440 0.9601
-3.9887 8.4061 -0.6822 0.9634
-5.1712 8.1776 -0.7094 0.9619
-27.3554 15.7936 -2.3160 0.8810
-27.9909 14.6908 -2.3178 0.8809
-29.3538 12.5065 -2.3395 0.8799
-30.6205 7.5473 -2.3124 0.8812
-31.7862 3.8595 -2.3477 0.8795
-33.3189 2.6898 -2.4510 0.8745
-34.0683 1.3729 -2.5000 0.8722
-26.0332 0.0000 -2.4993 0.9007
-26.0190 -1.0485 -2.5000 0.9006
-25.8503 -3.1388 -2.5000 0.9006
-25.7030 -4.1771 -2.5000 0.9006
-25.2834 -6.2318 -2.5000 0.9006
-24.3479 -9.2339 -2.5000 0.9006
-23.5260 -11.1632 -2.5000 0.9006
-14.3632 -16.2127 -2.0795 0.9166
-14.6979 -19.5593 -2.3489 0.9064
-10.2180 -16.1586 -1.8354 0.9261
-12.2248 -21.1740 -2.3473 0.9064
-7.4364 -22.2748 -2.2545 0.9100
-3.9369 -15.9725 -1.5793 0.9360
-4.8852 -23.9292 -2.3447 0.9065
-0.9833 -24.3996 -2.3444 0.9065
0.0000 -24.4197 -2.3444 0.9065
1.9230 -15.8375 -1.5316 0.9379
3.2271 -15.8075 -1.5489 0.9372
5.2617 -15.7606 -1.5952 0.9354
8.6669 -22.8528 -2.3465 0.9065
10.4817 -22.0897 -2.3474 0.9064
9.0768 -15.7215 -1.7428 0.9296
9.8988 -15.6538 -1.7781 0.9283
11.7313 -15.6116 -1.8748 0.9245
13.7108 -15.4763 -1.9850 0.9203
16.9727 -17.6705 -2.3523 0.9062
18.3033 -16.2152 -2.3476 0.9064
18.9412 -15.4650 -2.3476 0.9064
19.5486 -14.6898 -2.3476 0.9064
23.0574 -12.1014 -2.5000 0.9006
23.5260 -11.1632 -2.5000 0.9006
24.3480 -9.2339 -2.5000 0.9006
24.7000 -8.2461 -2.5000 0.9006
25.0121 -7.2448 -2.5000 0.9006
25.5139 -5.2087 -2.5000 0.9006
25.7029 -4.1768 -2.5000 0.9006
25.9557 -2.0954 -2.5000 0.9006
26.0190 -1.0485 -2.5000 0.9006
25.9557 2.0954 -2.5000 0.9006
25.8503 3.1388 -2.5000 0.9006
24.1361 3.9225 -2.3476 0.9064
23.9585 4.8912 -2.3476 0.9064
23.4874 6.8032 -2.3476 0.9064
22.9580 8.7068 -2.3573 0.9060
17.5696 7.4857 -1.8335 0.9261
14.2906 7.5003 -1.5494 0.9372
14.3280 8.2723 -1.5884 0.9357
14.3268 9.0598 -1.6274 0.9342
11.2048 8.4198 -1.3456 0.9452
10.3450 8.4465 -1.2822 0.9477
8.7937 8.4465 -1.1706 0.9522
8.5515 9.6526 -1.2381 0.9495
6.1721 8.2135 -0.9864 0.9596
5.6905 8.2442 -0.9617 0.9605
3.4797 8.1672 -0.8523 0.9650
3.0730 8.1028 -0.8320 0.9658
2.7175 8.1400 -0.8239 0.9661
2.4025 8.2946 -0.8291 0.9659
2.0748 8.4177 -0.8323 0.9658
1.1685 9.6239 -0.9307 0.9618
0.6631 8.2146 -0.7912 0.9674
0.3901 9.6811 -0.9302 0.9618
-0.0000 9.6811 -0.9294 0.9618
-0.9970 8.2112 -0.7941 0.9673
-3.2131 9.6245 -0.9741 0.9600
-3.4451 9.0840 -0.9327 0.9617
-4.3226 8.2360 -0.8930 0.9633
-5.1881 8.2044 -0.9319 0.9617
-15.4019 20.4963 -2.4614 0.9021
-16.2147 19.8595 -2.4614 0.9021
-17.0013 19.1905 -2.4614 0.9021
-18.4903 17.7602 -2.4614 0.9021
-20.4963 15.4019 -2.4614 0.9021
-22.2033 12.8191 -2.4614 0.9021
-23.5866 10.0493 -2.4614 0.9021
-24.1426 8.0600 -2.4436 0.9028
-24.3134 5.9928 -2.4041 0.9043
-24.7280 5.0483 -2.4230 0.9036
-25.8457 3.1382 -2.4995 0.9007
-25.9345 2.0936 -2.4979 0.9007
-26.0048 1.0480 -2.4986 0.9007
-21.0464 -0.0000 -2.5000 0.9187
-21.0291 -0.8474 -2.5000 0.9187
-20.8927 -2.5368 -2.5000 0.9187
-20.7736 -3.3760 -2.5000 0.9187
-19.6785 -7.4630 -2.5000 0.9187
-19.0141 -9.0223 -2.5000 0.9187
-18.6354 -9.7806 -2.5000 0.9187
-17.7880 -11.2484 -2.5000 0.9187
-17.3206 -11.9556 -2.5000 0.9187
-14.9226 -13.2203 -2.3682 0.9228
-14.2532 -13.6904 -2.3476 0.9235
-11.8747 -15.8023 -2.3480 0.9235
-10.3531 -16.3722 -2.3010 0.9249
-6.8337 -16.0392 -2.0710 0.9322
-6.0763 -16.0218 -2.0354 0.9333
-5.3432 -16.0049 -2.0043 0.9343
-3.9369 -15.9725 -1.9541 0.9359
-3.2576 -15.9568 -1.9345 0.9365
-2.5921 -15.9495 -1.9194 0.9370
-1.2943 -16.0332 -1.9107 0.9373
-0.6462 -16.0357 -1.9064 0.9374
0.6433 -15.9626 -1.8977 0.9377
1.2826 -15.8875 -1.8934 0.9378
1.9230 -15.8375 -1.8951 0.9378
2.5714 -15.8226 -1.9042 0.9375
3.8924 -15.7921 -1.9320 0.9366
4.5697 -15.7765 -1.9511 0.9360
5.2617 -15.7606 -1.9737 0.9353
7.7589 -18.2107 -2.3513 0.9234
8.4872 -17.8864 -2.3517 0.9233
9.1954 -17.5204 -2.3504 0.9234
10.5642 -16.7059 -2.3479 0.9235
11.2269 -16.2648 -2.3476 0.9235
13.1054 -14.7929 -2.3476 0.9235
14.2532 -13.6904 -2.3476 0.9235
17.3206 -11.9556 -2.5000 0.9187
17.7880 -11.2484 -2.5000 0.9187
18.2265 -10.5231 -2.5000 0.9187
18.6354 -9.7806 -2.5000 0.9187
19.0142 -9.0223 -2.5000 0.9187
19.3620 -8.2494 -2.5000 0.9187
19.6785 -7.4631 -2.5000 0.9187
20.2152 -5.8554 -2.5000 0.9187
20.6208 -4.2097 -2.5000 0.9187
20.9779 -1.6935 -2.5000 0.9187
21.0461 0.0000 -2.5000 0.9187
20.9779 1.6935 -2.5000 0.9187
18.9829 5.4985 -2.3476 0.9235
17.5570 7.4804 -2.2669 0.9260
15.8444 7.5183 -2.0832 0.9318
14.3288 7.5203 -1.9222 0.9369
11.9882 8.2749 -1.7303 0.9430
11.2048 8.4198 -1.6649 0.9451
8.1799 7.8569 -1.3473 0.9553
7.8274 8.1492 -1.3422 0.9555
5.1935 8.2128 -1.1543 0.9616
4.7500 8.2272 -1.1285 0.9625
3.5093 8.2366 -1.0635 0.9646
3.0941 8.1586 -1.0365 0.9655
2.4025 8.2946 -1.0258 0.9658
1.7931 8.7833 -1.0649 0.9645
1.5425 9.4912 -1.1422 0.9620
0.6486 8.0342 -0.9575 0.9681
-0.0000 9.6077 -1.1413 0.9620
-0.3866 9.5940 -1.1406 0.9621
-0.6486 8.0347 -0.9575 0.9681
-1.5405 9.4793 -1.1408 0.9621
-1.9222 9.4153 -1.1415 0.9620
-2.3011 9.3359 -1.1422 0.9620
-2.6665 7.9871 -1.0002 0.9667
-3.4203 9.0186 -1.1457 0.9619
-5.9315 8.5933 -1.2403 0.9588
-14.9442 14.3541 -2.4614 0.9199
-16.0508 13.1051 -2.4614 0.9199
-17.0533 11.7710 -2.4614 0.9199
-17.5134 11.0748 -2.4614 0.9199
-19.0632 8.1221 -2.4614 0.9199
-19.3771 7.3488 -2.4617 0.9199
-19.7202 6.5836 -2.4696 0.9197
-20.0052 5.7946 -2.4740 0.9195
-20.5394 4.1931 -2.4901 0.9190
-20.8813 2.5355 -2.4986 0.9188
-21.0269 0.8474 -2.4997 0.9187
-17.6442 0.0000 -2.5000 0.9312
-17.6298 -0.7104 -2.5000 0.9312
-17.5155 -2.1268 -2.5000 0.9312
-17.4156 -2.8303 -2.5000 0.9312
-17.2875 -3.5293 -2.5000 0.9312
-17.1314 -4.2225 -2.5000 0.9312
-16.9475 -4.9089 -2.5000 0.9312
-16.4976 -6.2567 -2.5000 0.9312
-16.2322 -6.9159 -2.5000 0.9312
-13.6672 -11.1589 -2.5000 0.9312
-12.7250 -12.2225 -2.5000 0.9312
-11.6898 -13.1950 -2.4977 0.9313
-9.9534 -13.2456 -2.3476 0.9353
-8.8553 -14.0035 -2.3476 0.9353
-8.2843 -14.3488 -2.3476 0.9353
-7.1028 -14.9688 -2.3476 0.9353
-5.8753 -15.4920 -2.3476 0.9353
0.0000 -16.5725 -2.3482 0.9352
0.6673 -16.5589 -2.3481 0.9352
1.3335 -16.5182 -2.3481 0.9352
2.6582 -16.3563 -2.3479 0.9352
3.9653 -16.0878 -2.3477 0.9353
4.6098 -15.9144 -2.3476 0.9353
5.8753 -15.4918 -2.3476 0.9353
7.1028 -14.9688 -2.3476 0.9353
7.6998 -14.6707 -2.3476 0.9353
9.4120 -13.6356 -2.3476 0.9353
10.7786 -13.2014 -2.4148 0.9335
12.2225 -12.7250 -2.5000 0.9312
13.2068 -11.7002 -2.5000 0.9312
13.6672 -11.1589 -2.5000 0.9312
14.1054 -10.5996 -2.5000 0.9312
14.9126 -9.4302 -2.5000 0.9312
15.2803 -8.8221 -2.5000 0.9312
16.4975 -6.2567 -2.5000 0.9312
16.7361 -5.5873 -2.5000 0.9312
16.9475 -4.9089 -2.5000 0.9312
17.1314 -4.2225 -2.5000 0.9312
17.5155 -2.1268 -2.5000 0.9312
17.5869 -1.4197 -2.5000 0.9312
17.6298 0.7105 -2.5000 0.9312
17.5155 2.1268 -2.5000 0.9312
16.7303 2.7189 -2.4016 0.9338
16.2337 3.3141 -2.3476 0.9353
16.0871 3.9651 -2.3476 0.9353
15.2427 6.4943 -2.3476 0.9353
13.9724 8.8356 -2.3424 0.9354
11.2048 8.4198 -1.9859 0.9450
10.3450 8.4465 -1.8923 0.9475
9.5341 8.4465 -1.8048 0.9498
7.8762 8.2000 -1.6110 0.9551
7.9242 8.9446 -1.6932 0.9529
6.1715 8.2128 -1.4556 0.9593
4.7500 9.0504 -1.4482 0.9595
3.4797 8.1672 -1.2579 0.9648
0.6346 7.8607 -1.1174 0.9686
0.3593 8.9174 -1.2645 0.9646
-0.9539 7.8560 -1.1213 0.9685
-1.7884 8.7602 -1.2668 0.9645
-2.6064 7.8071 -1.1662 0.9673
-3.7463 8.7929 -1.3542 0.9621
-4.3226 8.2360 -1.3179 0.9631
-4.7775 8.2749 -1.3538 0.9621
-5.1712 8.1776 -1.3709 0.9617
-9.8124 13.0580 -2.3143 0.9361
-10.3291 12.6508 -2.3141 0.9361
-10.8237 12.2174 -2.3127 0.9362
-11.3004 11.7650 -2.3114 0.9362
-12.1979 10.8063 -2.3090 0.9363
-13.8878 10.4360 -2.4614 0.9322
-15.0444 8.6859 -2.4614 0.9322
-15.6968 7.4482 -2.4618 0.9322
-16.0010 6.8174 -2.4644 0.9321
-16.6019 5.5425 -2.4799 0.9317
-16.8371 4.8769 -2.4837 0.9316
-17.4095 2.8293 -2.4991 0.9312
-17.5124 2.1264 -2.4995 0.9312
-17.6298 0.7105 -2.5000 0.9312
-15.1631 -0.6110 -2.5000 0.9403
-15.1262 -1.2211 -2.5000 0.9403
-15.0648 -1.8292 -2.5000 0.9403
-14.9789 -2.4343 -2.5000 0.9403
-14.8687 -3.0355 -2.5000 0.9403
-14.7344 -3.6317 -2.5000 0.9403
-14.5763 -4.2221 -2.5000 0.9403
-14.1893 -5.3812 -2.5000 0.9403
-13.7102 -6.5056 -2.5000 0.9403
-13.4372 -7.0524 -2.5000 0.9403
-12.4891 -8.6206 -2.5000 0.9403
-9.5976 -11.7549 -2.5000 0.9403
-7.5877 -13.1423 -2.5000 0.9403
-6.9283 -13.2008 -2.4560 0.9414
-5.0532 -13.3243 -2.3476 0.9439
-4.5126 -13.5169 -2.3476 0.9439
-2.8504 -13.9623 -2.3476 0.9439
-2.2859 -14.0658 -2.3476 0.9439
-1.7177 -14.1464 -2.3476 0.9439
-0.5738 -14.2387 -2.3476 0.9439
1.1467 -14.2041 -2.3476 0.9439
2.8504 -13.9623 -2.3476 0.9439
3.4103 -13.8362 -2.3476 0.9439
3.9647 -13.6877 -2.3476 0.9439
5.0532 -13.3243 -2.3476 0.9439
5.6293 -13.2125 -2.3659 0.9434
6.9255 -13.1954 -2.4550 0.9414
8.1107 -12.8261 -2.5000 0.9403
9.1165 -12.1319 -2.5000 0.9403
9.5976 -11.7549 -2.5000 0.9403
10.0632 -11.3589 -2.5000 0.9403
10.5124 -10.9445 -2.5000 0.9403
10.9445 -10.5124 -2.5000 0.9403
11.3590 -10.0632 -2.5000 0.9403
11.7548 -9.5976 -2.5000 0.9403
12.1319 -9.1165 -2.5000 0.9403
12.8261 -8.1107 -2.5000 0.9403
13.1423 -7.5877 -2.5000 0.9403
13.7102 -6.5056 -2.5000 0.9403
14.1892 -5.3813 -2.5000 0.9403
14.3944 -4.8056 -2.5000 0.9403
14.5763 -4.2221 -2.5000 0.9403
14.7344 -3.6317 -2.5000 0.9403
15.1262 -1.2211 -2.5000 0.9403
15.1754 0.0000 -2.5000 0.9403
15.0648 1.8292 -2.5000 0.9403
14.9789 2.4343 -2.5000 0.9403
13.9624 2.8504 -2.3476 0.9439
13.5169 4.5126 -2.3476 0.9439
13.3243 5.0532 -2.3476 0.9439
12.8745 6.1090 -2.3476 0.9439
12.6180 6.6224 -2.3476 0.9439
11.9863 7.5797 -2.3363 0.9441
10.6330 9.4201 -2.3402 0.9440
7.8880 8.2123 -1.8759 0.9549
7.8727 8.8865 -1.9558 0.9530
5.1935 8.2128 -1.6008 0.9614
4.7500 8.2272 -1.5650 0.9622
4.7500 9.0504 -1.6838 0.9594
4.3216 9.1077 -1.6607 0.9600
3.4797 8.1672 -1.4625 0.9647
2.7626 8.2749 -1.4372 0.9653
2.4025 8.2946 -1.4226 0.9656
1.5425 9.4912 -1.5841 0.9618
0.6211 7.6935 -1.2715 0.9692
-0.6879 8.5218 -1.4084 0.9659
-1.7520 8.5818 -1.4429 0.9651
-2.4131 8.3311 -1.4289 0.9654
-3.7463 8.7929 -1.5745 0.9620
-3.9887 8.4061 -1.5328 0.9630
-4.3226 8.2360 -1.5323 0.9630
-4.7775 8.2749 -1.5741 0.9620
-5.1712 8.1776 -1.5939 0.9615
-7.9814 11.5631 -2.3146 0.9446
-8.4395 11.2309 -2.3143 0.9446
-8.8849 10.8820 -2.3143 0.9446
-10.1316 9.7315 -2.3143 0.9446
-10.5104 9.3114 -2.3132 0.9447
-10.8721 8.8768 -2.3122 0.9447
-11.2160 8.4283 -2.3113 0.9447
-13.2355 6.9465 -2.4625 0.9412
-13.5289 6.4195 -2.4669 0.9411
-13.8273 5.8912 -2.4760 0.9409
-14.1005 5.3476 -2.4844 0.9407
-14.5463 4.2134 -2.4948 0.9405
-14.8655 3.0348 -2.4995 0.9403
-15.0648 1.8292 -2.5000 0.9403
-15.1262 1.2211 -2.5000 0.9403
-13.3006 0.0000 -2.5000 0.9473
-13.2898 -0.5356 -2.5000 0.9473
-13.1283 -2.1336 -2.5000 0.9473
-12.9141 -3.1830 -2.5000 0.9473
-12.7754 -3.7004 -2.5000 0.9473
-12.0164 -5.7018 -2.5000 0.9473
-11.7771 -6.1811 -2.5000 0.9473
-11.5186 -6.6503 -2.5000 0.9473
-10.9461 -7.5556 -2.5000 0.9473
-10.6330 -7.9902 -2.5000 0.9473
-10.3027 -8.4119 -2.5000 0.9473
-9.9556 -8.8199 -2.5000 0.9473
-9.5924 -9.2136 -2.5000 0.9473
-9.2136 -9.5924 -2.5000 0.9473
-8.8199 -9.9556 -2.5000 0.9473
-7.9902 -10.6330 -2.5000 0.9473
-6.6503 -11.5186 -2.5000 0.9473
-5.2125 -12.2362 -2.5000 0.9473
-4.7164 -12.4362 -2.5000 0.9473
-4.2119 -12.6161 -2.5000 0.9473
-3.7005 -12.7754 -2.5000 0.9473
-3.1830 -12.9141 -2.5000 0.9473
-1.6017 -13.1910 -2.4976 0.9474
-1.0650 -13.1926 -2.4878 0.9476
-0.0000 -13.1936 -2.4799 0.9477
0.5317 -13.1931 -2.4818 0.9477
1.0649 -13.1918 -2.4876 0.9476
1.6015 -13.1897 -2.4974 0.9474
2.1335 -13.1283 -2.5000 0.9473
2.6604 -13.0318 -2.5000 0.9473
3.7004 -12.7754 -2.5000 0.9473
4.2119 -12.6161 -2.5000 0.9473
4.7164 -12.4362 -2.5000 0.9473
5.2152 -12.2362 -2.5000 0.9473
5.7019 -12.0164 -2.5000 0.9473
6.1811 -11.7771 -2.5000 0.9473
7.1087 -11.2415 -2.5000 0.9473
9.2135 -9.5924 -2.5000 0.9473
9.5924 -9.2136 -2.5000 0.9473
9.9556 -8.8199 -2.5000 0.9473
10.3027 -8.4119 -2.5000 0.9473
10.9462 -7.5556 -2.5000 0.9473
11.7771 -6.1811 -2.5000 0.9473
12.2362 -5.2134 -2.5000 0.9473
12.4362 -4.7164 -2.5000 0.9473
12.7754 -3.7005 -2.5000 0.9473
12.9141 -3.1830 -2.5000 0.9473
13.0318 -2.6605 -2.5000 0.9473
13.1283 -2.1336 -2.5000 0.9473
13.2036 -1.6032 -2.5000 0.9473
13.2898 -0.5355 -2.5000 0.9473
13.2898 0.5356 -2.5000 0.9473
13.2574 1.0703 -2.5000 0.9473
13.2036 1.6032 -2.5000 0.9473
11.8470 3.9551 -2.3476 0.9504
11.6781 4.4289 -2.3476 0.9504
11.4903 4.8956 -2.3476 0.9504
11.2839 5.3543 -2.3476 0.9504
11.0591 5.8043 -2.3476 0.9504
10.8164 6.2449 -2.3476 0.9504
10.5562 6.6754 -2.3476 0.9504
9.9265 7.4593 -2.3339 0.9507
9.2991 8.2383 -2.3351 0.9507
8.2523 7.9264 -2.1507 0.9545
7.9030 8.2279 -2.1444 0.9546
7.1851 8.1103 -2.0366 0.9569
6.1715 8.2128 -1.9310 0.9590
5.6689 8.2128 -1.8757 0.9602
4.7500 9.0504 -1.9212 0.9593
3.1382 8.2749 -1.6635 0.9646
2.7626 8.2749 -1.6397 0.9651
2.4025 8.2946 -1.6231 0.9655
2.0748 8.4177 -1.6296 0.9653
1.8271 8.9498 -1.7169 0.9635
1.1686 9.6243 -1.8223 0.9613
0.6080 7.5321 -1.4203 0.9697
-0.3385 8.3990 -1.5800 0.9664
-0.6782 8.4004 -1.5841 0.9663
-0.9138 7.5261 -1.4250 0.9696
-2.4132 8.3312 -1.6303 0.9653
-3.4409 9.0729 -1.8239 0.9613
-4.3226 8.2360 -1.7483 0.9629
-4.7775 8.2749 -1.7960 0.9619
-5.1712 8.1776 -1.8186 0.9614
-6.9992 10.1401 -2.3159 0.9511
-8.1649 9.2163 -2.3143 0.9511
-8.8800 8.5294 -2.3143 0.9511
-9.5376 7.7872 -2.3143 0.9511
-9.8434 7.3968 -2.3143 0.9511
-10.4265 6.5934 -2.3187 0.9510
-12.1653 5.1832 -2.4855 0.9476
-12.5984 4.2060 -2.4965 0.9474
-12.7719 3.6994 -2.4993 0.9473
-12.9128 3.1827 -2.4997 0.9473
-13.2036 1.6032 -2.5000 0.9473
-13.2574 1.0703 -2.5000 0.9473
-13.2898 0.5356 -2.5000 0.9473
-11.7886 -0.9517 -2.5000 0.9528
-11.7408 -1.4256 -2.5000 0.9528
-11.6738 -1.8972 -2.5000 0.9528
-11.5880 -2.3657 -2.5000 0.9528
-11.4833 -2.8304 -2.5000 0.9528
-11.3600 -3.2905 -2.5000 0.9528
-11.0584 -4.1939 -2.5000 0.9528
-10.8806 -4.6358 -2.5000 0.9528
-10.6851 -5.0701 -2.5000 0.9528
-10.2425 -5.9135 -2.5000 0.9528
-9.9961 -6.3211 -2.5000 0.9528
-9.4550 -7.1050 -2.5000 0.9528
-9.1612 -7.4799 -2.5000 0.9528
-8.8526 -7.8427 -2.5000 0.9528
-8.5296 -8.1928 -2.5000 0.9528
-8.1928 -8.5296 -2.5000 0.9528
-7.1050 -9.4550 -2.5000 0.9528
-5.9135 -10.2425 -2.5000 0.9528
-5.0702 -10.6851 -2.5000 0.9528
-2.3656 -11.5879 -2.5000 0.9528
-1.8972 -11.6738 -2.5000 0.9528
-1.4256 -11.7407 -2.5000 0.9528
-0.4762 -11.8174 -2.5000 0.9528
0.0000 -11.8270 -2.5000 0.9528
0.9517 -11.7886 -2.5000 0.9528
2.3657 -11.5879 -2.5000 0.9528
3.2905 -11.3600 -2.5000 0.9528
4.6358 -10.8806 -2.5000 0.9528
5.0702 -10.6851 -2.5000 0.9528
5.4964 -10.4722 -2.5000 0.9528
6.3211 -9.9960 -2.5000 0.9528
6.7184 -9.7334 -2.5000 0.9528
7.1050 -9.4550 -2.5000 0.9528
7.4798 -9.1613 -2.5000 0.9528
7.8427 -8.8526 -2.5000 0.9528
8.1928 -8.5296 -2.5000 0.9528
8.5296 -8.1928 -2.5000 0.9528
9.1612 -7.4799 -2.5000 0.9528
9.4550 -7.1050 -2.5000 0.9528
10.2425 -5.9135 -2.5000 0.9528
10.4723 -5.4963 -2.5000 0.9528
10.8806 -4.6358 -2.5000 0.9528
11.2183 -3.7452 -2.5000 0.9528
11.4833 -2.8304 -2.5000 0.9528
11.5879 -2.3657 -2.5000 0.9528
11.7407 -1.4256 -2.5000 0.9528
11.7407 1.4256 -2.5000 0.9528
11.6738 1.8972 -2.5000 0.9528
11.5879 2.3657 -2.5000 0.9528
11.0232 2.7170 -2.3998 0.9546
10.5344 3.5169 -2.3476 0.9556
10.3843 3.9382 -2.3476 0.9556
10.2173 4.3532 -2.3476 0.9556
10.0337 4.7611 -2.3476 0.9556
9.8339 5.1612 -2.3476 0.9556
9.3867 5.9358 -2.3476 0.9556
9.1401 6.3089 -2.3476 0.9556
6.7516 8.2692 -2.2566 0.9573
6.1659 8.2053 -2.1696 0.9589
6.2476 9.0512 -2.3247 0.9560
5.9019 9.3331 -2.3342 0.9559
5.5200 9.5609 -2.3336 0.9559
5.0232 9.5708 -2.2848 0.9568
3.1282 8.2483 -1.8647 0.9646
2.7626 8.2749 -1.8440 0.9650
2.4025 8.2946 -1.8254 0.9653
1.8271 8.9498 -1.9308 0.9633
1.5425 9.4912 -2.0326 0.9615
0.8643 7.1186 -1.5158 0.9711
-0.3308 8.2078 -1.7364 0.9670
-1.1504 7.0786 -1.5159 0.9711
-3.7463 8.7928 -2.0203 0.9617
-5.1712 8.1776 -2.0452 0.9612
-6.9291 8.4867 -2.3159 0.9562
-8.8342 6.6385 -2.3359 0.9558
-9.3796 5.9313 -2.3458 0.9556
-10.0334 4.7609 -2.3475 0.9556
-11.2173 3.7449 -2.4998 0.9528
-11.3599 3.2904 -2.5000 0.9528
-11.6738 1.8972 -2.5000 0.9528
-11.7408 1.4256 -2.5000 0.9528
-11.7886 0.9517 -2.5000 0.9528
-11.8174 0.4762 -2.5000 0.9528
-10.6372 0.0000 -2.5000 0.9572
-10.5596 -1.2822 -2.5000 0.9572
-10.4995 -1.7063 -2.5000 0.9572
-10.3281 -2.5457 -2.5000 0.9572
-10.2172 -2.9595 -2.5000 0.9572
-9.2121 -5.3186 -2.5000 0.9572
-8.9905 -5.6852 -2.5000 0.9572
-8.2396 -6.7274 -2.5000 0.9572
-7.6716 -7.3686 -2.5000 0.9572
-6.7275 -8.2396 -2.5000 0.9572
-6.3902 -8.5038 -2.5000 0.9572
-5.6852 -8.9904 -2.5000 0.9572
-5.3186 -9.2121 -2.5000 0.9572
-4.9433 -9.4188 -2.5000 0.9572
-4.1694 -9.7860 -2.5000 0.9572
-2.9594 -10.2172 -2.5000 0.9572
-1.7063 -10.4994 -2.5000 0.9572
-1.2822 -10.5596 -2.5000 0.9572
-0.8560 -10.6027 -2.5000 0.9572
-0.4284 -10.6286 -2.5000 0.9572
-0.0001 -10.6372 -2.5000 0.9572
0.4283 -10.6286 -2.5000 0.9572
1.2822 -10.5596 -2.5000 0.9572
2.1277 -10.4222 -2.5000 0.9572
2.9595 -10.2172 -2.5000 0.9572
3.3684 -10.0898 -2.5000 0.9572
4.1694 -9.7860 -2.5000 0.9572
4.5600 -9.6102 -2.5000 0.9572
4.9433 -9.4188 -2.5000 0.9572
5.3186 -9.2121 -2.5000 0.9572
5.6852 -8.9904 -2.5000 0.9572
6.0426 -8.7542 -2.5000 0.9572
7.3686 -7.6716 -2.5000 0.9572
7.6716 -7.3686 -2.5000 0.9572
8.2396 -6.7274 -2.5000 0.9572
8.5038 -6.3902 -2.5000 0.9572
8.7542 -6.0426 -2.5000 0.9572
8.9904 -5.6852 -2.5000 0.9572
9.2121 -5.3186 -2.5000 0.9572
9.7860 -4.1694 -2.5000 0.9572
10.3281 -2.5457 -2.5000 0.9572
10.4222 -2.1277 -2.5000 0.9572
10.4994 -1.7063 -2.5000 0.9572
10.6027 -0.8559 -2.5000 0.9572
10.6286 -0.4283 -2.5000 0.9572
10.6286 0.4283 -2.5000 0.9572
10.6027 0.8559 -2.5000 0.9572
10.4222 2.1277 -2.5000 0.9572
9.4747 3.1631 -2.3476 0.9598
9.3396 3.5421 -2.3476 0.9598
9.0243 4.2821 -2.3476 0.9598
8.6505 4.9944 -2.3476 0.9598
8.4424 5.3387 -2.3476 0.9598
8.2206 5.6743 -2.3476 0.9598
7.9854 6.0007 -2.3476 0.9598
7.7373 6.3173 -2.3476 0.9598
6.8696 7.1521 -2.3307 0.9601
6.2698 7.6792 -2.3299 0.9601
5.3007 8.3824 -2.3309 0.9601
4.9594 8.5899 -2.3311 0.9601
3.4797 8.1672 -2.0864 0.9642
3.1382 8.2749 -2.0800 0.9643
2.4025 8.2946 -2.0295 0.9651
0.6067 7.5161 -1.7722 0.9695
-0.0000 8.0203 -1.8850 0.9676
-0.3233 8.0217 -1.8868 0.9676
-1.3038 8.0224 -1.9102 0.9672
-1.9767 8.0196 -1.9412 0.9666
-2.3085 7.9698 -1.9501 0.9665
-2.4111 7.2220 -1.7894 0.9692
-3.6741 8.6235 -2.2030 0.9622
-4.3226 8.2360 -2.1861 0.9625
-5.1513 8.1461 -2.2652 0.9612
-5.6013 8.1149 -2.3174 0.9603
-6.2335 7.6346 -2.3164 0.9603
-6.5351 7.3767 -2.3162 0.9603
-6.8790 7.1618 -2.3339 0.9600
-7.2039 6.9194 -2.3476 0.9598
-7.4767 6.6238 -2.3476 0.9598
-7.9854 6.0007 -2.3476 0.9598
-8.8446 4.6420 -2.3476 0.9598
-9.0243 4.2821 -2.3476 0.9598
-9.1894 3.9153 -2.3476 0.9598
-9.3396 3.5420 -2.3476 0.9598
-10.2172 2.9595 -2.5000 0.9572
-10.3281 2.5457 -2.5000 0.9572
-10.5596 1.2822 -2.5000 0.9572
-10.6027 0.8560 -2.5000 0.9572
-9.6242 -0.7769 -2.5000 0.9609
-9.5305 -1.5488 -2.5000 0.9609
-9.3749 -2.3107 -2.5000 0.9609
-9.0281 -3.4239 -2.5000 0.9609
-8.7233 -4.1392 -2.5000 0.9609
-8.5496 -4.4871 -2.5000 0.9609
-8.3619 -4.8278 -2.5000 0.9609
-7.7190 -5.8005 -2.5000 0.9609
-7.4792 -6.1066 -2.5000 0.9609
-7.2273 -6.4028 -2.5000 0.9609
-6.6886 -6.9636 -2.5000 0.9609
-6.1066 -7.4792 -2.5000 0.9609
-5.8005 -7.7190 -2.5000 0.9609
-4.8278 -8.3619 -2.5000 0.9609
-4.4871 -8.5495 -2.5000 0.9609
-4.1392 -8.7233 -2.5000 0.9609
-3.0576 -9.1586 -2.5000 0.9609
-2.3107 -9.3749 -2.5000 0.9609
-1.5488 -9.5305 -2.5000 0.9609
-0.7770 -9.6242 -2.5000 0.9609
-0.3888 -9.6477 -2.5000 0.9609
0.3888 -9.6477 -2.5000 0.9609
0.7770 -9.6242 -2.5000 0.9609
1.1638 -9.5851 -2.5000 0.9609
1.5489 -9.5305 -2.5000 0.9609
1.9313 -9.4604 -2.5000 0.9609
2.6863 -9.2743 -2.5000 0.9609
3.4239 -9.0280 -2.5000 0.9609
3.7847 -8.8829 -2.5000 0.9609
4.1393 -8.7233 -2.5000 0.9609
4.4871 -8.5495 -2.5000 0.9609
4.8277 -8.3619 -2.5000 0.9609
5.8005 -7.7190 -2.5000 0.9609
6.6886 -6.9636 -2.5000 0.9609
6.9636 -6.6886 -2.5000 0.9609
7.2273 -6.4028 -2.5000 0.9609
7.9463 -5.4849 -2.5000 0.9609
8.1607 -5.1605 -2.5000 0.9609
9.0281 -3.4239 -2.5000 0.9609
9.6242 -0.7769 -2.5000 0.9609
9.6477 -0.3888 -2.5000 0.9609
9.6555 0.0000 -2.5000 0.9609
9.3749 2.3107 -2.5000 0.9609
9.2743 2.6863 -2.5000 0.9609
8.6003 2.8712 -2.3476 0.9632
8.4777 3.2152 -2.3476 0.9632
8.1915 3.8869 -2.3476 0.9632
7.8522 4.5335 -2.3476 0.9632
7.4619 5.1506 -2.3476 0.9632
7.2485 5.4469 -2.3476 0.9632
6.7867 6.0125 -2.3476 0.9632
6.5391 6.2809 -2.3476 0.9632
6.2809 6.5391 -2.3476 0.9632
5.7250 7.0119 -2.3438 0.9633
5.4040 7.1914 -2.3291 0.9635
4.4960 7.7873 -2.3282 0.9635
3.8552 8.1247 -2.3285 0.9635
3.5093 8.2366 -2.3181 0.9637
3.0730 8.1028 -2.2438 0.9648
2.4025 8.2946 -2.2359 0.9649
1.7931 8.7833 -2.3211 0.9636
1.0835 8.9231 -2.3273 0.9635
-0.0000 7.8394 -2.0298 0.9681
-0.3160 7.8407 -2.0317 0.9681
-1.6006 7.8403 -2.0719 0.9675
-1.9321 7.8389 -2.0904 0.9672
-2.2462 7.7546 -2.0904 0.9672
-3.5125 8.2441 -2.3202 0.9637
-3.8402 8.0931 -2.3194 0.9637
-4.1614 7.9290 -2.3185 0.9637
-4.7849 7.5667 -2.3180 0.9637
-5.0851 7.3671 -2.3177 0.9637
-5.4010 7.1875 -2.3278 0.9635
-6.2809 6.5391 -2.3476 0.9632
-6.5391 6.2809 -2.3476 0.9632
-6.7867 6.0125 -2.3476 0.9632
-7.0233 5.7343 -2.3476 0.9632
-7.2485 5.4469 -2.3476 0.9632
-7.4619 5.1506 -2.3476 0.9632
-7.6633 4.8460 -2.3476 0.9632
-7.8522 4.5335 -2.3476 0.9632
-8.1915 3.8869 -2.3476 0.9632
-8.3414 3.5539 -2.3476 0.9632
-8.6003 2.8712 -2.3476 0.9632
-9.3749 2.3107 -2.5000 0.9609
-9.4604 1.9314 -2.5000 0.9609
-8.8023 -0.7106 -2.5000 0.9640
-8.7666 -1.0645 -2.5000 0.9640
-8.7166 -1.4166 -2.5000 0.9640
-7.9784 -3.7858 -2.5000 0.9640
-7.8194 -4.1039 -2.5000 0.9640
-7.4638 -4.7199 -2.5000 0.9640
-7.0598 -5.3051 -2.5000 0.9640
-6.6101 -5.8560 -2.5000 0.9640
-6.3689 -6.1174 -2.5000 0.9640
-5.5851 -6.8405 -2.5000 0.9640
-5.0166 -7.2677 -2.5000 0.9640
-4.7199 -7.4638 -2.5000 0.9640
-3.7858 -7.9783 -2.5000 0.9640
-3.1315 -8.2571 -2.5000 0.9640
-1.7664 -8.6525 -2.5000 0.9640
-1.4166 -8.7166 -2.5000 0.9640
-0.7106 -8.8023 -2.5000 0.9640
0.3556 -8.8238 -2.5000 0.9640
2.1134 -8.5744 -2.5000 0.9640
3.4614 -8.1243 -2.5000 0.9640
4.1039 -7.8194 -2.5000 0.9640
4.7198 -7.4638 -2.5000 0.9640
5.0166 -7.2677 -2.5000 0.9640
5.3051 -7.0599 -2.5000 0.9640
5.5851 -6.8405 -2.5000 0.9640
5.8560 -6.6101 -2.5000 0.9640
6.3689 -6.1174 -2.5000 0.9640
6.8405 -5.5851 -2.5000 0.9640
7.0598 -5.3051 -2.5000 0.9640
7.2677 -5.0166 -2.5000 0.9640
7.4639 -4.7199 -2.5000 0.9640
7.6479 -4.4155 -2.5000 0.9640
7.8194 -4.1039 -2.5000 0.9640
7.9783 -3.7858 -2.5000 0.9640
8.2571 -3.1315 -2.5000 0.9640
8.3765 -2.7965 -2.5000 0.9640
8.4823 -2.4569 -2.5000 0.9640
8.5743 -2.1134 -2.5000 0.9640
8.6525 -1.7664 -2.5000 0.9640
8.7166 -1.4166 -2.5000 0.9640
8.8023 -0.7106 -2.5000 0.9640
8.8023 0.7106 -2.5000 0.9640
8.7666 1.0645 -2.5000 0.9640
8.7166 1.4166 -2.5000 0.9640
8.5744 2.1134 -2.5000 0.9640
8.4823 2.4569 -2.5000 0.9640
7.7537 2.9406 -2.3476 0.9661
7.6290 3.2504 -2.3476 0.9661
7.4920 3.5550 -2.3476 0.9661
7.3427 3.8538 -2.3476 0.9661
5.7445 5.9807 -2.3476 0.9661
4.9817 6.6295 -2.3476 0.9661
3.8206 7.2795 -2.3274 0.9664
3.2214 7.5609 -2.3266 0.9664
2.9139 7.6833 -2.3262 0.9664
2.2859 7.8917 -2.3259 0.9664
1.9662 7.9770 -2.3258 0.9664
0.6070 7.5188 -2.1354 0.9691
0.0000 7.6534 -2.1666 0.9687
-0.3085 7.6546 -2.1687 0.9687
-1.2442 7.6556 -2.1957 0.9683
-1.5627 7.6543 -2.2116 0.9680
-2.1907 7.5630 -2.2290 0.9678
-2.4107 7.2208 -2.1551 0.9688
-2.9061 7.6626 -2.3200 0.9665
-3.2118 7.5384 -2.3197 0.9665
-3.5123 7.4021 -2.3194 0.9665
-3.8071 7.2538 -2.3192 0.9665
-4.1235 7.1421 -2.3346 0.9663
-4.4317 7.0087 -2.3475 0.9661
-4.7108 6.8247 -2.3476 0.9661
-6.4235 5.2446 -2.3476 0.9661
-6.8247 4.7108 -2.3476 0.9661
-7.1816 4.1463 -2.3476 0.9661
-7.6291 3.2504 -2.3476 0.9661
-7.7537 2.9406 -2.3476 0.9661
-8.2103 2.7410 -2.4504 0.9647
-8.4823 2.4569 -2.5000 0.9640
-8.8238 0.3556 -2.5000 0.9640
-8.1280 0.0000 -2.5000 0.9666
-8.1016 -0.6540 -2.5000 0.9666
-8.0227 -1.3038 -2.5000 0.9666
-7.9637 -1.6258 -2.5000 0.9666
-7.8918 -1.9452 -2.5000 0.9666
-7.7097 -2.5739 -2.5000 0.9666
-7.5998 -2.8822 -2.5000 0.9666
-6.8697 -4.3441 -2.5000 0.9666
-6.6892 -4.6172 -2.5000 0.9666
-6.2960 -5.1405 -2.5000 0.9666
-6.0839 -5.3898 -2.5000 0.9666
-5.3898 -6.0838 -2.5000 0.9666
-5.1405 -6.2959 -2.5000 0.9666
-4.8828 -6.4978 -2.5000 0.9666
-4.6172 -6.6892 -2.5000 0.9666
-4.3441 -6.8697 -2.5000 0.9666
-3.7773 -7.1969 -2.5000 0.9666
-3.4844 -7.3432 -2.5000 0.9666
-2.8822 -7.5998 -2.5000 0.9666
-1.3038 -8.0227 -2.5000 0.9666
-0.9797 -8.0687 -2.5000 0.9666
-0.6540 -8.1016 -2.5000 0.9666
-0.3273 -8.1214 -2.5000 0.9666
-0.0000 -8.1279 -2.5000 0.9666
0.9797 -8.0687 -2.5000 0.9666
1.3038 -8.0227 -2.5000 0.9666
1.6258 -7.9637 -2.5000 0.9666
1.9452 -7.8918 -2.5000 0.9666
2.5739 -7.7097 -2.5000 0.9666
2.8822 -7.5998 -2.5000 0.9666
3.1859 -7.4775 -2.5000 0.9666
3.4844 -7.3432 -2.5000 0.9666
4.6172 -6.6892 -2.5000 0.9666
5.1405 -6.2960 -2.5000 0.9666
6.2960 -5.1405 -2.5000 0.9666
6.8697 -4.3441 -2.5000 0.9666
7.3432 -3.4844 -2.5000 0.9666
7.5998 -2.8822 -2.5000 0.9666
7.7097 -2.5738 -2.5000 0.9666
7.9637 -1.6258 -2.5000 0.9666
8.0227 -1.3038 -2.5000 0.9666
8.0687 -0.9797 -2.5000 0.9666
8.1016 -0.6540 -2.5000 0.9666
8.1016 0.6540 -2.5000 0.9666
8.0227 1.3038 -2.5000 0.9666
7.9637 1.6258 -2.5000 0.9666
7.7096 2.5739 -2.5000 0.9666
7.1803 2.7231 -2.3620 0.9684
6.8956 3.2720 -2.3476 0.9686
6.6099 3.8162 -2.3476 0.9686
6.2814 4.3357 -2.3476 0.9686
6.1017 4.5852 -2.3476 0.9686
5.9121 4.8271 -2.3476 0.9686
5.7130 5.0613 -2.3476 0.9686
5.5046 5.2872 -2.3476 0.9686
5.2872 5.5046 -2.3476 0.9686
4.8271 5.9122 -2.3476 0.9686
4.5851 6.1017 -2.3476 0.9686
4.3357 6.2814 -2.3476 0.9686
4.0793 6.4509 -2.3476 0.9686
3.5470 6.7582 -2.3476 0.9686
3.2720 6.8956 -2.3476 0.9686
2.9882 7.0136 -2.3449 0.9686
2.3944 7.1727 -2.3259 0.9688
2.1035 7.2622 -2.3255 0.9689
1.5119 7.4057 -2.3248 0.9689
0.9108 7.5012 -2.3241 0.9689
0.6039 7.4803 -2.3083 0.9691
-0.0000 7.4828 -2.3015 0.9692
-0.8607 7.0881 -2.1961 0.9706
-1.2109 7.4512 -2.3219 0.9689
-2.3961 7.1771 -2.3273 0.9688
-2.6951 7.1065 -2.3377 0.9687
-3.2720 6.8956 -2.3476 0.9686
-3.5470 6.7582 -2.3476 0.9686
-3.8162 6.6099 -2.3476 0.9686
-4.0793 6.4509 -2.3476 0.9686
-5.2872 5.5046 -2.3476 0.9686
-5.5046 5.2872 -2.3476 0.9686
-5.7130 5.0613 -2.3476 0.9686
-5.9122 4.8271 -2.3476 0.9686
-6.1017 4.5851 -2.3476 0.9686
-6.2814 4.3358 -2.3476 0.9686
-6.4509 4.0793 -2.3476 0.9686
-6.6099 3.8162 -2.3476 0.9686
-6.7582 3.5470 -2.3476 0.9686
-7.0217 2.9917 -2.3476 0.9686
-7.7097 2.5739 -2.5000 0.9666
-7.8918 1.9452 -2.5000 0.9666
-8.0687 0.9797 -2.5000 0.9666
-8.1016 0.6540 -2.5000 0.9666
-8.1214 0.3273 -2.5000 0.9666
-7.5209 0.0000 -2.5000 0.9688
-7.4965 -0.6052 -2.5000 0.9688
-7.3689 -1.5044 -2.5000 0.9688
-7.2239 -2.0924 -2.5000 0.9688
-6.9191 -2.9479 -2.5000 0.9688
-6.3566 -4.0196 -2.5000 0.9688
-5.8257 -4.7565 -2.5000 0.9688
-5.6295 -4.9873 -2.5000 0.9688
-5.4241 -5.2099 -2.5000 0.9688
-4.7566 -5.8257 -2.5000 0.9688
-4.5181 -6.0125 -2.5000 0.9688
-4.2723 -6.1896 -2.5000 0.9688
-3.4951 -6.6594 -2.5000 0.9688
-2.6669 -7.0321 -2.5000 0.9688
-2.3816 -7.1338 -2.5000 0.9688
-1.5044 -7.3689 -2.5000 0.9688
-1.2064 -7.4235 -2.5000 0.9688
-0.9066 -7.4660 -2.5000 0.9688
-0.6052 -7.4965 -2.5000 0.9688
0.0000 -7.5209 -2.5000 0.9688
0.9066 -7.4660 -2.5000 0.9688
1.2064 -7.4235 -2.5000 0.9688
1.7999 -7.3023 -2.5000 0.9688
2.0924 -7.2239 -2.5000 0.9688
2.3816 -7.1338 -2.5000 0.9688
2.6670 -7.0321 -2.5000 0.9688
3.2242 -6.7947 -2.5000 0.9688
3.4951 -6.6594 -2.5000 0.9688
4.0196 -6.3566 -2.5000 0.9688
4.2724 -6.1896 -2.5000 0.9688
4.7566 -5.8257 -2.5000 0.9688
4.9873 -5.6295 -2.5000 0.9688
5.2099 -5.4241 -2.5000 0.9688
6.0125 -4.5181 -2.5000 0.9688
6.3566 -4.0197 -2.5000 0.9688
6.9191 -2.9479 -2.5000 0.9688
7.0321 -2.6669 -2.5000 0.9688
7.3689 -1.5044 -2.5000 0.9688
7.4965 -0.6052 -2.5000 0.9688
7.5209 0.0000 -2.5000 0.9688
7.5148 0.3029 -2.5000 0.9688
7.4235 1.2064 -2.5000 0.9688
7.3023 1.7999 -2.5000 0.9688
7.2240 2.0925 -2.5000 0.9688
7.1338 2.3816 -2.5000 0.9688
6.4973 2.7682 -2.3476 0.9707
6.3805 3.0276 -2.3476 0.9707
6.2534 3.2821 -2.3476 0.9707
6.1162 3.5312 -2.3476 0.9707
5.6460 4.2427 -2.3476 0.9707
5.4706 4.4666 -2.3476 0.9707
5.2863 4.6833 -2.3476 0.9707
5.0934 4.8923 -2.3476 0.9707
4.8923 5.0934 -2.3476 0.9707
4.6832 5.2863 -2.3476 0.9707
4.2427 5.6460 -2.3476 0.9707
3.2821 6.2535 -2.3476 0.9707
3.0276 6.3806 -2.3476 0.9707
2.7682 6.4973 -2.3476 0.9707
2.2364 6.6990 -2.3476 0.9707
1.9649 6.7836 -2.3476 0.9707
1.1326 6.9709 -2.3475 0.9707
0.8509 7.0076 -2.3465 0.9707
0.5675 7.0296 -2.3443 0.9707
0.2838 7.0430 -2.3430 0.9707
-0.2838 7.0436 -2.3432 0.9707
-0.8511 7.0094 -2.3471 0.9707
-1.1329 6.9708 -2.3476 0.9707
-1.4127 6.9197 -2.3476 0.9707
-1.6901 6.8572 -2.3476 0.9707
-2.5044 6.6035 -2.3476 0.9707
-3.0276 6.3806 -2.3476 0.9707
-4.0119 5.8123 -2.3476 0.9707
-4.2427 5.6460 -2.3476 0.9707
-4.8923 5.0934 -2.3476 0.9707
-5.4706 4.4666 -2.3476 0.9707
-5.6460 4.2427 -2.3476 0.9707
-5.8122 4.0119 -2.3476 0.9707
-6.1162 3.5312 -2.3476 0.9707
-6.2535 3.2821 -2.3476 0.9707
-6.3805 3.0276 -2.3476 0.9707
-7.0322 2.6670 -2.5000 0.9688
-7.1338 2.3816 -2.5000 0.9688
-7.2240 2.0924 -2.5000 0.9688
-7.3024 1.7999 -2.5000 0.9688
-7.5148 0.3028 -2.5000 0.9688
-6.8496 -1.3984 -2.5000 0.9707
-6.7876 -1.6730 -2.5000 0.9707
-6.6311 -2.2138 -2.5000 0.9707
-6.4315 -2.7402 -2.5000 0.9707
-5.9086 -3.7364 -2.5000 0.9707
-5.7534 -3.9713 -2.5000 0.9707
-5.4152 -4.4213 -2.5000 0.9707
-5.2327 -4.6358 -2.5000 0.9707
-5.0418 -4.8427 -2.5000 0.9707
-4.6357 -5.2327 -2.5000 0.9707
-4.1997 -5.5888 -2.5000 0.9707
-2.9969 -6.3159 -2.5000 0.9707
-2.7402 -6.4314 -2.5000 0.9707
-2.2138 -6.6311 -2.5000 0.9707
-1.9450 -6.7149 -2.5000 0.9707
-1.6730 -6.7877 -2.5000 0.9707
-0.5625 -6.9682 -2.5000 0.9707
-0.0000 -6.9909 -2.5000 0.9707
0.2815 -6.9852 -2.5000 0.9707
0.5625 -6.9682 -2.5000 0.9707
0.8426 -6.9399 -2.5000 0.9707
1.6730 -6.7877 -2.5000 0.9707
1.9450 -6.7148 -2.5000 0.9707
2.2138 -6.6311 -2.5000 0.9707
2.7402 -6.4314 -2.5000 0.9707
3.4954 -6.0543 -2.5000 0.9707
3.7364 -5.9086 -2.5000 0.9707
3.9713 -5.7534 -2.5000 0.9707
4.1997 -5.5888 -2.5000 0.9707
4.4213 -5.4152 -2.5000 0.9707
4.6358 -5.2327 -2.5000 0.9707
4.8427 -5.0418 -2.5000 0.9707
5.5888 -4.1997 -2.5000 0.9707
5.9086 -3.7364 -2.5000 0.9707
6.4315 -2.7402 -2.5000 0.9707
6.5366 -2.4790 -2.5000 0.9707
6.9004 -1.1214 -2.5000 0.9707
6.9399 -0.8426 -2.5000 0.9707
6.9682 -0.5625 -2.5000 0.9707
6.9852 0.2815 -2.5000 0.9707
6.9399 0.8427 -2.5000 0.9707
6.5366 2.4790 -2.5000 0.9707
6.3439 2.7029 -2.4659 0.9711
5.8128 3.0508 -2.3476 0.9725
5.6852 3.2824 -2.3476 0.9725
5.5484 3.5086 -2.3476 0.9725
5.2481 3.9437 -2.3476 0.9725
4.5475 4.7345 -2.3476 0.9725
4.3532 4.9138 -2.3476 0.9725
4.1518 5.0851 -2.3476 0.9725
3.9437 5.2481 -2.3476 0.9725
3.7292 5.4026 -2.3476 0.9725
3.5086 5.5484 -2.3476 0.9725
2.8143 5.9309 -2.3476 0.9725
2.5731 6.0394 -2.3476 0.9725
2.3279 6.1381 -2.3476 0.9725
2.0788 6.2269 -2.3476 0.9725
1.5710 6.3739 -2.3476 0.9725
1.3131 6.4320 -2.3476 0.9725
1.0531 6.4797 -2.3476 0.9725
0.7913 6.5168 -2.3476 0.9725
0.5282 6.5434 -2.3476 0.9725
-0.2643 6.5594 -2.3476 0.9725
-0.5282 6.5434 -2.3476 0.9725
-0.7913 6.5169 -2.3476 0.9725
-1.5710 6.3739 -2.3476 0.9725
-1.8264 6.3055 -2.3476 0.9725
-2.0788 6.2269 -2.3476 0.9725
-2.3279 6.1381 -2.3476 0.9725
-3.2824 5.6852 -2.3476 0.9725
-3.5086 5.5484 -2.3476 0.9725
-3.7292 5.4027 -2.3476 0.9725
-4.3532 4.9138 -2.3476 0.9725
-5.0851 4.1518 -2.3476 0.9725
-5.4026 3.7292 -2.3476 0.9725
-5.6852 3.2824 -2.3476 0.9725
-5.8128 3.0508 -2.3476 0.9725
-6.6311 2.2138 -2.5000 0.9707
-6.7149 1.9450 -2.5000 0.9707
-6.9003 1.1214 -2.5000 0.9707
-6.9399 0.8426 -2.5000 0.9707
-6.9852 0.2815 -2.5000 0.9707
-3.5504 0.0000 -1.3606 0.9849
-3.5687 -0.2881 -1.3720 0.9848
-6.4392 -1.0465 -2.5000 0.9724
-5.8938 -2.7966 -2.5000 0.9724
-5.7764 -3.0317 -2.5000 0.9724
-5.6497 -3.2618 -2.5000 0.9724
-5.0533 -4.1259 -2.5000 0.9724
-4.7049 -4.5191 -2.5000 0.9724
-4.5191 -4.7049 -2.5000 0.9724
-3.4867 -5.5137 -2.5000 0.9724
-3.0317 -5.7764 -2.5000 0.9724
-2.7967 -5.8938 -2.5000 0.9724
-2.3133 -6.0997 -2.5000 0.9724
-1.5612 -6.3341 -2.5000 0.9724
-1.3049 -6.3918 -2.5000 0.9724
-1.0465 -6.4392 -2.5000 0.9724
-0.2627 -6.5184 -2.5000 0.9724
-0.0000 -6.5237 -2.5000 0.9724
0.2627 -6.5184 -2.5000 0.9724
0.5250 -6.5025 -2.5000 0.9724
1.0465 -6.4392 -2.5000 0.9724
1.3049 -6.3918 -2.5000 0.9724
1.8150 -6.2661 -2.5000 0.9724
2.7966 -5.8938 -2.5000 0.9724
3.0317 -5.7764 -2.5000 0.9724
3.4867 -5.5137 -2.5000 0.9724
3.9190 -5.2153 -2.5000 0.9724
4.3260 -4.8830 -2.5000 0.9724
4.5191 -4.7049 -2.5000 0.9724
4.7049 -4.5191 -2.5000 0.9724
5.0533 -4.1259 -2.5000 0.9724
5.2153 -3.9190 -2.5000 0.9724
5.6496 -3.2618 -2.5000 0.9724
5.7764 -3.0317 -2.5000 0.9724
5.8938 -2.7966 -2.5000 0.9724
6.0997 -2.3133 -2.5000 0.9724
6.2661 -1.8150 -2.5000 0.9724
6.3341 -1.5612 -2.5000 0.9724
6.5025 -0.5249 -2.5000 0.9724
6.5184 -0.2627 -2.5000 0.9724
6.5025 0.5249 -2.5000 0.9724
6.0997 2.3133 -2.5000 0.9724
6.0016 2.5571 -2.5000 0.9724
5.7124 2.7106 -2.4230 0.9733
5.4244 2.8469 -2.3476 0.9741
5.3052 3.0630 -2.3476 0.9741
4.8974 3.6801 -2.3476 0.9741
4.7452 3.8744 -2.3476 0.9741
4.0623 4.5854 -2.3476 0.9741
3.4800 5.0416 -2.3476 0.9741
3.2741 5.1776 -2.3476 0.9741
2.8469 5.4243 -2.3476 0.9741
2.4012 5.6358 -2.3476 0.9741
2.1723 5.7279 -2.3476 0.9741
1.7044 5.8841 -2.3476 0.9741
1.2254 6.0022 -2.3476 0.9741
0.9827 6.0467 -2.3476 0.9741
0.0000 6.1260 -2.3476 0.9741
-0.2467 6.1210 -2.3476 0.9741
-0.9827 6.0466 -2.3476 0.9741
-1.2254 6.0022 -2.3476 0.9741
-1.7044 5.8841 -2.3476 0.9741
-2.8469 5.4243 -2.3476 0.9741
-3.6801 4.8974 -2.3476 0.9741
-3.8743 4.7452 -2.3476 0.9741
-4.4181 4.2436 -2.3476 0.9741
-4.8974 3.6801 -2.3476 0.9741
-5.3053 3.0630 -2.3476 0.9741
-6.0017 2.5571 -2.5000 0.9724
-6.0997 2.3133 -2.5000 0.9724
-6.1879 2.0658 -2.5000 0.9724
-6.2661 1.8150 -2.5000 0.9724
-6.4392 1.0465 -2.5000 0.9724
-3.5921 0.4362 -1.3867 0.9846
-3.5687 0.2881 -1.3720 0.9848
-2.8160 0.0000 -1.1525 0.9879
-3.0246 -0.4915 -1.2541 0.9868
-3.0070 -0.6139 -1.2561 0.9868
-5.7940 -1.9343 -2.5000 0.9739
-5.6195 -2.3942 -2.5000 0.9739
-5.5186 -2.6186 -2.5000 0.9739
-5.4087 -2.8387 -2.5000 0.9739
-5.1627 -3.2647 -2.5000 0.9739
-4.7315 -3.8632 -2.5000 0.9739
-3.4699 -5.0271 -2.5000 0.9739
-3.0542 -5.2900 -2.5000 0.9739
-2.8387 -5.4086 -2.5000 0.9739
-2.6186 -5.5186 -2.5000 0.9739
-2.3943 -5.6195 -2.5000 0.9739
-2.1660 -5.7114 -2.5000 0.9739
-1.9343 -5.7940 -2.5000 0.9739
-1.4618 -5.9308 -2.5000 0.9739
-1.2218 -5.9849 -2.5000 0.9739
-0.7363 -6.0638 -2.5000 0.9739
-0.4915 -6.0885 -2.5000 0.9739
-0.2460 -6.1034 -2.5000 0.9739
0.9798 -6.0292 -2.5000 0.9739
1.6994 -5.8672 -2.5000 0.9739
1.9343 -5.7940 -2.5000 0.9739
2.1661 -5.7114 -2.5000 0.9739
2.6186 -5.5186 -2.5000 0.9739
2.8387 -5.4086 -2.5000 0.9739
3.2647 -5.1627 -2.5000 0.9739
3.6695 -4.8833 -2.5000 0.9739
3.8632 -4.7315 -2.5000 0.9739
4.4053 -4.2314 -2.5000 0.9739
4.5721 -4.0506 -2.5000 0.9739
4.8833 -3.6695 -2.5000 0.9739
5.7940 -1.9343 -2.5000 0.9739
5.9308 -1.4618 -2.5000 0.9739
6.0293 -0.9798 -2.5000 0.9739
6.0638 -0.7363 -2.5000 0.9739
6.0885 -0.4915 -2.5000 0.9739
6.1083 0.0000 -2.5000 0.9739
6.1034 0.2460 -2.5000 0.9739
6.0292 0.9799 -2.5000 0.9739
5.9308 1.4618 -2.5000 0.9739
5.8672 1.6994 -2.5000 0.9739
5.1751 2.7161 -2.3920 0.9751
4.9675 2.8680 -2.3476 0.9755
4.5856 3.4458 -2.3476 0.9755
4.2934 3.8037 -2.3476 0.9755
3.9734 4.1368 -2.3476 0.9755
3.8036 4.2934 -2.3476 0.9755
3.6277 4.4431 -2.3476 0.9755
3.0657 4.8480 -2.3476 0.9755
2.2483 5.2770 -2.3476 0.9755
2.0340 5.3632 -2.3476 0.9755
1.8164 5.4408 -2.3476 0.9755
1.3727 5.5693 -2.3476 0.9755
1.1473 5.6200 -2.3476 0.9755
0.0000 5.7360 -2.3476 0.9755
-0.2310 5.7313 -2.3476 0.9755
-2.4590 5.1822 -2.3476 0.9755
-2.6656 5.0789 -2.3476 0.9755
-2.8680 4.9675 -2.3476 0.9755
-3.8037 4.2934 -2.3476 0.9755
-3.9734 4.1368 -2.3476 0.9755
-4.1368 3.9735 -2.3476 0.9755
-4.2934 3.8037 -2.3476 0.9755
-4.5856 3.4458 -2.3476 0.9755
-5.1683 2.7125 -2.3889 0.9751
-5.5186 2.6186 -2.5000 0.9739
-5.7114 2.1660 -2.5000 0.9739
-5.8671 1.6994 -2.5000 0.9739
-3.0070 0.6139 -1.2561 0.9868
-2.8096 0.2268 -1.1536 0.9879
-2.3670 -0.0954 -1.0324 0.9897
-2.3794 -0.2889 -1.0446 0.9896
-2.4207 -0.4942 -1.0767 0.9893
-5.3636 -2.0341 -2.5000 0.9753
-5.0793 -2.6658 -2.5000 0.9753
-4.8483 -3.0659 -2.5000 0.9753
-4.7209 -3.2586 -2.5000 0.9753
-4.5859 -3.4460 -2.5000 0.9753
-4.4434 -3.6279 -2.5000 0.9753
-4.2937 -3.8039 -2.5000 0.9753
-3.9737 -4.1371 -2.5000 0.9753
-3.8039 -4.2937 -2.5000 0.9753
-3.4461 -4.5858 -2.5000 0.9753
-3.2586 -4.7209 -2.5000 0.9753
-3.0659 -4.8483 -2.5000 0.9753
-2.8682 -4.9678 -2.5000 0.9753
-2.4591 -5.1825 -2.5000 0.9753
-2.2484 -5.2773 -2.5000 0.9753
-1.5959 -5.5098 -2.5000 0.9753
-1.3728 -5.5696 -2.5000 0.9753
-0.9202 -5.6620 -2.5000 0.9753
-0.2310 -5.7317 -2.5000 0.9753
-0.0000 -5.7363 -2.5000 0.9753
0.4616 -5.7177 -2.5000 0.9753
0.6914 -5.6945 -2.5000 0.9753
1.1474 -5.6204 -2.5000 0.9753
1.5959 -5.5098 -2.5000 0.9753
1.8165 -5.4411 -2.5000 0.9753
2.2484 -5.2773 -2.5000 0.9753
2.4591 -5.1825 -2.5000 0.9753
2.6658 -5.0793 -2.5000 0.9753
2.8682 -4.9678 -2.5000 0.9753
3.0659 -4.8483 -2.5000 0.9753
3.4461 -4.5858 -2.5000 0.9753
3.6279 -4.4434 -2.5000 0.9753
3.9737 -4.1370 -2.5000 0.9753
4.1370 -3.9737 -2.5000 0.9753
4.4434 -3.6279 -2.5000 0.9753
4.7209 -3.2586 -2.5000 0.9753
4.8483 -3.0659 -2.5000 0.9753
5.1825 -2.4591 -2.5000 0.9753
5.2773 -2.2484 -2.5000 0.9753
5.5098 -1.5959 -2.5000 0.9753
5.5696 -1.3728 -2.5000 0.9753
5.6945 -0.6914 -2.5000 0.9753
5.7363 0.0000 -2.5000 0.9753
5.7317 0.2310 -2.5000 0.9753
5.7177 0.4616 -2.5000 0.9753
5.6620 0.9202 -2.5000 0.9753
5.5696 1.3728 -2.5000 0.9753
5.5098 1.5960 -2.5000 0.9753
5.4411 1.8165 -2.5000 0.9753
5.3635 2.0341 -2.5000 0.9753
4.7110 2.7199 -2.3707 0.9765
4.4331 3.0600 -2.3476 0.9768
3.7314 3.8849 -2.3476 0.9768
3.5720 4.0320 -2.3476 0.9768
3.0600 4.4331 -2.3476 0.9768
2.6933 4.6650 -2.3476 0.9768
2.3092 4.8666 -2.3476 0.9768
2.1114 4.9556 -2.3476 0.9768
1.9101 5.0366 -2.3476 0.9768
1.7058 5.1094 -2.3476 0.9768
1.2891 5.2301 -2.3476 0.9768
1.0775 5.2778 -2.3476 0.9768
0.8641 5.3169 -2.3476 0.9768
0.2169 5.3823 -2.3476 0.9768
-0.0000 5.3866 -2.3476 0.9768
-0.2169 5.3823 -2.3476 0.9768
-0.8641 5.3169 -2.3476 0.9768
-1.0775 5.2778 -2.3476 0.9768
-1.2891 5.2301 -2.3476 0.9768
-1.4987 5.1740 -2.3476 0.9768
-1.7058 5.1094 -2.3476 0.9768
-2.3092 4.8666 -2.3476 0.9768
-2.6933 4.6650 -2.3476 0.9768
-3.2360 4.3063 -2.3476 0.9768
-3.4068 4.1725 -2.3476 0.9768
-3.1085 3.5088 -2.0430 0.9798
-3.8849 3.7315 -2.3476 0.9768
-4.1725 3.4067 -2.3476 0.9768
-4.4331 3.0600 -2.3476 0.9768
-5.1825 2.4591 -2.5000 0.9753
-5.5696 1.3728 -2.5000 0.9753
-2.4021 0.3904 -1.0606 0.9894
-2.3649 0.1909 -1.0340 0.9897
-2.3670 0.0954 -1.0324 0.9897
-2.2030 0.0000 -1.0198 0.9903
-2.2037 -0.0888 -1.0209 0.9903
-2.2008 -0.1777 -1.0220 0.9903
-2.2080 -0.2681 -1.0295 0.9902
-2.2302 -0.3624 -1.0459 0.9901
-2.2466 -0.4586 -1.0614 0.9899
-2.3851 -0.5879 -1.1371 0.9892
-5.1876 -1.5026 -2.5000 0.9765
-5.1229 -1.7103 -2.5000 0.9765
-5.0499 -1.9152 -2.5000 0.9765
-4.8794 -2.3153 -2.5000 0.9765
-4.7822 -2.5099 -2.5000 0.9765
-4.6773 -2.7004 -2.5000 0.9765
-4.5648 -2.8866 -2.5000 0.9765
-3.5814 -4.0426 -2.5000 0.9765
-3.4158 -4.1835 -2.5000 0.9765
-2.8866 -4.5648 -2.5000 0.9765
