ply
format ascii 1.0
element vertex 1572
property float32 x
property float32 y
property float32 z
property float32 I
end_header
10.8717 -44.1078 3.8456 0.8333
9.4851 -32.7463 2.8860 0.8721
6.2138 -18.6126 1.6611 0.9243
5.9316 -15.6404 1.4160 0.9351
9.7562 -15.4282 1.5453 0.9293
15.8417 -21.0814 2.2323 0.8996
45.3256 -1.8265 3.8401 0.8335
45.2735 0.0000 3.8325 0.8338
25.0190 8.3526 2.2328 0.8995
18.7810 8.0018 1.7281 0.9213
13.9196 9.6080 1.4318 0.9344
10.8041 8.1187 1.1440 0.9472
10.2341 8.3559 1.1184 0.9483
9.7800 8.6644 1.1061 0.9489
9.5087 9.1332 1.1161 0.9484
9.4708 10.6903 1.2090 0.9443
9.4708 11.5996 1.2677 0.9417
6.2491 9.8821 0.9898 0.9541
5.9970 10.3871 1.0153 0.9530
11.6779 22.2504 2.1272 0.9040
3.7271 9.8276 0.8898 0.9587
2.3956 8.2705 0.7289 0.9660
2.0330 8.2484 0.7191 0.9665
1.6888 8.2723 0.7147 0.9667
0.7100 8.7954 0.7470 0.9652
0.3687 9.1487 0.7751 0.9639
-0.7816 9.6811 0.8222 0.9618
-1.5733 9.6811 0.8303 0.9614
-1.9649 9.6248 0.8316 0.9613
-2.8082 9.6951 0.8545 0.9603
-3.2321 9.6811 0.8640 0.9599
-3.6502 9.6247 0.8714 0.9595
-4.5217 9.5294 0.8929 0.9585
-4.7456 9.0419 0.8644 0.9598
-5.0101 8.6777 0.8482 0.9606
-6.2182 8.2749 0.8762 0.9593
-6.8803 8.4269 0.9209 0.9573
-24.2752 25.2731 2.9665 0.8688
-23.8377 15.0741 2.3875 0.8930
-24.5684 12.8945 2.3488 0.8946
-27.1579 12.8866 2.5447 0.8863
-36.0516 13.6725 3.2640 0.8566
-40.6393 13.5674 3.6269 0.8420
-33.5079 8.2590 2.9214 0.8706
-33.4599 6.8309 2.8909 0.8719
-34.8402 5.6621 2.9880 0.8679
-23.6252 -17.7532 1.8325 0.8883
-22.0596 -18.0111 1.7660 0.8921
-20.6587 -21.5079 1.8493 0.8873
-17.6625 -19.9368 1.6517 0.8988
-17.1384 -20.9908 1.6804 0.8971
-20.4087 -27.1592 2.1067 0.8727
-20.2117 -29.2818 2.2063 0.8671
-15.5904 -27.0033 1.9335 0.8825
-14.8826 -28.3564 1.9859 0.8796
-13.7070 -28.8867 1.9827 0.8797
-17.8118 -41.8057 2.8179 0.8335
-16.6540 -43.9128 2.9123 0.8284
-12.5557 -37.6090 2.4587 0.8531
-7.4521 -25.7277 1.6610 0.8982
-3.4868 -21.4551 1.3479 0.9166
-2.0178 -24.9948 1.5550 0.9044
6.0379 -37.1527 2.3341 0.8600
4.3532 -17.6614 1.1280 0.9297
5.0590 -17.4655 1.1276 0.9297
7.2787 -17.0837 1.1515 0.9283
8.9488 -17.0505 1.1941 0.9257
9.5891 -16.6088 1.1892 0.9260
14.5836 -21.1279 1.5919 0.9022
16.7768 -20.5478 1.6449 0.8991
43.3578 -16.4434 2.8755 0.8304
10.2341 8.3559 0.8193 0.9484
9.5087 9.1332 0.8176 0.9485
9.4190 10.6319 0.8808 0.9447
9.5760 11.7284 0.9389 0.9411
9.4708 12.6034 0.9776 0.9388
9.4708 13.7208 1.0338 0.9354
9.4190 14.8950 1.0928 0.9318
5.7238 9.9139 0.7099 0.9552
4.6265 10.8588 0.7319 0.9538
4.4250 11.6678 0.7738 0.9512
2.9388 8.8029 0.5755 0.9635
2.3956 8.2705 0.5339 0.9661
1.6893 8.2749 0.5237 0.9667
1.3384 8.2354 0.5174 0.9671
1.0197 8.3978 0.5246 0.9667
0.7100 8.7957 0.5472 0.9653
0.3687 9.1487 0.5678 0.9640
-0.3879 9.6247 0.5973 0.9621
-0.7816 9.6811 0.6023 0.9618
-1.5733 9.6811 0.6082 0.9615
-2.8042 9.6811 0.6250 0.9604
-3.2321 9.6811 0.6329 0.9599
-4.1007 9.6248 0.6487 0.9589
-5.2800 8.3496 0.6126 0.9612
-5.6270 8.1521 0.6142 0.9611
-25.0005 26.0283 2.2380 0.8653
-32.8903 26.8540 2.6330 0.8435
-35.2419 26.4825 2.7336 0.8381
-32.1274 22.1760 2.4207 0.8552
-25.5553 13.4125 1.7897 0.8908
-35.8987 13.6146 2.3808 0.8574
-40.6393 13.5674 2.6568 0.8422
-33.5274 8.2638 2.1413 0.8708
-33.4424 6.8273 2.1166 0.8722
-42.9720 -24.8099 1.9566 0.8199
-23.2408 -17.4643 1.1463 0.8901
-22.2113 -18.1350 1.1307 0.8916
-21.0900 -20.2572 1.1531 0.8895
-17.8950 -20.1993 1.0641 0.8976
-16.8274 -22.3932 1.1045 0.8939
-19.9844 -28.9524 1.3872 0.8686
-19.2752 -30.4813 1.4221 0.8656
-15.2345 -26.3869 1.2014 0.8852
-14.7094 -28.0264 1.2481 0.8810
-13.8296 -29.1453 1.2720 0.8789
-7.6834 -26.5262 1.0889 0.8953
-6.3597 -25.8022 1.0479 0.8991
-1.7708 -21.9356 0.8678 0.9157
-0.9807 -24.3362 0.9604 0.9071
0.9204 -22.8395 0.9013 0.9126
4.5056 -37.1074 1.4739 0.8610
4.2241 -20.6911 0.8327 0.9189
5.0278 -20.3984 0.8284 0.9193
5.6398 -19.4708 0.7993 0.9221
5.7547 -17.2374 0.7166 0.9298
14.0398 -20.3402 0.9745 0.9058
17.8196 8.4555 0.7777 0.9241
14.0255 9.6811 0.6720 0.9341
9.5087 9.1332 0.5199 0.9486
9.4708 9.8602 0.5391 0.9467
9.4190 10.6319 0.5601 0.9447
9.4708 12.6034 0.6216 0.9388
9.4708 13.7208 0.6574 0.9354
6.2702 10.8604 0.4945 0.9510
5.2027 9.9129 0.4414 0.9562
2.9388 8.8029 0.3659 0.9635
2.0396 8.2749 0.3361 0.9665
1.6893 8.2749 0.3330 0.9668
0.7100 8.7957 0.3479 0.9653
-0.3879 9.6247 0.3798 0.9622
-1.9649 9.6248 0.3873 0.9614
-2.8042 9.6811 0.3974 0.9605
-3.6502 9.6247 0.4059 0.9596
-4.1007 9.6248 0.4125 0.9590
-4.7237 9.0003 0.4008 0.9601
-23.4233 26.4395 1.3928 0.8681
-24.9443 25.9698 1.4199 0.8658
-26.0860 25.0559 1.4262 0.8652
-26.5057 23.4820 1.3963 0.8678
-32.7581 26.7461 1.6675 0.8443
-24.1859 16.6944 1.1588 0.8890
-24.1177 15.2511 1.1252 0.8921
-33.1299 17.3879 1.4753 0.8609
-31.5465 14.9690 1.3768 0.8695
-32.5321 13.8606 1.3944 0.8680
-40.4838 13.5155 1.6829 0.8429
-33.8010 9.7906 1.3876 0.8686
-32.9811 8.1291 1.3394 0.8729
-33.1787 6.7735 1.3353 0.8732
-42.9983 5.2209 1.7079 0.8408
-44.1712 -23.1828 0.8427 0.8191
-41.8557 -26.4680 0.8365 0.8203
-22.3006 -16.7578 0.4712 0.8944
-20.9046 -18.5199 0.4718 0.8943
-20.6379 -19.8230 0.4834 0.8918
-23.4209 -24.3838 0.5711 0.8735
-16.4740 -21.9229 0.4632 0.8961
-18.5218 -26.8334 0.5508 0.8777
-10.6759 -25.0572 0.4601 0.8968
-6.6493 -26.9772 0.4693 0.8948
-1.6289 -20.1775 0.3419 0.9222
0.9934 -24.6504 0.4167 0.9060
1.9913 -24.6661 0.4180 0.9057
3.9622 -24.3803 0.4172 0.9059
3.7783 -18.5075 0.3191 0.9272
4.6051 -18.6837 0.3250 0.9259
5.9626 -17.8603 0.3181 0.9274
5.8652 -15.4653 0.2794 0.9360
7.8831 -16.6133 0.3106 0.9291
9.9904 -17.3038 0.3375 0.9232
9.5164 -15.0490 0.3008 0.9312
19.1516 8.1597 0.3516 0.9201
17.3526 9.1073 0.3310 0.9246
16.6706 9.6248 0.3252 0.9259
15.1596 9.5863 0.3030 0.9308
14.0255 9.6811 0.2879 0.9341
10.9768 8.2485 0.2319 0.9466
9.5087 9.1332 0.2227 0.9486
9.4708 9.8601 0.2309 0.9468
9.4190 10.6319 0.2399 0.9448
9.5760 15.1431 0.3026 0.9308
6.2674 10.8555 0.2117 0.9511
11.6899 22.2734 0.4249 0.9043
4.6927 9.8897 0.1849 0.9572
4.3168 10.1318 0.1860 0.9569
3.8903 10.2580 0.1853 0.9571
2.9388 8.8029 0.1568 0.9636
2.0396 8.2749 0.1440 0.9665
1.6893 8.2749 0.1427 0.9668
1.0197 8.3978 0.1429 0.9667
0.7100 8.7957 0.1491 0.9653
0.3687 9.1487 0.1547 0.9640
-0.0000 9.6248 0.1626 0.9622
-1.1755 9.6811 0.1647 0.9617
-1.5733 9.6811 0.1657 0.9615
-1.9649 9.6248 0.1659 0.9615
-2.3628 9.5863 0.1668 0.9613
-4.1007 9.6248 0.1767 0.9590
-4.5217 9.5294 0.1782 0.9587
-5.0101 8.6777 0.1693 0.9607
-5.2799 8.3495 0.1669 0.9612
-33.8072 32.4723 0.7918 0.8290
-32.5301 28.8191 0.7341 0.8404
-35.2419 26.4825 0.7446 0.8383
-33.4103 21.1274 0.6677 0.8537
-33.3732 17.5156 0.6367 0.8600
-32.6827 13.9248 0.6001 0.8675
-44.1383 12.7848 0.7762 0.8321
-33.0430 6.7458 0.5697 0.8738
-42.8284 6.9603 0.7329 0.8406
-42.9170 5.2110 0.7303 0.8412
-43.2977 -18.4474 -0.2650 0.8284
-35.1337 -16.6711 -0.2189 0.8559
-43.3858 -22.7706 -0.2759 0.8220
-37.8791 -23.9534 -0.2523 0.8359
-24.3411 -16.8015 -0.1665 0.8884
-20.3816 -19.5768 -0.1591 0.8931
-18.6918 -19.4602 -0.1519 0.8977
-17.1985 -19.4130 -0.1460 0.9015
-18.8035 -27.2415 -0.1864 0.8760
-15.4658 -29.4675 -0.1874 0.8754
-11.0276 -23.2402 -0.1448 0.9022
-7.8613 -23.5475 -0.1398 0.9055
-7.4677 -25.7813 -0.1511 0.8982
4.2980 -21.0527 -0.1210 0.9176
7.9287 -16.7094 -0.1041 0.9287
9.1121 -17.3617 -0.1104 0.9246
12.2893 -21.2856 -0.1384 0.9064
12.0828 -19.1073 -0.1273 0.9135
14.7443 -21.3608 -0.1461 0.9014
12.6815 -15.5320 -0.1129 0.9229
16.6706 9.6248 -0.1084 0.9259
14.0255 9.6811 -0.0960 0.9341
10.9768 8.2485 -0.0773 0.9466
10.2341 8.3559 -0.0744 0.9485
9.1929 9.5708 -0.0747 0.9483
8.5515 9.6526 -0.0726 0.9497
6.6627 9.6526 -0.0660 0.9542
6.1039 9.6526 -0.0643 0.9553
5.5729 9.6526 -0.0628 0.9564
4.5802 9.6526 -0.0602 0.9582
4.1126 9.6526 -0.0591 0.9589
2.9388 8.8029 -0.0523 0.9636
2.3956 8.2705 -0.0485 0.9661
2.0396 8.2749 -0.0480 0.9665
1.6893 8.2749 -0.0476 0.9668
1.0197 8.3978 -0.0476 0.9667
-0.3879 9.6247 -0.0542 0.9622
-1.5733 9.6811 -0.0552 0.9615
-1.9649 9.6248 -0.0553 0.9615
-2.8042 9.6811 -0.0567 0.9605
-3.2321 9.6811 -0.0575 0.9600
-3.6502 9.6247 -0.0580 0.9597
-4.1007 9.6248 -0.0589 0.9590
-4.5217 9.5294 -0.0594 0.9587
-5.2800 8.3496 -0.0556 0.9613
-6.2182 8.2749 -0.0583 0.9594
-6.8803 8.4269 -0.0613 0.9574
-33.7941 32.4597 -0.2638 0.8291
-33.3731 17.5155 -0.2122 0.8601
-32.0604 15.2128 -0.1998 0.8677
-32.6827 13.9248 -0.2000 0.8675
-31.7189 12.0294 -0.1910 0.8731
-31.8007 7.8382 -0.1844 0.8772
-31.7189 6.4755 -0.1823 0.8785
-40.9499 -23.6425 -1.3314 0.8276
-25.6929 -16.2472 -0.8560 0.8855
-20.3309 -18.0116 -0.7648 0.8970
-10.6672 -22.4806 -0.7007 0.9052
-8.5475 -22.5379 -0.6787 0.9081
0.0000 -26.1957 -0.7376 0.9005
0.6359 -15.7809 -0.4447 0.9388
3.1590 -39.1314 -1.1054 0.8546
3.9886 -19.5374 -0.5615 0.9233
10.0867 -26.5962 -0.8009 0.8924
6.6609 -15.6337 -0.4785 0.9343
7.2903 -15.3639 -0.4788 0.9342
7.6691 -14.6123 -0.4647 0.9361
14.3268 -19.0655 -0.6715 0.9090
18.1622 -20.5008 -0.7712 0.8962
23.5600 -24.5286 -0.9577 0.8728
23.5600 -22.6297 -0.9198 0.8775
23.7510 -19.3920 -0.8634 0.8845
14.9663 8.6408 -0.4866 0.9332
13.1465 9.0744 -0.4498 0.9381
10.8040 8.1187 -0.3805 0.9474
10.2341 8.3559 -0.3720 0.9485
9.7800 8.6644 -0.3679 0.9491
9.5087 9.1332 -0.3712 0.9486
6.6627 9.6526 -0.3303 0.9542
5.5729 9.6526 -0.3138 0.9564
4.5802 9.6526 -0.3008 0.9581
4.1126 9.6526 -0.2954 0.9589
2.3956 8.2705 -0.2424 0.9661
1.6893 8.2749 -0.2378 0.9668
0.7100 8.7957 -0.2485 0.9653
-1.1755 9.6811 -0.2746 0.9617
-2.1834 8.8584 -0.2569 0.9641
-3.6148 9.5313 -0.2870 0.9600
-5.2800 8.3496 -0.2782 0.9612
-5.6270 8.1521 -0.2789 0.9611
-6.0930 8.1083 -0.2856 0.9602
-6.8803 8.4269 -0.3063 0.9574
-32.5301 28.8191 -1.2238 0.8404
-35.2731 26.5060 -1.2424 0.8381
-31.9449 15.1580 -0.9956 0.8681
-32.5447 13.8660 -0.9961 0.8680
-31.7189 12.0294 -0.9552 0.8731
-31.8007 10.6167 -0.9440 0.8745
-31.8007 9.2112 -0.9322 0.8759
-31.8007 7.8382 -0.9222 0.8772
-31.7189 6.4755 -0.9116 0.8785
-49.5268 6.0136 -1.4048 0.8190
-49.2955 0.0000 -2.5000 0.8208
-48.6571 -7.9075 -2.5000 0.8208
-48.2993 -9.8604 -2.5000 0.8208
-47.8630 -11.7972 -2.5000 0.8208
-45.6553 -13.2242 -2.4106 0.8267
-43.3159 -16.4275 -2.3494 0.8307
-35.1177 -16.6636 -1.9713 0.8558
-28.6022 -16.5135 -1.6749 0.8761
-18.3739 -16.2779 -1.2449 0.9064
-16.9120 -16.2442 -1.1892 0.9104
-15.4976 -16.1347 -1.1346 0.9143
-27.6024 -36.7322 -2.3302 0.8319
-26.0892 -37.7966 -2.3291 0.8320
-24.5356 -38.7999 -2.3281 0.8320
-22.9443 -39.7407 -2.3272 0.8321
-10.5730 -22.2822 -1.2508 0.9059
-9.4796 -22.2494 -1.2265 0.9077
-7.5512 -22.6185 -1.2093 0.9089
-6.8890 -23.7835 -1.2557 0.9056
-7.3451 -45.1959 -2.3221 0.8324
-1.8435 -45.7452 -2.3218 0.8325
0.6361 -15.7850 -0.8012 0.9387
3.6845 -45.6410 -2.3222 0.8324
4.8671 -40.0846 -2.0478 0.8507
7.3471 -45.2086 -2.3228 0.8324
7.7118 -26.6242 -1.4057 0.8949
9.0290 -27.0451 -1.4460 0.8921
21.4251 -40.8221 -2.3381 0.8314
9.9628 -15.7549 -0.9453 0.9281
10.7202 -15.5308 -0.9570 0.9272
12.6682 -15.5158 -1.0158 0.9229
14.8989 -15.5115 -1.0908 0.9175
18.8856 -15.4196 -1.2365 0.9070
39.4092 -29.6141 -2.5000 0.8208
42.0089 -24.2538 -2.4600 0.8234
42.0163 -22.0518 -2.4065 0.8269
42.0257 -19.9414 -2.3591 0.8300
42.6048 -18.1522 -2.3486 0.8307
43.2826 -16.4149 -2.3476 0.8308
43.9083 -14.6587 -2.3476 0.8308
47.8630 -11.7972 -2.5000 0.8208
48.2992 -9.8603 -2.5000 0.8208
48.6571 -7.9075 -2.5000 0.8208
49.2555 -1.9849 -2.5000 0.8208
49.2955 0.0000 -2.5000 0.8208
49.2555 1.9849 -2.5000 0.8208
46.1403 3.7249 -2.3476 0.8308
45.6956 7.4263 -2.3478 0.8308
45.3700 9.2624 -2.3484 0.8307
44.5542 12.9053 -2.3524 0.8305
42.6109 18.1548 -2.3489 0.8307
17.8693 8.4791 -1.0031 0.9238
14.6653 8.4670 -0.8588 0.9344
13.1091 8.2897 -0.7866 0.9398
13.1466 9.0744 -0.8101 0.9380
10.9768 8.2485 -0.6963 0.9465
10.2341 8.3559 -0.6700 0.9485
9.9056 8.7756 -0.6711 0.9484
9.5086 9.1332 -0.6686 0.9486
8.9168 9.2834 -0.6528 0.9498
7.8811 9.6526 -0.6320 0.9513
6.6627 9.6526 -0.5948 0.9541
6.1039 9.6526 -0.5792 0.9553
5.5729 9.6526 -0.5653 0.9563
5.0661 9.6526 -0.5528 0.9573
4.5802 9.6526 -0.5418 0.9581
4.1126 9.6526 -0.5321 0.9588
3.6297 9.5708 -0.5191 0.9598
2.3573 8.1385 -0.4297 0.9666
1.9888 8.0690 -0.4215 0.9673
0.6905 8.5533 -0.4352 0.9662
0.3687 9.1486 -0.4643 0.9640
-0.0000 9.6239 -0.4881 0.9622
-0.3502 8.6896 -0.4410 0.9658
-1.1755 9.6811 -0.4946 0.9617
-1.5733 9.6811 -0.4974 0.9615
-1.8691 9.1555 -0.4739 0.9633
-2.8042 9.6811 -0.5112 0.9604
-3.2321 9.6811 -0.5176 0.9599
-4.5217 9.5294 -0.5349 0.9586
-5.6270 8.1520 -0.5024 0.9611
-6.0930 8.1083 -0.5144 0.9602
-6.8803 8.4269 -0.5517 0.9574
-31.5943 32.8931 -2.3130 0.8330
-31.3508 30.1128 -2.2046 0.8402
-32.8921 26.8555 -2.1535 0.8436
-31.8050 20.1123 -1.9084 0.8601
-32.6827 13.9248 -1.8017 0.8674
-31.8007 7.8382 -1.6610 0.8771
-31.7189 6.4755 -1.6418 0.8784
-37.3229 6.0656 -1.9176 0.8595
-45.9866 5.5838 -2.3493 0.8307
-49.2555 1.9849 -2.5000 0.8208
-34.0959 0.0000 -2.5000 0.8722
-34.0683 -1.3729 -2.5000 0.8722
-33.8473 -4.1098 -2.5000 0.8722
-33.6544 -5.4694 -2.5000 0.8722
-33.1051 -8.1597 -2.5000 0.8722
-32.7497 -9.4861 -2.5000 0.8722
-30.9986 -13.2073 -2.4706 0.8736
-28.9268 -13.7259 -2.3476 0.8795
-28.3530 -14.8808 -2.3478 0.8795
-27.7391 -16.0152 -2.3485 0.8794
-27.0815 -17.1253 -2.3494 0.8794
-21.7659 -16.3560 -1.9963 0.8966
-16.9120 -16.2442 -1.7194 0.9102
-15.5731 -16.2133 -1.6484 0.9138
-14.3386 -16.1849 -1.5854 0.9169
-12.2315 -16.2772 -1.4929 0.9216
-11.1429 -16.1433 -1.4383 0.9243
-10.1741 -16.0890 -1.3958 0.9265
-7.6062 -16.0298 -1.3009 0.9313
-6.8220 -16.0118 -1.2761 0.9326
-6.0658 -15.9943 -1.2542 0.9337
-5.3341 -15.9775 -1.2351 0.9347
-4.6232 -15.9611 -1.2184 0.9355
-3.9301 -15.9452 -1.2041 0.9363
-3.2520 -15.9295 -1.1921 0.9369
-2.5863 -15.9142 -1.1822 0.9374
-1.9305 -15.8991 -1.1743 0.9378
-0.6395 -15.8694 -1.1645 0.9383
0.0000 -15.8546 -1.1625 0.9384
2.5670 -15.7955 -1.1734 0.9378
3.2216 -15.7804 -1.1809 0.9374
4.5619 -15.7496 -1.2023 0.9364
5.2527 -15.7336 -1.2162 0.9356
6.6695 -15.6539 -1.2476 0.9340
8.2217 -15.6653 -1.2972 0.9315
11.8430 -15.7602 -1.4455 0.9240
14.8989 -15.5115 -1.5770 0.9174
17.4426 -15.4529 -1.7086 0.9108
25.6035 -19.2397 -2.3483 0.8795
28.8177 -18.2232 -2.5000 0.8722
30.1904 -15.8452 -2.5000 0.8722
31.3676 -13.3645 -2.5000 0.8722
31.8803 -12.0906 -2.5000 0.8722
33.6544 -5.4694 -2.5000 0.8722
33.9854 -2.7436 -2.5000 0.8722
34.0959 0.0000 -2.5000 0.8722
34.0683 1.3729 -2.5000 0.8722
33.9854 2.7436 -2.5000 0.8722
33.8473 4.1098 -2.5000 0.8722
33.6545 5.4694 -2.5000 0.8722
31.8804 12.0906 -2.5000 0.8722
19.1516 8.1597 -1.5264 0.9199
14.7600 7.7466 -1.2222 0.9353
13.1477 8.3141 -1.1406 0.9395
10.8617 8.1620 -0.9962 0.9470
10.2341 8.3559 -0.9687 0.9484
9.8189 8.6988 -0.9618 0.9487
8.8317 8.4830 -0.8979 0.9521
8.2198 8.5578 -0.8700 0.9535
7.6523 8.6377 -0.8461 0.9548
7.2534 9.6526 -0.8853 0.9527
4.6170 8.7970 -0.7285 0.9609
3.7788 8.8692 -0.7069 0.9621
2.9388 8.8029 -0.6805 0.9635
1.6893 8.2749 -0.6192 0.9667
0.7100 8.7957 -0.6470 0.9652
0.3687 9.1486 -0.6713 0.9639
-0.3502 8.6892 -0.6376 0.9657
-0.7816 9.6811 -0.7122 0.9618
-1.5733 9.6811 -0.7192 0.9614
-1.8690 9.1548 -0.6851 0.9632
-2.8042 9.6811 -0.7390 0.9604
-3.2321 9.6811 -0.7484 0.9599
-3.5950 9.4794 -0.7434 0.9602
-3.5581 8.3511 -0.6656 0.9642
-4.5218 9.5294 -0.7734 0.9586
-4.7455 9.0419 -0.7487 0.9599
-5.0101 8.6777 -0.7347 0.9606
-6.2182 8.2749 -0.7589 0.9593
-6.8803 8.4269 -0.7977 0.9573
-23.2545 24.2105 -2.4614 0.8740
-24.2105 23.2545 -2.4614 0.8740
-25.1272 22.2608 -2.4614 0.8740
-25.9173 17.8895 -2.3091 0.8813
-26.6390 16.8455 -2.3110 0.8813
-27.3181 15.7722 -2.3129 0.8812
-28.5410 13.5428 -2.3163 0.8810
-29.0829 12.3911 -2.3179 0.8809
-29.5768 11.2170 -2.3194 0.8808
-30.3095 10.1188 -2.3429 0.8797
-30.7162 8.8970 -2.3447 0.8796
-31.6089 5.1370 -2.3480 0.8795
-33.3239 2.6902 -2.4513 0.8745
-34.0683 1.3729 -2.5000 0.8722
-26.0190 -1.0485 -2.5000 0.9006
-25.9557 -2.0954 -2.5000 0.9006
-25.8503 -3.1388 -2.5000 0.9006
-25.7030 -4.1771 -2.5000 0.9006
-25.5139 -5.2087 -2.5000 0.9006
-23.9564 -10.2069 -2.5000 0.9006
-23.5260 -11.1632 -2.5000 0.9006
-23.0574 -12.1015 -2.5000 0.9006
-20.9073 -13.2210 -2.3749 0.9054
-20.1243 -13.8908 -2.3476 0.9064
-18.9422 -15.4658 -2.3477 0.9064
-17.6454 -16.9487 -2.3489 0.9064
-16.9625 -17.6599 -2.3508 0.9063
-12.2337 -16.2801 -1.9551 0.9214
-11.1451 -16.1464 -1.8836 0.9242
-10.1741 -16.0890 -1.8276 0.9264
-6.8220 -16.0118 -1.6709 0.9325
-6.1359 -16.1791 -1.6612 0.9328
-4.6286 -15.9798 -1.5972 0.9353
-3.9681 -16.0993 -1.5919 0.9355
-4.8853 -23.9297 -2.3448 0.9065
-2.9436 -24.2427 -2.3445 0.9065
-1.9650 -24.3410 -2.3445 0.9065
-0.9833 -24.4002 -2.3444 0.9065
0.0000 -24.4202 -2.3445 0.9065
0.6347 -15.7503 -1.5133 0.9386
3.2216 -15.7804 -1.5462 0.9373
3.8858 -15.7651 -1.5588 0.9368
5.9608 -15.7173 -1.6138 0.9347
6.6695 -15.6540 -1.6336 0.9339
7.4417 -15.6832 -1.6666 0.9326
8.2217 -15.6653 -1.6985 0.9314
10.7724 -15.6065 -1.8206 0.9266
11.7112 -15.5849 -1.8716 0.9247
12.6682 -15.5158 -1.9230 0.9227
16.9708 -17.6685 -2.3520 0.9062
20.1242 -13.8907 -2.3476 0.9064
20.8817 -13.2048 -2.3720 0.9055
23.0574 -12.1015 -2.5000 0.9006
23.9564 -10.2071 -2.5000 0.9006
24.3480 -9.2340 -2.5000 0.9006
25.0121 -7.2449 -2.5000 0.9006
25.2835 -6.2318 -2.5000 0.9006
25.5139 -5.2087 -2.5000 0.9006
25.7030 -4.1771 -2.5000 0.9006
25.8503 -3.1388 -2.5000 0.9006
26.0190 -1.0485 -2.5000 0.9006
26.0402 0.0000 -2.5000 0.9006
25.7029 4.1771 -2.5000 0.9006
23.7423 5.8519 -2.3476 0.9064
23.2517 7.7626 -2.3534 0.9062
22.9285 8.6956 -2.3542 0.9062
16.5864 7.0668 -1.7309 0.9301
14.6643 7.6964 -1.5900 0.9356
13.1103 7.5692 -1.4534 0.9410
10.9768 8.2485 -1.3182 0.9463
9.7800 8.6644 -1.2544 0.9489
8.1129 8.4465 -1.1244 0.9540
7.4894 9.1729 -1.1369 0.9535
6.6627 9.6526 -1.1260 0.9540
6.1039 9.6526 -1.0964 0.9551
4.7598 8.2442 -0.9139 0.9625
3.9329 8.2884 -0.8808 0.9638
3.6240 8.5058 -0.8876 0.9635
3.6297 9.5708 -0.9827 0.9597
2.8301 8.4772 -0.8580 0.9647
2.0145 8.1730 -0.8081 0.9667
1.3384 8.2354 -0.8010 0.9670
1.0197 8.3978 -0.8122 0.9666
0.6956 8.6167 -0.8299 0.9659
0.3687 9.1486 -0.8790 0.9639
-0.0000 9.6239 -0.9239 0.9621
-0.7816 9.6811 -0.9325 0.9617
-1.1755 9.6811 -0.9363 0.9616
-1.5733 9.6811 -0.9416 0.9614
-1.9806 8.0357 -0.7946 0.9673
-2.8042 9.6811 -0.9676 0.9603
-3.2320 9.6811 -0.9799 0.9598
-4.6954 8.9463 -0.9700 0.9602
-4.9601 8.5910 -0.9524 0.9609
-5.2800 8.3496 -0.9484 0.9611
-5.6596 8.1993 -0.9565 0.9608
-6.9171 8.4719 -1.0500 0.9570
-17.7602 18.4904 -2.4614 0.9021
-18.4903 17.7602 -2.4614 0.9021
-19.8595 16.2147 -2.4614 0.9021
-20.4963 15.4019 -2.4614 0.9021
-21.0998 14.5642 -2.4614 0.9021
-21.6691 13.7028 -2.4614 0.9021
-22.2033 12.8191 -2.4614 0.9021
-22.7015 11.9146 -2.4614 0.9021
-23.1629 10.9909 -2.4614 0.9021
-23.5866 10.0493 -2.4614 0.9021
-24.8990 6.1371 -2.4620 0.9021
-25.9368 2.0938 -2.4982 0.9007
-26.0072 1.0481 -2.4989 0.9007
-21.0461 0.0000 -2.5000 0.9187
-21.0291 -0.8475 -2.5000 0.9187
-20.8927 -2.5368 -2.5000 0.9187
-20.7736 -3.3761 -2.5000 0.9187
-20.6208 -4.2098 -2.5000 0.9187
-20.4346 -5.0367 -2.5000 0.9187
-20.2152 -5.8554 -2.5000 0.9187
-19.9630 -6.6646 -2.5000 0.9187
-19.3620 -8.2494 -2.5000 0.9187
-18.6354 -9.7806 -2.5000 0.9187
-18.2265 -10.5231 -2.5000 0.9187
-17.3206 -11.9556 -2.5000 0.9187
-16.8252 -12.6433 -2.5000 0.9187
-14.2533 -13.6904 -2.3476 0.9235
-13.1054 -14.7929 -2.3476 0.9235
-11.2300 -16.2695 -2.3483 0.9235
-10.5671 -16.7105 -2.3485 0.9234
-9.1991 -17.5274 -2.3513 0.9234
-6.8220 -16.0118 -2.0674 0.9323
-6.0659 -15.9944 -2.0319 0.9334
-4.6232 -15.9611 -1.9739 0.9353
-3.9301 -15.9452 -1.9507 0.9360
-3.2520 -15.9295 -1.9312 0.9366
-2.5863 -15.9142 -1.9152 0.9371
-1.2889 -15.9662 -1.9027 0.9375
0.0000 -15.9451 -1.8941 0.9378
0.6347 -15.7503 -1.8724 0.9385
2.5670 -15.7955 -1.9009 0.9376
3.2216 -15.7804 -1.9132 0.9372
3.8858 -15.7651 -1.9287 0.9367
9.1944 -17.5184 -2.3501 0.9234
10.5640 -16.7057 -2.3479 0.9235
11.8726 -15.7996 -2.3476 0.9235
13.6904 -14.2532 -2.3476 0.9235
14.9091 -13.2083 -2.3660 0.9229
16.1515 -13.1873 -2.4768 0.9194
16.8252 -12.6433 -2.5000 0.9187
18.2265 -10.5231 -2.5000 0.9187
18.6354 -9.7806 -2.5000 0.9187
19.3620 -8.2494 -2.5000 0.9187
19.6785 -7.4631 -2.5000 0.9187
20.2152 -5.8554 -2.5000 0.9187
20.7736 -3.3760 -2.5000 0.9187
21.0291 -0.8474 -2.5000 0.9187
21.0461 0.0000 -2.5000 0.9187
20.8927 2.5368 -2.5000 0.9187
19.5072 3.1702 -2.3476 0.9235
19.1889 4.7296 -2.3476 0.9235
18.9829 5.4985 -2.3476 0.9235
18.7461 6.2584 -2.3476 0.9235
14.6645 7.6965 -1.9673 0.9355
13.1486 7.5914 -1.8035 0.9407
13.1477 8.3141 -1.8478 0.9393
10.9768 8.2485 -1.6310 0.9462
8.7937 8.4465 -1.4484 0.9521
7.1484 8.0689 -1.2805 0.9575
7.4894 9.1729 -1.4067 0.9534
7.2534 9.6526 -1.4342 0.9525
6.6627 9.6526 -1.3932 0.9539
5.1935 8.2128 -1.1543 0.9616
4.7417 8.2128 -1.1265 0.9625
4.3104 8.2128 -1.1018 0.9633
3.5698 8.3786 -1.0818 0.9640
2.8668 8.5872 -1.0754 0.9642
2.3956 8.2705 -1.0228 0.9659
1.6683 8.1717 -0.9907 0.9670
1.3384 8.2354 -0.9911 0.9669
0.7011 8.6845 -1.0350 0.9655
-0.3238 8.0358 -0.9553 0.9681
-0.7736 9.5828 -1.1420 0.9620
-1.1581 9.5380 -1.1413 0.9620
-1.8689 9.1542 -1.1098 0.9631
-1.9742 8.0096 -0.9799 0.9673
-2.3172 7.9998 -0.9893 0.9670
-3.4092 8.9894 -1.1420 0.9620
-4.6659 8.8901 -1.1926 0.9604
-4.9332 8.5446 -1.1720 0.9610
-5.2800 8.3496 -1.1735 0.9610
-6.0930 8.1083 -1.2048 0.9600
-12.8987 14.5596 -2.3106 0.9246
-14.9442 14.3541 -2.4614 0.9199
-15.5101 13.7407 -2.4614 0.9199
-16.5655 12.4481 -2.4614 0.9199
-17.9452 10.3606 -2.4614 0.9199
-18.7206 8.8830 -2.4614 0.9199
-19.0631 8.1221 -2.4614 0.9199
-19.3775 7.3489 -2.4618 0.9199
-20.0173 5.7980 -2.4755 0.9195
-20.2717 4.9965 -2.4801 0.9193
-20.5472 4.1947 -2.4911 0.9190
-20.7597 3.3738 -2.4983 0.9188
-20.9729 1.6931 -2.4994 0.9187
-21.0288 0.8474 -2.4999 0.9187
-17.6441 0.0000 -2.5000 0.9312
-17.6298 -0.7105 -2.5000 0.9312
-17.5869 -1.4198 -2.5000 0.9312
-17.4156 -2.8303 -2.5000 0.9312
-16.9475 -4.9089 -2.5000 0.9312
-16.4975 -6.2567 -2.5000 0.9312
-15.6231 -8.1996 -2.5000 0.9312
-15.2803 -8.8221 -2.5000 0.9312
-13.6672 -11.1589 -2.5000 0.9312
-12.7250 -12.2225 -2.5000 0.9312
-10.7850 -13.2093 -2.4162 0.9334
-9.9534 -13.2456 -2.3476 0.9353
-9.4120 -13.6356 -2.3476 0.9353
-8.2843 -14.3488 -2.3476 0.9353
-7.6998 -14.6707 -2.3476 0.9353
-6.4943 -15.2427 -2.3476 0.9353
-5.8754 -15.4919 -2.3476 0.9353
-5.2470 -15.7166 -2.3477 0.9353
-1.9975 -16.4513 -2.3481 0.9352
-1.3335 -16.5186 -2.3481 0.9352
-0.6673 -16.5589 -2.3481 0.9352
0.0000 -16.5723 -2.3481 0.9352
0.6347 -15.7503 -2.2335 0.9383
1.9974 -16.4504 -2.3480 0.9352
2.6581 -16.3561 -2.3479 0.9352
3.3144 -16.2350 -2.3478 0.9352
3.9653 -16.0876 -2.3477 0.9353
5.2467 -15.7159 -2.3476 0.9353
5.8753 -15.4919 -2.3476 0.9353
6.4943 -15.2427 -2.3476 0.9353
7.1028 -14.9689 -2.3476 0.9353
7.6998 -14.6707 -2.3476 0.9353
9.4120 -13.6356 -2.3476 0.9353
11.6813 -13.1855 -2.4960 0.9313
12.2225 -12.7250 -2.5000 0.9312
12.7250 -12.2225 -2.5000 0.9312
13.2068 -11.7002 -2.5000 0.9312
14.9126 -9.4302 -2.5000 0.9312
15.6231 -8.1996 -2.5000 0.9312
16.4975 -6.2567 -2.5000 0.9312
16.9475 -4.9089 -2.5000 0.9312
17.2875 -3.5293 -2.5000 0.9312
17.5155 -2.1268 -2.5000 0.9312
17.5869 -1.4198 -2.5000 0.9312
17.6298 -0.7104 -2.5000 0.9312
17.6441 0.0000 -2.5000 0.9312
17.6298 0.7104 -2.5000 0.9312
17.5869 1.4198 -2.5000 0.9312
16.7327 2.7193 -2.4020 0.9338
16.2337 3.3141 -2.3476 0.9353
15.9144 4.6097 -2.3476 0.9353
15.4918 5.8753 -2.3476 0.9353
15.2427 6.4943 -2.3476 0.9353
13.1484 7.5912 -2.1512 0.9405
13.1475 8.3140 -2.2041 0.9391
13.1466 9.0745 -2.2634 0.9375
10.2341 8.3559 -1.8720 0.9480
9.8752 8.7486 -1.8693 0.9481
5.1935 8.2128 -1.3768 0.9615
3.8970 8.2128 -1.2880 0.9639
3.5540 8.3416 -1.2847 0.9640
3.6297 9.5708 -1.4503 0.9595
2.9388 8.8029 -1.3150 0.9632
2.0014 8.1200 -1.1850 0.9668
1.3384 8.2354 -1.1822 0.9669
0.3687 9.1486 -1.2973 0.9637
-0.3169 7.8625 -1.1149 0.9687
-1.4306 8.8024 -1.2636 0.9646
-2.2655 7.8212 -1.1537 0.9676
-3.3218 8.7588 -1.3273 0.9629
-3.5934 8.4341 -1.2990 0.9636
-5.0101 8.6777 -1.4198 0.9603
-5.2800 8.3496 -1.3997 0.9609
-5.6270 8.1521 -1.4035 0.9608
-6.2182 8.2749 -1.4666 0.9590
-10.8313 12.2260 -2.3143 0.9361
-12.2137 10.8204 -2.3120 0.9362
-12.6331 10.3146 -2.3108 0.9362
-13.0319 9.7928 -2.3097 0.9363
-14.6825 9.2846 -2.4614 0.9322
-15.0444 8.6859 -2.4614 0.9322
-16.8472 4.8798 -2.4852 0.9316
-17.4111 2.8296 -2.4993 0.9312
-17.5140 2.1266 -2.4998 0.9312
-17.5869 1.4198 -2.5000 0.9312
-15.0648 -1.8292 -2.5000 0.9403
-14.9789 -2.4343 -2.5000 0.9403
-14.7344 -3.6317 -2.5000 0.9403
-13.9611 -5.9482 -2.5000 0.9403
-13.7102 -6.5056 -2.5000 0.9403
-13.4372 -7.0524 -2.5000 0.9403
-12.8261 -8.1107 -2.5000 0.9403
-12.1319 -9.1165 -2.5000 0.9403
-11.7549 -9.5976 -2.5000 0.9403
-10.9445 -10.5124 -2.5000 0.9403
-9.1165 -12.1319 -2.5000 0.9403
-8.6206 -12.4891 -2.5000 0.9403
-6.2677 -13.2089 -2.4086 0.9425
-3.4103 -13.8362 -2.3476 0.9439
-2.8504 -13.9623 -2.3476 0.9439
-0.5738 -14.2387 -2.3476 0.9439
1.1467 -14.2041 -2.3476 0.9439
2.8504 -13.9623 -2.3476 0.9439
3.4103 -13.8362 -2.3476 0.9439
4.5126 -13.5169 -2.3476 0.9439
5.0532 -13.3243 -2.3476 0.9439
5.6291 -13.2120 -2.3659 0.9434
8.1107 -12.8261 -2.5000 0.9403
9.1165 -12.1319 -2.5000 0.9403
10.0632 -11.3590 -2.5000 0.9403
10.5124 -10.9445 -2.5000 0.9403
10.9445 -10.5124 -2.5000 0.9403
11.3590 -10.0632 -2.5000 0.9403
11.7550 -9.5976 -2.5000 0.9403
12.1319 -9.1165 -2.5000 0.9403
12.8261 -8.1107 -2.5000 0.9403
13.9611 -5.9483 -2.5000 0.9403
14.1892 -5.3813 -2.5000 0.9403
14.3944 -4.8056 -2.5000 0.9403
14.5763 -4.2221 -2.5000 0.9403
14.9789 -2.4343 -2.5000 0.9403
15.0647 -1.8292 -2.5000 0.9403
15.1262 -1.2211 -2.5000 0.9403
15.1631 -0.6110 -2.5000 0.9403
15.1262 1.2211 -2.5000 0.9403
13.9624 2.8504 -2.3476 0.9439
12.6180 6.6225 -2.3476 0.9439
12.2971 7.0997 -2.3392 0.9441
10.8041 8.1187 -2.2264 0.9467
9.7832 8.6671 -2.1532 0.9484
8.9079 8.5562 -2.0348 0.9512
6.7015 8.2079 -1.7456 0.9580
6.0115 8.7091 -1.7433 0.9580
5.1935 8.2128 -1.6008 0.9614
4.3104 8.2128 -1.5280 0.9631
3.6297 9.5708 -1.6863 0.9594
2.9196 8.7451 -1.5188 0.9633
1.6893 8.2749 -1.3913 0.9663
1.3384 8.2354 -1.3745 0.9667
0.7100 8.7957 -1.4537 0.9649
0.3687 9.1486 -1.5084 0.9636
-0.3127 7.7587 -1.2792 0.9690
-1.0419 8.5810 -1.4240 0.9656
-1.3948 8.5825 -1.4324 0.9654
-1.8887 7.6625 -1.3001 0.9685
-3.2541 8.5805 -1.5118 0.9635
-3.5935 8.4342 -1.5103 0.9635
-3.5942 7.5745 -1.3812 0.9666
-4.7455 9.0419 -1.6822 0.9594
-5.0101 8.6777 -1.6507 0.9602
-6.8803 8.4269 -1.7922 0.9569
-9.7317 10.1317 -2.3143 0.9446
-10.1318 9.7317 -2.3143 0.9446
-11.5572 7.9774 -2.3135 0.9447
-12.1427 7.0106 -2.3098 0.9447
-12.7419 6.0461 -2.3234 0.9444
-13.8171 5.8869 -2.4742 0.9409
-14.0975 5.3465 -2.4838 0.9407
-14.7312 3.6309 -2.4994 0.9403
-15.0648 1.8292 -2.5000 0.9403
-15.1262 1.2211 -2.5000 0.9403
-15.1631 0.6110 -2.5000 0.9403
-13.2898 -0.5356 -2.5000 0.9473
-13.2574 -1.0703 -2.5000 0.9473
-13.2036 -1.6032 -2.5000 0.9473
-12.7754 -3.7005 -2.5000 0.9473
-12.4362 -4.7164 -2.5000 0.9473
-12.2362 -5.2134 -2.5000 0.9473
-12.0164 -5.7018 -2.5000 0.9473
-11.5186 -6.6503 -2.5000 0.9473
-11.2415 -7.1087 -2.5000 0.9473
-10.9462 -7.5556 -2.5000 0.9473
-9.9556 -8.8199 -2.5000 0.9473
-9.5924 -9.2136 -2.5000 0.9473
-9.2136 -9.5924 -2.5000 0.9473
-8.4119 -10.3027 -2.5000 0.9473
-7.1087 -11.2415 -2.5000 0.9473
-6.6503 -11.5186 -2.5000 0.9473
-6.1811 -11.7771 -2.5000 0.9473
-4.7164 -12.4362 -2.5000 0.9473
-3.7005 -12.7754 -2.5000 0.9473
-2.6605 -13.0318 -2.5000 0.9473
-2.1336 -13.1283 -2.5000 0.9473
0.0000 -13.1932 -2.4798 0.9477
1.0649 -13.1913 -2.4875 0.9476
1.6015 -13.1893 -2.4973 0.9474
2.1334 -13.1283 -2.5000 0.9473
2.6603 -13.0318 -2.5000 0.9473
3.7004 -12.7754 -2.5000 0.9473
4.2119 -12.6161 -2.5000 0.9473
4.7164 -12.4362 -2.5000 0.9473
5.7019 -12.0164 -2.5000 0.9473
6.1811 -11.7771 -2.5000 0.9473
7.1087 -11.2415 -2.5000 0.9473
8.4119 -10.3027 -2.5000 0.9473
9.2136 -9.5924 -2.5000 0.9473
9.5923 -9.2136 -2.5000 0.9473
9.9556 -8.8199 -2.5000 0.9473
10.3027 -8.4119 -2.5000 0.9473
10.6330 -7.9902 -2.5000 0.9473
10.9462 -7.5556 -2.5000 0.9473
11.2415 -7.1087 -2.5000 0.9473
12.0164 -5.7018 -2.5000 0.9473
12.2362 -5.2134 -2.5000 0.9473
12.4362 -4.7164 -2.5000 0.9473
12.6161 -4.2119 -2.5000 0.9473
13.0318 -2.6605 -2.5000 0.9473
13.2574 -1.0703 -2.5000 0.9473
13.3006 0.0000 -2.5000 0.9473
12.1268 2.9890 -2.3476 0.9504
11.8470 3.9551 -2.3476 0.9504
11.6781 4.4289 -2.3476 0.9504
11.0591 5.8043 -2.3476 0.9504
10.8164 6.2449 -2.3476 0.9504
10.2529 7.0771 -2.3417 0.9506
9.6259 7.8593 -2.3358 0.9507
8.6163 8.9705 -2.3379 0.9506
7.0138 7.9169 -1.9880 0.9579
6.6925 8.9061 -2.0940 0.9557
5.7582 8.3423 -1.9053 0.9596
4.3104 8.2128 -1.7434 0.9630
3.8970 8.2128 -1.7087 0.9637
2.3956 8.2705 -1.6184 0.9656
1.6893 8.2749 -1.5874 0.9662
1.3384 8.2354 -1.5683 0.9666
1.0197 8.3978 -1.5901 0.9662
-0.0000 9.6243 -1.8090 0.9616
-0.3499 8.6820 -1.6332 0.9653
-0.6081 7.5321 -1.4204 0.9697
-1.0196 8.3970 -1.5899 0.9662
-1.7148 8.3998 -1.6114 0.9657
-1.8482 7.4982 -1.4516 0.9691
-2.8038 8.3984 -1.6642 0.9646
-3.4955 8.2043 -1.6762 0.9644
-3.5534 7.4886 -1.5580 0.9668
-4.9894 8.6418 -1.8756 0.9602
-5.6270 8.1521 -1.8619 0.9605
-6.2182 8.2749 -1.9455 0.9587
-8.1703 9.2224 -2.3159 0.9511
-8.5331 8.8839 -2.3153 0.9511
-8.8820 8.5313 -2.3148 0.9511
-9.2164 8.1650 -2.3144 0.9511
-9.5376 7.7872 -2.3143 0.9511
-10.1395 6.9988 -2.3158 0.9511
-10.4804 6.6274 -2.3307 0.9508
-11.0359 5.7921 -2.3427 0.9505
-11.4846 4.8931 -2.3464 0.9505
-11.6769 4.4285 -2.3473 0.9504
-12.7740 3.7000 -2.4997 0.9473
-13.0318 2.6604 -2.5000 0.9473
-13.1283 2.1336 -2.5000 0.9473
-13.2898 0.5355 -2.5000 0.9473
-11.8270 -0.0000 -2.5000 0.9528
-11.7407 -1.4256 -2.5000 0.9528
-11.6738 -1.8972 -2.5000 0.9528
-11.4833 -2.8304 -2.5000 0.9528
-10.6851 -5.0701 -2.5000 0.9528
-10.4723 -5.4963 -2.5000 0.9528
-9.7334 -6.7185 -2.5000 0.9528
-9.4550 -7.1050 -2.5000 0.9528
-9.1612 -7.4799 -2.5000 0.9528
-6.3211 -9.9961 -2.5000 0.9528
-5.9135 -10.2425 -2.5000 0.9528
-5.0702 -10.6851 -2.5000 0.9528
-4.6358 -10.8806 -2.5000 0.9528
-3.2905 -11.3600 -2.5000 0.9528
-2.3657 -11.5880 -2.5000 0.9528
-1.8972 -11.6738 -2.5000 0.9528
-1.4256 -11.7408 -2.5000 0.9528
-0.9517 -11.7886 -2.5000 0.9528
-0.4762 -11.8174 -2.5000 0.9528
0.9517 -11.7886 -2.5000 0.9528
2.3657 -11.5880 -2.5000 0.9528
3.2905 -11.3600 -2.5000 0.9528
4.1939 -11.0584 -2.5000 0.9528
5.4964 -10.4723 -2.5000 0.9528
6.7185 -9.7334 -2.5000 0.9528
7.4800 -9.1612 -2.5000 0.9528
7.8427 -8.8526 -2.5000 0.9528
8.1928 -8.5296 -2.5000 0.9528
8.5296 -8.1928 -2.5000 0.9528
8.8526 -7.8427 -2.5000 0.9528
10.2425 -5.9135 -2.5000 0.9528
10.6851 -5.0701 -2.5000 0.9528
11.2183 -3.7452 -2.5000 0.9528
11.3600 -3.2905 -2.5000 0.9528
11.5879 -2.3657 -2.5000 0.9528
11.7886 -0.9517 -2.5000 0.9528
11.8174 -0.4762 -2.5000 0.9528
11.7886 0.9517 -2.5000 0.9528
11.5879 2.3657 -2.5000 0.9528
10.2173 4.3532 -2.3476 0.9556
10.0337 4.7610 -2.3476 0.9556
9.8339 5.1612 -2.3476 0.9556
9.3867 5.9358 -2.3476 0.9556
8.8786 6.6718 -2.3476 0.9556
8.5833 7.0081 -2.3423 0.9557
8.2627 7.3201 -2.3334 0.9559
7.9605 7.6462 -2.3332 0.9559
7.6481 7.9625 -2.3338 0.9559
7.0250 7.9295 -2.2393 0.9576
6.7279 8.2402 -2.2486 0.9574
6.0951 8.1111 -2.1447 0.9594
5.7079 8.2694 -2.1240 0.9598
5.2082 8.2361 -2.0598 0.9609
4.3104 8.2128 -1.9606 0.9628
3.8970 8.2128 -1.9215 0.9635
3.5698 8.3786 -1.9251 0.9635
3.6297 9.5708 -2.1637 0.9590
2.3956 8.2705 -1.8201 0.9654
1.6893 8.2749 -1.7852 0.9661
1.3384 8.2354 -1.7636 0.9665
0.7100 8.7954 -1.8652 0.9646
0.0000 9.6245 -2.0344 0.9614
-0.3499 8.6826 -1.8368 0.9651
-0.5771 7.1482 -1.5159 0.9711
-1.6758 8.2084 -1.7709 0.9663
-1.8667 7.5736 -1.6488 0.9686
-2.0341 7.0225 -1.5454 0.9706
-2.7204 8.1487 -1.8159 0.9655
-3.5922 7.5704 -1.7712 0.9663
-3.7081 7.0652 -1.6866 0.9679
-5.0101 8.6777 -2.1181 0.9599
-5.2800 8.3496 -2.0882 0.9604
-5.6270 8.1521 -2.0938 0.9603
-6.1193 8.1433 -2.1532 0.9592
-7.2690 8.2050 -2.3171 0.9562
-7.5904 7.9024 -2.3161 0.9562
-7.9016 7.5896 -2.3159 0.9562
-8.2000 7.2646 -2.3157 0.9562
-8.6029 7.0237 -2.3475 0.9556
-8.8786 6.6718 -2.3476 0.9556
-10.0337 4.7611 -2.3476 0.9556
-10.5345 3.5169 -2.3476 0.9556
-11.7886 0.9517 -2.5000 0.9528
-11.8174 0.4762 -2.5000 0.9528
-10.6027 -0.8559 -2.5000 0.9572
-10.5596 -1.2822 -2.5000 0.9572
-10.4994 -1.7063 -2.5000 0.9572
-10.4222 -2.1277 -2.5000 0.9572
-10.0898 -3.3685 -2.5000 0.9572
-9.9460 -3.7720 -2.5000 0.9572
-9.6102 -4.5601 -2.5000 0.9572
-9.4188 -4.9433 -2.5000 0.9572
-9.2121 -5.3186 -2.5000 0.9572
-8.5038 -6.3902 -2.5000 0.9572
-8.2396 -6.7274 -2.5000 0.9572
-7.9621 -7.0538 -2.5000 0.9572
-6.7274 -8.2396 -2.5000 0.9572
-6.0426 -8.7542 -2.5000 0.9572
-5.6852 -8.9905 -2.5000 0.9572
-5.3186 -9.2121 -2.5000 0.9572
-4.5601 -9.6102 -2.5000 0.9572
-3.3685 -10.0898 -2.5000 0.9572
-1.2822 -10.5596 -2.5000 0.9572
-0.8560 -10.6027 -2.5000 0.9572
-0.4283 -10.6286 -2.5000 0.9572
0.4282 -10.6286 -2.5000 0.9572
0.8559 -10.6027 -2.5000 0.9572
1.7063 -10.4995 -2.5000 0.9572
2.5456 -10.3281 -2.5000 0.9572
3.3684 -10.0898 -2.5000 0.9572
4.1694 -9.7860 -2.5000 0.9572
4.5601 -9.6102 -2.5000 0.9572
4.9434 -9.4188 -2.5000 0.9572
5.6852 -8.9905 -2.5000 0.9572
6.0426 -8.7542 -2.5000 0.9572
6.3902 -8.5038 -2.5000 0.9572
6.7274 -8.2396 -2.5000 0.9572
7.0538 -7.9621 -2.5000 0.9572
7.6716 -7.3686 -2.5000 0.9572
8.2396 -6.7275 -2.5000 0.9572
8.5038 -6.3902 -2.5000 0.9572
8.9904 -5.6852 -2.5000 0.9572
9.2121 -5.3186 -2.5000 0.9572
9.4188 -4.9433 -2.5000 0.9572
9.7860 -4.1694 -2.5000 0.9572
9.9459 -3.7720 -2.5000 0.9572
10.0898 -3.3685 -2.5000 0.9572
10.2172 -2.9595 -2.5000 0.9572
10.3281 -2.5457 -2.5000 0.9572
10.4995 -1.7063 -2.5000 0.9572
10.5596 -1.2822 -2.5000 0.9572
10.6286 0.4283 -2.5000 0.9572
10.3281 2.5456 -2.5000 0.9572
9.5944 2.7791 -2.3476 0.9598
9.4747 3.1631 -2.3476 0.9598
9.1894 3.9152 -2.3476 0.9598
8.8446 4.6420 -2.3476 0.9598
8.6505 4.9944 -2.3476 0.9598
8.2206 5.6743 -2.3476 0.9598
7.9854 6.0007 -2.3476 0.9598
7.4767 6.6238 -2.3476 0.9598
6.5785 7.4256 -2.3315 0.9601
5.6367 8.1661 -2.3320 0.9600
5.3039 8.3874 -2.3323 0.9600
4.9623 8.5950 -2.3325 0.9600
4.2551 8.9675 -2.3328 0.9600
3.8907 9.1319 -2.3329 0.9600
3.5192 9.2795 -2.3325 0.9600
1.6893 8.2749 -1.9849 0.9659
0.0000 9.6247 -2.2620 0.9612
-0.3499 8.6825 -2.0422 0.9649
-0.9737 8.0195 -1.8986 0.9674
-1.3035 8.0208 -1.9098 0.9672
-1.6378 8.0222 -1.9243 0.9669
-2.0469 7.0668 -1.7291 0.9702
-2.6274 7.8701 -1.9500 0.9665
-2.9731 7.8395 -1.9705 0.9661
-3.5923 7.5707 -1.9694 0.9662
-5.6046 8.1197 -2.3188 0.9603
-5.9249 7.8846 -2.3179 0.9603
-6.8778 7.1605 -2.3334 0.9600
-7.7373 6.3173 -2.3476 0.9598
-8.2206 5.6742 -2.3476 0.9598
-8.6505 4.9944 -2.3476 0.9598
-8.8446 4.6420 -2.3476 0.9598
-9.0243 4.2821 -2.3476 0.9598
-9.4747 3.1631 -2.3476 0.9598
-9.6554 2.7967 -2.3625 0.9595
-10.4222 2.1277 -2.5000 0.9572
-10.4994 1.7063 -2.5000 0.9572
-10.5597 1.2821 -2.5000 0.9572
-10.6027 0.8559 -2.5000 0.9572
-9.6555 0.0000 -2.5000 0.9609
-9.4604 -1.9314 -2.5000 0.9609
-9.3749 -2.3107 -2.5000 0.9609
-9.2743 -2.6863 -2.5000 0.9609
-9.1586 -3.0576 -2.5000 0.9609
-8.7233 -4.1392 -2.5000 0.9609
-8.5496 -4.4871 -2.5000 0.9609
-8.1607 -5.1606 -2.5000 0.9609
-7.9463 -5.4850 -2.5000 0.9609
-7.7190 -5.8005 -2.5000 0.9609
-7.4792 -6.1066 -2.5000 0.9609
-6.6886 -6.9636 -2.5000 0.9609
-6.4028 -7.2272 -2.5000 0.9609
-5.1606 -8.1608 -2.5000 0.9609
-4.8278 -8.3619 -2.5000 0.9609
-3.4239 -9.0281 -2.5000 0.9609
-3.0576 -9.1586 -2.5000 0.9609
-1.9314 -9.4604 -2.5000 0.9609
-1.1638 -9.5851 -2.5000 0.9609
-0.3888 -9.6477 -2.5000 0.9609
0.3888 -9.6477 -2.5000 0.9609
1.9314 -9.4604 -2.5000 0.9609
2.3107 -9.3749 -2.5000 0.9609
2.6863 -9.2743 -2.5000 0.9609
3.0576 -9.1586 -2.5000 0.9609
3.4239 -9.0281 -2.5000 0.9609
3.7846 -8.8829 -2.5000 0.9609
5.1605 -8.1608 -2.5000 0.9609
6.6886 -6.9636 -2.5000 0.9609
7.2272 -6.4028 -2.5000 0.9609
7.7190 -5.8005 -2.5000 0.9609
8.1607 -5.1605 -2.5000 0.9609
8.3619 -4.8278 -2.5000 0.9609
8.5495 -4.4871 -2.5000 0.9609
9.0281 -3.4239 -2.5000 0.9609
9.3749 -2.3107 -2.5000 0.9609
9.4604 -1.9314 -2.5000 0.9609
9.5851 -1.1638 -2.5000 0.9609
9.6242 -0.7769 -2.5000 0.9609
9.6477 0.3888 -2.5000 0.9609
9.5851 1.1638 -2.5000 0.9609
9.5305 1.5488 -2.5000 0.9609
9.4604 1.9314 -2.5000 0.9609
9.3749 2.3107 -2.5000 0.9609
8.6003 2.8712 -2.3476 0.9632
8.3414 3.5539 -2.3476 0.9632
8.1915 3.8869 -2.3476 0.9632
7.6633 4.8459 -2.3476 0.9632
7.4619 5.1506 -2.3476 0.9632
6.5391 6.2809 -2.3476 0.9632
6.2809 6.5391 -2.3476 0.9632
5.4070 7.1953 -2.3304 0.9635
4.1816 7.9673 -2.3297 0.9635
3.8575 8.1296 -2.3298 0.9635
3.5271 8.2785 -2.3299 0.9635
2.8495 8.5354 -2.3299 0.9635
2.0014 8.1200 -2.1653 0.9660
1.3384 8.2354 -2.1603 0.9661
0.6956 8.6167 -2.2383 0.9649
-0.3497 8.6786 -2.2489 0.9647
-1.2741 7.8398 -2.0565 0.9677
-1.8670 7.5745 -2.0199 0.9683
-2.0493 7.0749 -1.9071 0.9700
-2.9027 7.6537 -2.1194 0.9667
-3.5925 7.5709 -2.1697 0.9660
-4.7875 7.5708 -2.3193 0.9637
-5.3988 7.1845 -2.3269 0.9635
-5.7339 7.0227 -2.3474 0.9632
-6.0125 6.7867 -2.3476 0.9632
-6.2809 6.5391 -2.3476 0.9632
-6.5391 6.2809 -2.3476 0.9632
-6.7867 6.0125 -2.3476 0.9632
-7.0233 5.7343 -2.3476 0.9632
-7.6633 4.8459 -2.3476 0.9632
-8.0284 4.2136 -2.3476 0.9632
-8.1915 3.8869 -2.3476 0.9632
-8.4777 3.2152 -2.3476 0.9632
-9.4604 1.9314 -2.5000 0.9609
-9.5305 1.5488 -2.5000 0.9609
-9.6242 0.7769 -2.5000 0.9609
-9.6477 0.3888 -2.5000 0.9609
-8.8238 -0.3556 -2.5000 0.9640
-8.8023 -0.7106 -2.5000 0.9640
-8.6525 -1.7664 -2.5000 0.9640
-8.5744 -2.1134 -2.5000 0.9640
-8.4823 -2.4569 -2.5000 0.9640
-8.3765 -2.7965 -2.5000 0.9640
-8.1243 -3.4615 -2.5000 0.9640
-7.2677 -5.0166 -2.5000 0.9640
-6.8405 -5.5851 -2.5000 0.9640
-6.6101 -5.8560 -2.5000 0.9640
-6.3689 -6.1174 -2.5000 0.9640
-6.1174 -6.3689 -2.5000 0.9640
-5.8560 -6.6101 -2.5000 0.9640
-5.5851 -6.8405 -2.5000 0.9640
-5.0166 -7.2677 -2.5000 0.9640
-4.4155 -7.6479 -2.5000 0.9640
-2.1134 -8.5744 -2.5000 0.9640
-1.7664 -8.6525 -2.5000 0.9640
-1.4166 -8.7166 -2.5000 0.9640
-1.0645 -8.7666 -2.5000 0.9640
-0.7106 -8.8023 -2.5000 0.9640
0.0000 -8.8310 -2.5000 0.9640
0.3556 -8.8238 -2.5000 0.9640
0.7106 -8.8023 -2.5000 0.9640
1.0644 -8.7666 -2.5000 0.9640
1.4166 -8.7166 -2.5000 0.9640
1.7664 -8.6525 -2.5000 0.9640
2.1134 -8.5744 -2.5000 0.9640
3.1315 -8.2571 -2.5000 0.9640
3.4614 -8.1243 -2.5000 0.9640
4.1039 -7.8194 -2.5000 0.9640
4.4155 -7.6479 -2.5000 0.9640
5.3051 -7.0599 -2.5000 0.9640
5.5851 -6.8405 -2.5000 0.9640
5.8560 -6.6101 -2.5000 0.9640
6.1174 -6.3689 -2.5000 0.9640
6.6101 -5.8560 -2.5000 0.9640
6.8405 -5.5851 -2.5000 0.9640
7.0599 -5.3051 -2.5000 0.9640
7.6478 -4.4155 -2.5000 0.9640
7.9783 -3.7858 -2.5000 0.9640
8.1243 -3.4614 -2.5000 0.9640
8.2571 -3.1315 -2.5000 0.9640
8.3765 -2.7965 -2.5000 0.9640
8.7166 -1.4166 -2.5000 0.9640
8.7666 -1.0645 -2.5000 0.9640
8.8310 0.0000 -2.5000 0.9640
8.8238 0.3556 -2.5000 0.9640
8.8023 0.7106 -2.5000 0.9640
8.7166 1.4166 -2.5000 0.9640
8.6526 1.7664 -2.5000 0.9640
8.5743 2.1134 -2.5000 0.9640
8.1227 2.7118 -2.4242 0.9650
7.7537 2.9406 -2.3476 0.9661
7.4920 3.5550 -2.3476 0.9661
7.3428 3.8538 -2.3476 0.9661
7.1816 4.1463 -2.3476 0.9661
7.0088 4.4321 -2.3476 0.9661
6.4235 5.2446 -2.3476 0.9661
4.7107 6.8247 -2.3476 0.9661
4.4272 7.0010 -2.3450 0.9662
4.1216 7.1388 -2.3336 0.9663
3.5257 7.4303 -2.3283 0.9664
2.9154 7.6874 -2.3275 0.9664
2.6034 7.7982 -2.3274 0.9664
2.2872 7.8964 -2.3273 0.9664
1.9673 7.9817 -2.3272 0.9664
1.6442 8.0539 -2.3270 0.9664
1.3185 8.1129 -2.3268 0.9664
0.9906 8.1586 -2.3266 0.9664
0.6612 8.1908 -2.3263 0.9664
-0.3307 8.2069 -2.3252 0.9664
-0.5716 7.0805 -2.0110 0.9709
-0.9292 7.6523 -2.1822 0.9685
-1.2439 7.6536 -2.1951 0.9683
-1.8671 7.5750 -2.2086 0.9681
-2.4988 7.4847 -2.2338 0.9677
-2.8381 7.4834 -2.2657 0.9673
-3.5143 7.4061 -2.3207 0.9665
-3.7219 7.0915 -2.2673 0.9673
-4.1228 7.1408 -2.3342 0.9663
-4.4322 7.0087 -2.3475 0.9661
-5.4990 6.2071 -2.3476 0.9661
-5.7445 5.9806 -2.3476 0.9661
-6.2071 5.4990 -2.3476 0.9661
-6.4235 5.2446 -2.3476 0.9661
-6.6295 4.9817 -2.3476 0.9661
-7.4920 3.5550 -2.3476 0.9661
-7.6291 3.2504 -2.3476 0.9661
-8.4823 2.4569 -2.5000 0.9640
-8.5743 2.1134 -2.5000 0.9640
-8.7666 1.0644 -2.5000 0.9640
-8.8023 0.7106 -2.5000 0.9640
-8.1280 0.0000 -2.5000 0.9666
-8.1213 -0.3273 -2.5000 0.9666
-7.8918 -1.9451 -2.5000 0.9666
-7.8071 -2.2613 -2.5000 0.9666
-7.7096 -2.5739 -2.5000 0.9666
-7.3432 -3.4844 -2.5000 0.9666
-7.1970 -3.7772 -2.5000 0.9666
-6.8697 -4.3441 -2.5000 0.9666
-6.4978 -4.8828 -2.5000 0.9666
-6.2960 -5.1405 -2.5000 0.9666
-6.0839 -5.3898 -2.5000 0.9666
-5.8619 -5.6304 -2.5000 0.9666
-5.6304 -5.8619 -2.5000 0.9666
-5.3898 -6.0839 -2.5000 0.9666
-4.8828 -6.4978 -2.5000 0.9666
-4.3441 -6.8697 -2.5000 0.9666
-2.2613 -7.8071 -2.5000 0.9666
-1.6258 -7.9637 -2.5000 0.9666
-1.3038 -8.0227 -2.5000 0.9666
-0.9797 -8.0687 -2.5000 0.9666
-0.6540 -8.1016 -2.5000 0.9666
-0.0000 -8.1280 -2.5000 0.9666
0.6540 -8.1016 -2.5000 0.9666
1.3038 -8.0227 -2.5000 0.9666
1.9451 -7.8918 -2.5000 0.9666
2.5739 -7.7097 -2.5000 0.9666
3.1859 -7.4776 -2.5000 0.9666
3.4844 -7.3432 -2.5000 0.9666
3.7772 -7.1970 -2.5000 0.9666
4.3441 -6.8697 -2.5000 0.9666
4.8828 -6.4978 -2.5000 0.9666
5.1405 -6.2960 -2.5000 0.9666
5.6304 -5.8619 -2.5000 0.9666
5.8619 -5.6304 -2.5000 0.9666
6.0839 -5.3898 -2.5000 0.9666
6.2960 -5.1405 -2.5000 0.9666
6.6892 -4.6172 -2.5000 0.9666
6.8697 -4.3441 -2.5000 0.9666
7.0390 -4.0640 -2.5000 0.9666
7.3432 -3.4844 -2.5000 0.9666
7.5998 -2.8822 -2.5000 0.9666
7.7096 -2.5739 -2.5000 0.9666
7.9637 -1.6258 -2.5000 0.9666
8.0687 -0.9797 -2.5000 0.9666
8.1016 -0.6540 -2.5000 0.9666
8.1279 0.0000 -2.5000 0.9666
8.1214 0.3273 -2.5000 0.9666
8.0687 0.9797 -2.5000 0.9666
7.9637 1.6258 -2.5000 0.9666
7.8918 1.9452 -2.5000 0.9666
7.8070 2.2613 -2.5000 0.9666
7.7097 2.5739 -2.5000 0.9666
7.1809 2.7234 -2.3622 0.9684
7.0217 2.9917 -2.3476 0.9686
6.8955 3.2720 -2.3476 0.9686
6.7582 3.5470 -2.3476 0.9686
6.4509 4.0793 -2.3476 0.9686
6.1017 4.5851 -2.3476 0.9686
5.9122 4.8271 -2.3476 0.9686
5.5046 5.2872 -2.3476 0.9686
5.0613 5.7130 -2.3476 0.9686
4.8271 5.9121 -2.3476 0.9686
4.5851 6.1017 -2.3476 0.9686
4.0793 6.4509 -2.3476 0.9686
2.6950 7.1061 -2.3376 0.9687
2.3958 7.1766 -2.3271 0.9688
2.1047 7.2662 -2.3268 0.9688
1.8101 7.3439 -2.3264 0.9688
1.5127 7.4098 -2.3261 0.9688
0.3043 7.5521 -2.3247 0.9689
-0.3042 7.5500 -2.3241 0.9689
-0.5722 7.0885 -2.1874 0.9707
-1.2116 7.4552 -2.3231 0.9689
-1.5106 7.3994 -2.3228 0.9689
-2.3951 7.1741 -2.3263 0.9688
-2.6947 7.1053 -2.3373 0.9687
-3.2720 6.8956 -2.3476 0.9686
-4.8271 5.9121 -2.3476 0.9686
-5.0613 5.7130 -2.3476 0.9686
-5.2872 5.5046 -2.3476 0.9686
-5.5046 5.2872 -2.3476 0.9686
-5.7130 5.0613 -2.3476 0.9686
-6.2814 4.3357 -2.3476 0.9686
-6.4509 4.0793 -2.3476 0.9686
-6.6099 3.8162 -2.3476 0.9686
-6.7582 3.5470 -2.3476 0.9686
-7.1729 2.7203 -2.3595 0.9684
-7.7097 2.5739 -2.5000 0.9666
-7.8070 2.2613 -2.5000 0.9666
-7.9637 1.6258 -2.5000 0.9666
-8.0227 1.3038 -2.5000 0.9666
-8.1214 0.3273 -2.5000 0.9666
-7.5209 0.0000 -2.5000 0.9688
-7.5148 -0.3028 -2.5000 0.9688
-7.4661 -0.9066 -2.5000 0.9688
-7.4235 -1.2065 -2.5000 0.9688
-7.3689 -1.5044 -2.5000 0.9688
-7.3023 -1.7999 -2.5000 0.9688
-7.0321 -2.6669 -2.5000 0.9688
-6.7948 -3.2241 -2.5000 0.9688
-6.3566 -4.0197 -2.5000 0.9688
-5.8257 -4.7566 -2.5000 0.9688
-5.4241 -5.2099 -2.5000 0.9688
-4.9873 -5.6295 -2.5000 0.9688
-4.7566 -5.8257 -2.5000 0.9688
-4.5181 -6.0125 -2.5000 0.9688
-3.2242 -6.7948 -2.5000 0.9688
-2.6670 -7.0322 -2.5000 0.9688
-2.3816 -7.1338 -2.5000 0.9688
-1.5044 -7.3689 -2.5000 0.9688
-0.6052 -7.4965 -2.5000 0.9688
-0.3028 -7.5148 -2.5000 0.9688
-0.0000 -7.5209 -2.5000 0.9688
1.2064 -7.4235 -2.5000 0.9688
2.6669 -7.0321 -2.5000 0.9688
2.9479 -6.9191 -2.5000 0.9688
3.2241 -6.7948 -2.5000 0.9688
3.4951 -6.6594 -2.5000 0.9688
4.2723 -6.1896 -2.5000 0.9688
4.7566 -5.8257 -2.5000 0.9688
4.9873 -5.6295 -2.5000 0.9688
6.1896 -4.2723 -2.5000 0.9688
6.3566 -4.0197 -2.5000 0.9688
6.5133 -3.7604 -2.5000 0.9688
6.6594 -3.4951 -2.5000 0.9688
6.7947 -3.2242 -2.5000 0.9688
6.9191 -2.9479 -2.5000 0.9688
7.1338 -2.3816 -2.5000 0.9688
7.2239 -2.0925 -2.5000 0.9688
7.4235 -1.2064 -2.5000 0.9688
7.4660 -0.9065 -2.5000 0.9688
7.5148 0.3028 -2.5000 0.9688
7.4965 0.6052 -2.5000 0.9688
7.4235 1.2064 -2.5000 0.9688
7.3689 1.5044 -2.5000 0.9688
7.3023 1.7999 -2.5000 0.9688
7.1338 2.3816 -2.5000 0.9688
6.3805 3.0276 -2.3476 0.9707
6.1162 3.5312 -2.3476 0.9707
5.9691 3.7746 -2.3476 0.9707
5.6460 4.2427 -2.3476 0.9707
5.4706 4.4666 -2.3476 0.9707
5.2863 4.6832 -2.3476 0.9707
4.8923 5.0934 -2.3476 0.9707
4.4666 5.4706 -2.3476 0.9707
4.2427 5.6460 -2.3476 0.9707
4.0119 5.8122 -2.3476 0.9707
3.7746 5.9691 -2.3476 0.9707
3.5312 6.1162 -2.3476 0.9707
3.2821 6.2534 -2.3476 0.9707
3.0276 6.3805 -2.3476 0.9707
2.7682 6.4973 -2.3476 0.9707
2.5044 6.6035 -2.3476 0.9707
2.2364 6.6990 -2.3476 0.9707
1.6901 6.8572 -2.3476 0.9707
1.1325 6.9708 -2.3475 0.9707
0.5674 7.0284 -2.3439 0.9707
0.2838 7.0417 -2.3426 0.9707
-0.2838 7.0423 -2.3428 0.9707
-0.8509 7.0081 -2.3467 0.9707
-1.1331 6.9708 -2.3476 0.9707
-1.4127 6.9197 -2.3476 0.9707
-2.2364 6.6989 -2.3476 0.9707
-2.5044 6.6035 -2.3476 0.9707
-2.7682 6.4973 -2.3476 0.9707
-3.0276 6.3805 -2.3476 0.9707
-3.2821 6.2534 -2.3476 0.9707
-3.5312 6.1162 -2.3476 0.9707
-4.6832 5.2863 -2.3476 0.9707
-4.8923 5.0934 -2.3476 0.9707
-5.0934 4.8923 -2.3476 0.9707
-5.8122 4.0119 -2.3476 0.9707
-6.1162 3.5312 -2.3476 0.9707
-6.3805 3.0276 -2.3476 0.9707
-6.4973 2.7682 -2.3476 0.9707
-7.1338 2.3816 -2.5000 0.9688
-7.2240 2.0924 -2.5000 0.9688
-7.3023 1.7999 -2.5000 0.9688
-7.3689 1.5044 -2.5000 0.9688
-7.4235 1.2064 -2.5000 0.9688
-7.4661 0.9065 -2.5000 0.9688
-7.4965 0.6052 -2.5000 0.9688
-7.5148 0.3028 -2.5000 0.9688
-6.9852 -0.2815 -2.5000 0.9707
-6.9399 -0.8427 -2.5000 0.9707
-6.7878 -1.6730 -2.5000 0.9707
-6.6311 -2.2138 -2.5000 0.9707
-6.4315 -2.7402 -2.5000 0.9707
-5.7534 -3.9713 -2.5000 0.9707
-5.5888 -4.1997 -2.5000 0.9707
-5.2327 -4.6358 -2.5000 0.9707
-4.8428 -5.0418 -2.5000 0.9707
-4.4213 -5.4152 -2.5000 0.9707
-4.1997 -5.5888 -2.5000 0.9707
-3.9713 -5.7534 -2.5000 0.9707
-3.4954 -6.0543 -2.5000 0.9707
-2.7402 -6.4315 -2.5000 0.9707
-2.4790 -6.5366 -2.5000 0.9707
-2.2138 -6.6311 -2.5000 0.9707
-1.6730 -6.7877 -2.5000 0.9707
-1.1214 -6.9003 -2.5000 0.9707
-0.5625 -6.9682 -2.5000 0.9707
-0.2815 -6.9852 -2.5000 0.9707
0.2815 -6.9852 -2.5000 0.9707
0.5625 -6.9682 -2.5000 0.9707
1.1214 -6.9003 -2.5000 0.9707
1.3983 -6.8496 -2.5000 0.9707
2.2138 -6.6311 -2.5000 0.9707
2.4790 -6.5366 -2.5000 0.9707
2.7402 -6.4315 -2.5000 0.9707
2.9969 -6.3159 -2.5000 0.9707
3.2488 -6.1901 -2.5000 0.9707
3.7364 -5.9086 -2.5000 0.9707
3.9713 -5.7534 -2.5000 0.9707
4.1997 -5.5888 -2.5000 0.9707
4.6358 -5.2327 -2.5000 0.9707
4.8427 -5.0418 -2.5000 0.9707
5.2327 -4.6358 -2.5000 0.9707
5.4152 -4.4213 -2.5000 0.9707
5.5888 -4.1997 -2.5000 0.9707
5.7534 -3.9713 -2.5000 0.9707
5.9086 -3.7364 -2.5000 0.9707
6.1901 -3.2488 -2.5000 0.9707
6.5366 -2.4790 -2.5000 0.9707
6.9003 -1.1214 -2.5000 0.9707
6.9399 -0.8427 -2.5000 0.9707
6.9682 -0.5625 -2.5000 0.9707
6.9852 0.2815 -2.5000 0.9707
6.9682 0.5625 -2.5000 0.9707
6.9399 0.8426 -2.5000 0.9707
6.7877 1.6730 -2.5000 0.9707
6.7149 1.9450 -2.5000 0.9707
6.6311 2.2138 -2.5000 0.9707
6.3448 2.7033 -2.4663 0.9711
5.6852 3.2824 -2.3476 0.9725
5.0850 4.1518 -2.3476 0.9725
4.7345 4.5475 -2.3476 0.9725
4.5475 4.7345 -2.3476 0.9725
4.3532 4.9137 -2.3476 0.9725
3.7292 5.4026 -2.3476 0.9725
3.2823 5.6852 -2.3476 0.9725
3.0508 5.8127 -2.3476 0.9725
2.5731 6.0394 -2.3476 0.9725
2.3279 6.1381 -2.3476 0.9725
1.8264 6.3055 -2.3476 0.9725
1.0530 6.4797 -2.3476 0.9725
0.7913 6.5168 -2.3476 0.9725
-0.2643 6.5594 -2.3476 0.9725
-0.5282 6.5434 -2.3476 0.9725
-1.0531 6.4797 -2.3476 0.9725
-1.3131 6.4320 -2.3476 0.9725
-1.8264 6.3055 -2.3476 0.9725
-3.9437 5.2481 -2.3476 0.9725
-4.1518 5.0850 -2.3476 0.9725
-4.5475 4.7345 -2.3476 0.9725
-4.7345 4.5475 -2.3476 0.9725
-5.4026 3.7292 -2.3476 0.9725
-5.5484 3.5086 -2.3476 0.9725
-5.8128 3.0508 -2.3476 0.9725
-5.9309 2.8142 -2.3476 0.9725
-6.3346 2.6989 -2.4623 0.9712
-6.5366 2.4790 -2.5000 0.9707
-6.7149 1.9450 -2.5000 0.9707
-6.7877 1.6730 -2.5000 0.9707
-6.9004 1.1214 -2.5000 0.9707
-3.5589 -0.1434 -1.3649 0.9849
-3.5687 -0.2881 -1.3720 0.9848
-6.4392 -1.0465 -2.5000 0.9724
-6.3918 -1.3049 -2.5000 0.9724
-6.3341 -1.5612 -2.5000 0.9724
-6.2661 -1.8150 -2.5000 0.9724
-6.0997 -2.3133 -2.5000 0.9724
-5.8938 -2.7967 -2.5000 0.9724
-5.6497 -3.2618 -2.5000 0.9724
