ply
format ascii 1.0
element vertex 1534
property float32 x
property float32 y
property float32 z
property float32 I
end_header
-10.7711 22.6996 -2.4122 0.9040
-11.6682 22.2319 -2.4105 0.9040
-13.3983 21.1876 -2.4067 0.9042
-14.2282 20.6131 -2.4046 0.9043
-16.5611 18.6936 -2.3977 0.9045
-17.9723 17.2627 -2.3924 0.9047
-19.2563 15.7223 -2.3866 0.9049
-17.1247 10.8290 -1.9452 0.9218
-21.8653 11.4758 -2.3707 0.9055
-22.2779 10.5709 -2.3673 0.9057
-22.6525 9.6513 -2.3639 0.9058
-23.5452 6.8200 -2.3534 0.9062
-20.7039 5.1031 -2.0472 0.9179
-22.0729 4.5062 -2.1628 0.9134
-24.2746 2.9475 -2.3476 0.9064
-25.9557 2.0954 -2.5000 0.9006
-26.0190 1.0485 -2.5000 0.9006
-20.6208 -4.2098 -2.5000 0.9187
-19.9630 -6.6646 -2.5000 0.9187
-19.6785 -7.4630 -2.5000 0.9187
-19.0142 -9.0223 -2.5000 0.9187
-18.2267 -10.5230 -2.5000 0.9187
-16.8252 -12.6433 -2.5000 0.9187
-16.2984 -13.3071 -2.4993 0.9187
-14.4108 -15.0032 -2.4711 0.9196
-11.7710 -17.0533 -2.4614 0.9199
-11.0748 -17.5134 -2.4614 0.9199
-9.7192 -16.8340 -2.3090 0.9247
-8.3331 -17.5615 -2.3090 0.9247
-5.7168 -17.1239 -2.1444 0.9299
-4.9564 -17.1112 -2.1161 0.9308
-4.2082 -17.0733 -2.0888 0.9316
-3.4947 -17.1181 -2.0753 0.9320
-2.0579 -16.9480 -2.0280 0.9335
-1.3807 -17.1030 -2.0382 0.9332
-0.7005 -17.3822 -2.0664 0.9323
1.4011 -17.3562 -2.0684 0.9323
3.5516 -17.3967 -2.1091 0.9310
4.2537 -17.2578 -2.1113 0.9309
5.7824 -17.3205 -2.1691 0.9291
6.6272 -17.4744 -2.2200 0.9275
9.8816 -17.1154 -2.3476 0.9235
11.2268 -16.2648 -2.3476 0.9235
12.4991 -15.3086 -2.3476 0.9235
13.6904 -14.2532 -2.3476 0.9235
16.1473 -13.1838 -2.4762 0.9195
16.8252 -12.6433 -2.5000 0.9187
17.3206 -11.9556 -2.5000 0.9187
17.7880 -11.2484 -2.5000 0.9187
18.6354 -9.7806 -2.5000 0.9187
19.0142 -9.0223 -2.5000 0.9187
19.3620 -8.2494 -2.5000 0.9187
19.9630 -6.6646 -2.5000 0.9187
20.2152 -5.8554 -2.5000 0.9187
20.7735 -3.3760 -2.5000 0.9187
21.0291 -0.8475 -2.5000 0.9187
21.0461 0.0000 -2.5000 0.9187
21.0291 0.8475 -2.5000 0.9187
20.8927 2.5368 -2.5000 0.9187
19.5072 3.1702 -2.3476 0.9235
19.1889 4.7296 -2.3476 0.9235
17.3175 5.0161 -2.1416 0.9300
14.9865 5.0033 -1.8767 0.9383
13.1357 4.9818 -1.6688 0.9450
10.5050 4.9847 -1.3812 0.9542
17.2491 9.9588 -2.3659 0.9229
16.8521 10.6566 -2.3685 0.9228
16.4264 11.3384 -2.3709 0.9227
15.9728 12.0028 -2.3733 0.9227
15.4918 12.6487 -2.3757 0.9226
14.4417 13.8715 -2.3786 0.9225
13.2921 15.0037 -2.3810 0.9224
12.6839 15.5350 -2.3823 0.9224
9.7742 15.4566 -2.1723 0.9290
10.0505 17.4080 -2.3877 0.9222
9.3470 17.8093 -2.3892 0.9222
8.6276 18.1823 -2.3906 0.9221
7.8934 18.5265 -2.3921 0.9221
4.8317 19.6030 -2.3982 0.9219
4.0411 19.7946 -2.3998 0.9218
3.2429 19.9544 -2.4014 0.9218
1.6278 20.1636 -2.4029 0.9217
-0.0000 20.2313 -2.4032 0.9217
-0.8146 20.2144 -2.4031 0.9217
-4.0442 19.8099 -2.4017 0.9218
-5.6217 19.4085 -2.4002 0.9218
-6.3963 19.1593 -2.3993 0.9219
-7.1595 18.8782 -2.3983 0.9219
-7.9102 18.5658 -2.3972 0.9219
-9.3683 17.8498 -2.3946 0.9220
-12.7053 15.5612 -2.3863 0.9223
-13.3107 15.0247 -2.3844 0.9223
-15.9714 12.0017 -2.3731 0.9227
-16.4245 11.3370 -2.3706 0.9228
-16.8495 10.6550 -2.3681 0.9228
-17.6129 9.2439 -2.3628 0.9230
-13.1722 4.9956 -1.6734 0.9448
-15.0709 5.0314 -1.8873 0.9380
-19.1895 4.7298 -2.3477 0.9235
-20.9779 1.6935 -2.5000 0.9187
-21.0291 0.8475 -2.5000 0.9187
-17.6441 0.0000 -2.5000 0.9312
-17.6298 -0.7104 -2.5000 0.9312
-17.4156 -2.8303 -2.5000 0.9312
-16.4976 -6.2567 -2.5000 0.9312
-16.2323 -6.9159 -2.5000 0.9312
-14.5208 -10.0230 -2.5000 0.9312
-14.1055 -10.5996 -2.5000 0.9312
-13.6673 -11.1589 -2.5000 0.9312
-12.7250 -12.2225 -2.5000 0.9312
-11.1475 -13.6532 -2.4974 0.9313
-10.5658 -14.0605 -2.4920 0.9314
-7.6969 -14.6651 -2.3467 0.9353
-7.1028 -14.9689 -2.3476 0.9353
-6.4943 -15.2427 -2.3476 0.9353
-5.8753 -15.4918 -2.3476 0.9353
-5.2467 -15.7158 -2.3476 0.9353
-4.6097 -15.9144 -2.3476 0.9353
0.0000 -16.5685 -2.3476 0.9353
0.6671 -16.5551 -2.3476 0.9353
1.3332 -16.5148 -2.3476 0.9353
2.3103 -14.2160 -2.0407 0.9435
3.3141 -16.2337 -2.3476 0.9353
3.9651 -16.0871 -2.3476 0.9353
4.6096 -15.9144 -2.3476 0.9353
5.2467 -15.7158 -2.3476 0.9353
5.8753 -15.4918 -2.3476 0.9353
6.4943 -15.2427 -2.3476 0.9353
7.1028 -14.9688 -2.3476 0.9353
8.2842 -14.3488 -2.3476 0.9353
8.8553 -14.0036 -2.3476 0.9353
9.9534 -13.2456 -2.3476 0.9353
11.6797 -13.1837 -2.4956 0.9313
12.2225 -12.7250 -2.5000 0.9312
12.7243 -12.2225 -2.5000 0.9312
13.2068 -11.7002 -2.5000 0.9312
13.6672 -11.1589 -2.5000 0.9312
14.5208 -10.0230 -2.5000 0.9312
15.6231 -8.1996 -2.5000 0.9312
15.9406 -7.5639 -2.5000 0.9312
16.7361 -5.5873 -2.5000 0.9312
16.9475 -4.9089 -2.5000 0.9312
17.1314 -4.2225 -2.5000 0.9312
17.4156 -2.8303 -2.5000 0.9312
17.5155 -2.1268 -2.5000 0.9312
17.6298 -0.7105 -2.5000 0.9312
17.6441 0.0000 -2.5000 0.9312
17.6298 0.7105 -2.5000 0.9312
17.5869 1.4198 -2.5000 0.9312
16.0871 3.9651 -2.3476 0.9353
15.9144 4.6097 -2.3476 0.9353
14.9863 5.0032 -2.2386 0.9382
13.1669 4.9936 -1.9953 0.9447
10.4801 4.9729 -1.6436 0.9542
9.4911 4.9813 -1.5188 0.9576
13.7321 9.4786 -2.3642 0.9348
13.3506 10.0323 -2.3662 0.9348
12.9465 10.5705 -2.3682 0.9347
12.5204 11.0921 -2.3700 0.9347
12.0729 11.5962 -2.3719 0.9346
11.6048 12.0818 -2.3736 0.9346
11.1168 -2.5000 0.9473
-6.1811 -11.7771 -2.5000 0.9473
-5.7019 -12.0165 -2.5000 0.9473
-5.2134 -12.2363 -2.5000 0.9473
-4.2119 -12.6161 -2.5000 0.9473
-3.7005 -12.7755 -2.5000 0.9473
-2.6605 -13.0318 -2.5000 0.9473
-2.1335 -13.1284 -2.5000 0.9473
-0.5322 -13.2062 -2.4843 0.9476
0.0000 -13.2064 -2.4823 0.9477
0.5322 -13.2059 -2.4842 0.9476
1.0660 -13.2047 -2.4900 0.9475
1.6031 -13.2027 -2.4998 0.9473
3.1831 -12.9142 -2.5000 0.9473
4.2119 -12.6161 -2.5000 0.9473
5.2135 -12.2363 -2.5000 0.9473
6.6503 -11.5187 -2.5000 0.9473
7.5554 -10.9462 -2.5000 0.9473
8.8199 -9.9557 -2.5000 0.9473
9.2137 -9.5925 -2.5000 0.9473
9.5924 -9.2137 -2.5000 0.9473
9.9557 -8.8200 -2.5000 0.9473
10.3027 -8.4119 -2.5000 0.9473
10.9462 -7.5556 -2.5000 0.9473
11.2416 -7.1087 -2.5000 0.9473
11.5187 -6.6503 -2.5000 0.9473
11.7771 -6.1811 -2.5000 0.9473
12.0165 -5.7019 -2.5000 0.9473
12.4363 -4.7165 -2.5000 0.9473
12.6161 -4.2119 -2.5000 0.9473
12.9142 -3.1831 -2.5000 0.9473
13.0318 -2.6605 -2.5000 0.9473
13.1284 -2.1336 -2.5000 0.9473
13.2037 -1.6032 -2.5000 0.9473
5.6875 -0.4591 -1.0725 0.9770
5.4758 -0.2207 -1.0301 0.9779
5.6875 0.4591 -1.0725 0.9770
13.1284 2.1336 -2.5000 0.9473
13.0319 2.6605 -2.5000 0.9473
12.1269 2.9890 -2.3476 0.9504
11.9967 3.4749 -2.3476 0.9504
11.4904 4.8956 -2.3476 0.9504
11.0592 5.8043 -2.3476 0.9504
9.9148 7.4505 -2.3311 0.9508
9.2858 8.2265 -2.3318 0.9508
8.9485 8.5951 -2.3322 0.9508
8.5966 8.9500 -2.3326 0.9507
7.8512 9.6160 -2.3334 0.9507
7.4590 9.9262 -2.3338 0.9507
7.0546 10.2204 -2.3342 0.9507
4.0100 6.9456 -1.5075 0.9679
3.6264 6.9095 -1.4667 0.9687
3.9384 11.7969 -2.3376 0.9506
3.4609 11.9485 -2.3382 0.9506
2.9777 12.0809 -2.3387 0.9506
2.4894 12.1938 -2.3392 0.9506
1.0021 12.4136 -2.3409 0.9506
0.0000 12.4598 -2.3420 0.9506
-2.0006 12.3100 -2.3441 0.9505
-2.4952 12.2222 -2.3447 0.9505
-2.9860 12.1146 -2.3452 0.9505
-3.9529 11.8404 -2.3463 0.9505
-2.8380 7.4832 -1.5043 0.9680
-3.0425 7.1410 -1.4590 0.9689
-3.3276 7.0127 -1.4590 0.9689
-6.6754 10.5563 -2.3476 0.9504
-8.2823 9.3488 -2.3476 0.9504
-8.6520 9.0077 -2.3476 0.9504
-9.0077 8.6520 -2.3476 0.9504
-6.4937 5.3020 -1.5757 0.9665
-10.6331 7.9903 -2.5000 0.9473
-11.7771 6.1811 -2.5000 0.9473
-12.6162 4.2119 -2.5000 0.9473
-12.9142 3.1831 -2.5000 0.9473
-13.0319 2.6605 -2.5000 0.9473
-13.1284 2.1336 -2.5000 0.9473
-13.2037 1.6032 -2.5000 0.9473
-13.2899 0.5356 -2.5000 0.9473
-11.8175 -0.4762 -2.5000 0.9528
-11.7408 -1.4256 -2.5000 0.9528
-11.6739 -1.8972 -2.5000 0.9528
-11.5880 -2.3657 -2.5000 0.9528
-11.3601 -3.2905 -2.5000 0.9528
-11.0585 -4.1939 -2.5000 0.9528
-10.8807 -4.6358 -2.5000 0.9528
-10.6852 -5.0702 -2.5000 0.9528
-10.4724 -5.4963 -2.5000 0.9528
-9.9961 -6.3212 -2.5000 0.9528
-9.1613 -7.4800 -2.5000 0.9528
-8.8527 -7.8428 -2.5000 0.9528
-8.5297 -8.1930 -2.5000 0.9528
-8.1929 -8.5297 -2.5000 0.9528
-7.4800 -9.1613 -2.5000 0.9528
-6.7185 -9.7335 -2.5000 0.9528
-6.3212 -9.9961 -2.5000 0.9528
-5.9135 -10.2425 -2.5000 0.9528
-4.6358 -10.8806 -2.5000 0.9528
-4.1939 -11.0585 -2.5000 0.9528
-3.7453 -11.2184 -2.5000 0.9528
-2.8304 -11.4834 -2.5000 0.9528
-2.3657 -11.5880 -2.5000 0.9528
-1.8972 -11.6739 -2.5000 0.9528
-0.9517 -11.7887 -2.5000 0.9528
-0.4762 -11.8175 -2.5000 0.9528
1.4256 -11.7408 -2.5000 0.9528
1.8972 -11.6739 -2.5000 0.9528
2.3657 -11.5880 -2.5000 0.9528
2.8304 -11.4834 -2.5000 0.9528
4.1939 -11.0585 -2.5000 0.9528
4.6358 -10.8806 -2.5000 0.9528
5.4963 -10.4723 -2.5000 0.9528
5.9135 -10.2425 -2.5000 0.9528
7.1050 -9.4550 -2.5000 0.9528
7.4800 -9.1613 -2.5000 0.9528
8.1929 -8.5297 -2.5000 0.9528
8.8527 -7.8428 -2.5000 0.9528
9.7335 -6.7185 -2.5000 0.9528
10.4723 -5.4963 -2.5000 0.9528
10.6851 -5.0702 -2.5000 0.9528
10.8806 -4.6358 -2.5000 0.9528
11.5880 -2.3657 -2.5000 0.9528
6.4576 -0.7841 -1.3750 0.9738
5.0663 -0.4090 -1.0744 0.9794
11.5880 2.3657 -2.5000 0.9528
10.9734 2.7047 -2.3890 0.9548
10.6676 3.0899 -2.3476 0.9556
10.5345 3.5169 -2.3476 0.9556
10.2174 4.3532 -2.3476 0.9556
9.8339 5.1612 -2.3476 0.9556
9.6181 5.5530 -2.3476 0.9556
9.3867 5.9358 -2.3476 0.9556
9.1401 6.3090 -2.3476 0.9556
8.5811 7.0063 -2.3417 0.9557
6.6352 8.8299 -2.3347 0.95164 6.2753 9.0914 -2.3351 0.9558
4.0986 7.0990 -1.7327 0.9670
3.4086 7.1834 -1.6807 0.9680
3.5027 10.4920 -2.3381 0.9558
2.6482 10.7441 -2.3391 0.9558
1.3346 10.9917 -2.3405 0.9557
0.8912 11.0388 -2.3410 0.9557
0.4460 11.0681 -2.3415 0.9557
-0.8919 11.0480 -2.3429 0.9557
-1.3363 11.0054 -2.3434 0.9557
-1.7787 10.9450 -2.3439 0.9557
-2.2184 10.8667 -2.3444 0.9557
-3.0747 7.2165 -1.6581 0.9684
-5.5530 9.6181 -2.3476 0.9556
-5.9358 9.3867 -2.3476 0.9556
-6.6719 8.8787 -2.3476 0.9556
-7.0240 8.6028 -2.3476 0.9556
-7.6934 8.0097 -2.3476 0.9556
-8.3130 7.3647 -2.3476 0.9556
-6.4937 5.3020 -1.7721 0.9663
-9.9961 6.3212 -2.5000 0.9528
-10.4723 5.4963 -2.5000 0.9528
-10.6852 5.0702 -2.5000 0.9528
-11.3601 3.2905 -2.5000 0.9528
-11.7408 1.4256 -2.5000 0.9528
-11.8175 0.4762 -2.5000 0.9528
-10.6287 -0.4283 -2.5000 0.9572
-10.6028 -0.8559 -2.5000 0.9572
-10.4995 -1.7063 -2.5000 0.9572
-10.4223 -2.1277 -2.5000 0.9572
-10.3282 -2.5457 -2.5000 0.9572
-10.0899 -3.3685 -2.5000 0.9572
-9.9460 -3.7720 -2.5000 0.9572
-9.6103 -4.5601 -2.5000 0.9572
-8.7543 -6.0427 -2.5000 0.9572
-8.5039 -6.3903 -2.5000 0.9572
-7.3687 -7.6716 -2.5000 0.9572
-6.7275 -8.2397 -2.5000 0.9572
-5.6853 -8.9905 -2.5000 0.9572
-4.9434 -9.4188 -2.5000 0.9572
-3.3685 -10.0898 -2.5000 0.9572
-1.7063 -10.4995 -2.5000 0.9572
-0.8560 -10.6028 -2.5000 0.9572
-0.4283 -10.6286 -2.5000 0.9572
0.4284 -10.6286 -2.5000 0.9572
0.8560 -10.6028 -2.5000 0.9572
1.2822 -10.5597 -2.5000 0.9572
1.7063 -10.4995 -2.5000 0.9572
2.5457 -10.3282 -2.5000 0.9572
4.1695 -9.7861 -2.5000 0.9572
4.9434 -9.4188 -2.5000 0.9572
5.3186 -9.2121 -2.5000 0.9572
6.3902 -8.5039 -2.5000 0.9572
6.7275 -8.2397 -2.5000 0.9572
8.2397 -6.7275 -2.5000 0.9572
8.5039 -6.3902 -2.5000 0.9572
8.9905 -5.6853 -2.5000 0.9572
9.2121 -5.3186 -2.5000 0.9572
9.6102 -4.5601 -2.5000 0.9572
10.0898 -3.3685 -2.5000 0.9572
10.3282 -2.5457 -2.5000 0.9572
10.5596 -1.2822 -2.5000 0.9572
4.7226 -0.3813 -1.1135 0.9807
4.6842 0.0000 -1.1009 0.9809
4.6960 0.1892 -1.1046 0.9809
4.7226 0.3813 -1.1135 0.9807
10.4995 1.7063 -2.5000 0.9572
10.3282 2.5457 -2.5000 0.9572
9.5945 2.7791 -2.3476 0.9598
9.0244 4.2821 -2.3476 0.9598
8.8447 4.6420 -2.3476 0.9598
8.6506 4.9944 -2.3476 0.9598
8.4424 5.3387 -2.3476 0.9598
7.9855 6.0007 -2.3476 0.9598
7.7374 6.3174 -2.3476 0.9598
6.8816 7.1644 -2.3347 0.9600
4.9708 8.6097 -2.3365 0.9600
3.7562 7.1568 -1.8996 0.9673
3.4686 7.3099 -1.9016 0.9673
3.5277 9.3019 -2.3381 0.9599
3.1509 9.4380 -2.3385 0.9599
2.3821 9.6644 -2.3393 0.9599
0.8015 9.9287 -2.3411 0.9599
-0.8021 9.9362 -2.3428 0.9599
-1.2018 9.8977 -2.3433 0.9599
-1.5996 9.8431 -2.3437 0.9599
-2.7760 9.5837 -2.3450 0.9598
-3.1602 9.4659 -2.3454 0.9598
-3.1269 7.3390 -1.8749 0.9678
-4.9940 8.6499 -2.3474 0.9598
-5.3387 8.4424 -2.3476 0.9598
-5.6743 8.2206 -2.3476 0.9598
-6.3174 7.7374 -2.3476 0.9598
-7.2040 6.9195 -2.3476 0.9598
-7.9855 6.0007 -2.3476 0.9598
-8.6506 4.9944 -2.3476 0.9598
-9.6102 4.5601 -2.5000 0.9572
-9.9460 3.7720 -2.5000 0.9572
-10.0898 3.3685 -2.5000 0.9572
-10.4223 2.1277 -2.5000 0.9572
-10.5597 1.2822 -2.5000 0.9572
-10.6028 0.8559 -2.5000 0.9572
-9.6556 0.0000 -2.5000 0.9609
-9.5852 -1.1639 -2.5000 0.9609
-9.5305 -1.5489 -2.5000 0.9609
-9.3750 -2.3109 -2.5000 0.9609
-9.1587 -3.0576 -2.5000 0.9609
-9.0281 -3.4241 -2.5000 0.9609
-8.7233 -4.1393 -2.5000 0.9609
-7.7191 -5.8005 -2.5000 0.9609
-7.4793 -6.1066 -2.5000 0.9609
-7.2273 -6.4028 -2.5000 0.9609
-6.9636 -6.6887 -2.5000 0.9609
-6.6887 -6.9636 -2.5000 0.9609
-5.8005 -7.7191 -2.5000 0.9609
-5.4850 -7.9464 -2.5000 0.9609
-4.8278 -8.3620 -2.5000 0.9609
-3.0576 -9.1587 -2.5000 0.9609
-2.3107 -9.3750 -2.5000 0.9609
-1.1639 -9.5852 -2.5000 0.9609
-0.7770 -9.6243 -2.5000 0.9609
0.0000 -9.6556 -2.5000 0.9609
0.3888 -9.6477 -2.5000 0.9609
2.3107 -9.3750 -2.5000 0.9609
3.0576 -9.1586 -2.5000 0.9609
4.1393 -8.7233 -2.5000 0.9609
4.8279 -8.3620 -2.5000 0.9609
5.4850 -7.9464 -2.5000 0.9609
5.8005 -7.7191 -2.5000 0.9609
6.1066 -7.4793 -2.5000 0.9609
6.4028 -7.2273 -2.5000 0.9609
7.2273 -6.4028 -2.5000 0.9609
7.4793 -6.1066 -2.5000 0.9609
7.7191 -5.8005 -2.5000 0.9609
7.9464 -5.4850 -2.5000 0. 4.9818.1607 -5.1606 -2.5000 0.9609
8.3620 -4.8278 -2.5000 0.9609
8.7233 -4.1393 -2.5000 0.9609
8.8829 -3.7847 -2.5000 0.9609
9.2743 -2.6864 -2.5000 0.9609
9.3750 -2.3107 -2.5000 0.9609
9.5305 -1.5489 -2.5000 0.9609
4.5128 -0.3643 -1.1722 0.9815
4.5016 -0.1814 -1.1665 0.9816
4.4955 0.0000 -1.1640 0.9816
4.5128 0.3643 -1.1722 0.9815
9.4604 1.9314 -2.5000 0.9609
9.2665 2.6840 -2.4979 0.9609
8.4777 3.2152 -2.3476 0.9632
8.3414 3.5539 -2.3476 0.9632
8.0284 4.2136 -2.3476 0.9632
7.8522 4.5335 -2.3476 0.9632
7.6633 4.8460 -2.3476 0.9632
7.2485 5.4469 -2.3476 0.9632
6.7867 6.0125 -2.3476 0.9632
6.5391 6.2809 -2.3476 0.9632
6.2809 6.5391 -2.3476 0.9632
6.0125 6.7867 -2.3476 0.9632
5.7199 7.0056 -2.3417 0.9633
5.4204 7.2133 -2.3362 0.9634
5.1259 7.4262 -2.3363 0.9634
4.5130 7.8168 -2.3370 0.9634
3.2027 8.4447 -2.3384 0.9634
2.5136 8.6778 -2.3392 0.9634
1.4500 8.9220 -2.3404 0.9633
1.0897 8.9746 -2.3408 0.9633
0.7276 9.0128 -2.3412 0.9633
0.3642 9.0363 -2.3416 0.9633
0.0000 9.0451 -2.3419 0.9633
-0.3643 9.0393 -2.3423 0.9633
-0.7281 9.0189 -2.3427 0.9633
-1.0908 8.9838 -2.3431 0.9633
-1.4519 8.9341 -2.3435 0.9633
-2.1668 8.7912 -2.3443 0.9633
-3.8500 7.3355 -2.1450 0.9663
-4.8453 7.6622 -2.3472 0.9632
-5.4469 7.2485 -2.3476 0.9632
-5.7343 7.0233 -2.3476 0.9632
-6.0125 6.7867 -2.3476 0.9632
-6.2809 6.5391 -2.3476 0.9632
-6.4937 5.3020 -2.1706 0.9660
-7.4620 5.1506 -2.3476 0.9632
-8.7233 4.1393 -2.5000 0.9609
-9.0281 3.4239 -2.5000 0.9609
-9.1587 3.0576 -2.5000 0.9609
-9.5305 1.5489 -2.5000 0.9609
-9.5852 1.1639 -2.5000 0.9609
-9.6243 0.7770 -2.5000 0.9609
-8.8239 -0.3558 -2.5000 0.9640
-8.8024 -0.7106 -2.5000 0.9640
-8.4824 -2.4569 -2.5000 0.9640
-8.3766 -2.7965 -2.5000 0.9640
-8.2572 -3.1315 -2.5000 0.9640
-8.1244 -3.4615 -2.5000 0.9640
-7.6479 -4.4155 -2.5000 0.9640
-7.4639 -4.7199 -2.5000 0.9640
-7.2678 -5.0166 -2.5000 0.9640
-7.0599 -5.3052 -2.5000 0.9640
-6.3690 -6.1175 -2.5000 0.9640
-5.8561 -6.6101 -2.5000 0.9640
-5.5851 -6.8406 -2.5000 0.9640
-5.3052 -7.0599 -2.5000 0.9640
-4.4155 -7.6479 -2.5000 0.9640
-3.7858 -7.9784 -2.5000 0.9640
-3.4615 -8.1244 -2.5000 0.9640
-1.0645 -8.7666 -2.5000 0.9640
-0.7106 -8.8024 -2.5000 0.9640
-0.3556 -8.8239 -2.5000 0.9640
-0.0000 -8.8310 -2.5000 0.9640
0.3556 -8.8239 -2.5000 0.9640
0.7106 -8.8024 -2.5000 0.9640
1.4166 -8.7167 -2.5000 0.9640
1.7664 -8.6525 -2.5000 0.9640
2.1134 -8.5744 -2.5000 0.9640
2.4569 -8.4824 -2.5000 0.9640
2.7965 -8.3765 -2.5000 0.9640
3.1315 -8.2572 -2.5000 0.9640
3.7858 -7.9784 -2.5000 0.9640
4.4155 -7.6479 -2.5000 0.9640
4.7199 -7.4639 -2.5000 0.9640
5.0166 -7.2678 -2.5000 0.9640
5.5851 -6.8406 -2.5000 0.9640
5.8560 -6.6101 -2.5000 0.9640
6.6101 -5.8561 -2.5000 0.9640
7.2678 -5.0166 -2.5000 0.9640
7.4639 -4.7199 -2.5000 0.9640
7.6479 -4.4155 -2.5000 0.9640
8.1244 -3.4615 -2.5000 0.9640
8.3765 -2.7965 -2.5000 0.9640
8.4824 -2.4569 -2.5000 0.9640
8.5744 -2.1134 -2.5000 0.9640
8.7166 -1.4166 -2.5000 0.9640
4.3797 -0.1765 -1.2409 0.9819
4.3762 0.0000 -1.2389 0.9820
4.3797 0.1765 -1.2409 0.9819
4.3898 0.3544 -1.2468 0.9819
4.4035 0.5347 -1.2558 0.9817
8.6526 1.7664 -2.5000 0.9640
8.5744 2.1134 -2.5000 0.9640
7.7538 2.9406 -2.3476 0.9661
7.4920 3.5550 -2.3476 0.9661
7.1817 4.1463 -2.3476 0.9661
7.0089 4.4322 -2.3476 0.9661
6.2072 5.4991 -2.3476 0.9661
5.9807 5.7445 -2.3476 0.9661
5.7446 5.9807 -2.3476 0.9661
5.4991 6.2072 -2.3476 0.9661
4.9818 6.6295 -2.3476 0.9661
4.7108 6.8247 -2.3476 0.9661
4.4220 6.9929 -2.3422 0.9662
3.5406 7.4617 -2.3381 0.9662
3.2377 7.5992 -2.3384 0.9662
2.9295 7.7246 -2.3387 0.9662
2.6165 7.8374 -2.3391 0.9662
1.3262 8.1605 -2.3405 0.9662
0.6655 8.2433 -2.3412 0.9662
0.3331 8.2647 -2.3416 0.9662
-0.3332 8.2673 -2.3423 0.9662
-1.6560 8.1118 -2.3438 0.9662
-1.9816 8.0398 -2.3441 0.9662
-2.3041 7.9547 -2.3445 0.9662
-2.6229 7.8566 -2.3448 0.9662
-3.1818 7.4680 -2.2980 0.9668
-3.8514 7.3383 -2.3462 0.9661
-4.4310 7.0071 -2.3470 0.9661
-4.7108 6.8247 -2.3476 0.9661
-4.9818 6.6295 -2.3476 0.9661
-5.2447 6.4236 -2.3476 0.9661
-5.4991 6.2072 -2.3476 0.9661
-6.4236 5.2447 -2.3476 0.9661
-6.6296 4.9817 -2.3476 0.9661
-6.8247 4.7108 -2.3476 0.9661
-7.008792 -2.5 -2.3476 0.9661
-7.3428 3.8538 -2.3476 0.9661
-7.9784 3.7858 -2.5000 0.9640
-8.1244 3.4615 -2.5000 0.9640
-8.3765 2.7965 -2.5000 0.9640
-8.5744 2.1134 -2.5000 0.9640
-8.7167 1.4166 -2.5000 0.9640
-8.7666 1.0645 -2.5000 0.9640
-8.8024 0.7106 -2.5000 0.9640
-8.1280 -0.0000 -2.5000 0.9666
-8.1214 -0.3273 -2.5000 0.9666
-8.0687 -0.9797 -2.5000 0.9666
-7.8918 -1.9452 -2.5000 0.9666
-7.8071 -2.2614 -2.5000 0.9666
-7.5998 -2.8822 -2.5000 0.9666
-7.4776 -3.1859 -2.5000 0.9666
-7.3433 -3.4844 -2.5000 0.9666
-7.0391 -4.0640 -2.5000 0.9666
-6.8697 -4.3441 -2.5000 0.9666
-6.6892 -4.6172 -2.5000 0.9666
-6.4979 -4.8828 -2.5000 0.9666
-6.2960 -5.1405 -2.5000 0.9666
-5.8619 -5.6305 -2.5000 0.9666
-5.3899 -6.0839 -2.5000 0.9666
-5.1405 -6.2960 -2.5000 0.9666
-4.8828 -6.4979 -2.5000 0.9666
-4.6172 -6.6892 -2.5000 0.9666
-4.3441 -6.8697 -2.5000 0.9666
-4.0640 -7.0391 -2.5000 0.9666
-3.7773 -7.1970 -2.5000 0.9666
-3.4844 -7.3432 -2.5000 0.9666
-3.1859 -7.4776 -2.5000 0.9666
-2.8822 -7.5998 -2.5000 0.9666
-2.2614 -7.8071 -2.5000 0.9666
-1.9452 -7.8918 -2.5000 0.9666
-1.6258 -7.9637 -2.5000 0.9666
-0.9797 -8.0687 -2.5000 0.9666
-0.6540 -8.1016 -2.5000 0.9666
-0.3273 -8.1214 -2.5000 0.9666
0.9797 -8.0687 -2.5000 0.9666
1.3038 -8.0227 -2.5000 0.9666
1.6258 -7.9637 -2.5000 0.9666
1.9452 -7.8918 -2.5000 0.9666
3.1859 -7.4776 -2.5000 0.9666
3.4844 -7.3433 -2.5000 0.9666
3.7773 -7.1970 -2.5000 0.9666
4.0640 -7.0391 -2.5000 0.9666
4.3441 -6.8697 -2.5000 0.9666
4.6172 -6.6892 -2.5000 0.9666
4.8828 -6.4979 -2.5000 0.9666
5.1405 -6.2960 -2.5000 0.9666
5.3899 -6.0839 -2.5000 0.9666
5.6305 -5.8619 -2.5000 0.9666
5.8619 -5.6305 -2.5000 0.9666
6.2960 -5.1405 -2.5000 0.9666
7.1970 -3.7773 -2.5000 0.9666
7.3432 -3.4844 -2.5000 0.9666
7.4776 -3.1859 -2.5000 0.9666
7.5998 -2.8822 -2.5000 0.9666
7.8071 -2.2614 -2.5000 0.9666
7.9637 -1.6258 -2.5000 0.9666
8.0226 -1.3038 -2.5000 0.9666
4.2837 -0.5201 -1.3272 0.9821
4.2627 -0.1718 -1.3122 0.9823
4.2617 0.0000 -1.3108 0.9823
4.2718 0.3449 -1.3182 0.9822
4.2837 0.5201 -1.3272 0.9821
8.0228 1.3038 -2.5000 0.9666
7.9637 1.6258 -2.5000 0.9666
7.8918 1.9452 -2.5000 0.9666
7.1607 2.7157 -2.3555 0.9685
7.0218 2.9917 -2.3476 0.9686
6.8956 3.2720 -2.3476 0.9686
6.7583 3.5470 -2.3476 0.9686
6.6100 3.8163 -2.3476 0.9686
6.4509 4.0793 -2.3476 0.9686
6.2814 4.3358 -2.3476 0.9686
5.9122 4.8272 -2.3476 0.9686
4.8271 5.9122 -2.3476 0.9686
4.5852 6.1018 -2.3476 0.9686
4.3358 6.2814 -2.3476 0.9686
4.0793 6.4509 -2.3476 0.9686
3.8163 6.6100 -2.3476 0.9686
3.5470 6.7583 -2.3476 0.9686
3.2708 6.8932 -2.3468 0.9686
2.9842 7.0041 -2.3417 0.9686
2.6968 7.1111 -2.3392 0.9687
2.4086 7.2145 -2.3394 0.9687
2.1163 7.3063 -2.3396 0.9687
1.8206 7.3866 -2.3400 0.9687
1.5219 7.4550 -2.3403 0.9687
1.2207 7.5113 -2.3406 0.9687
0.9174 7.5554 -2.3409 0.9687
0.3065 7.6069 -2.3416 0.9686
-0.6129 7.5916 -2.3426 0.9686
-0.9182 7.5619 -2.3430 0.9686
-1.2221 7.5198 -2.3433 0.9686
-2.1205 7.3208 -2.3443 0.9686
-2.4139 7.2304 -2.3446 0.9686
-2.7035 7.1286 -2.3450 0.9686
-3.5470 6.7583 -2.3476 0.9686
-4.0793 6.4509 -2.3476 0.9686
-4.8271 5.9122 -2.3476 0.9686
-5.9122 4.8271 -2.3476 0.9686
-6.1018 4.5852 -2.3476 0.9686
-6.2814 4.3358 -2.3476 0.9686
-6.4509 4.0793 -2.3476 0.9686
-6.7583 3.5470 -2.3476 0.9686
-7.5998 2.8822 -2.5000 0.9666
-7.8918 1.9452 -2.5000 0.9666
-7.9637 1.6258 -2.5000 0.9666
-8.0228 1.3038 -2.5000 0.9666
-8.1017 0.6540 -2.5000 0.9666
-8.1214 0.3272 -2.5000 0.9666
-7.5209 0.0000 -2.5000 0.9688
-7.5148 -0.3028 -2.5000 0.9688
-7.4965 -0.6052 -2.5000 0.9688
-7.4661 -0.9066 -2.5000 0.9688
-7.4235 -1.2064 -2.5000 0.9688
-7.3689 -1.5044 -2.5000 0.9688
-7.3024 -1.7999 -2.5000 0.9688
-7.1339 -2.3816 -2.5000 0.9688
-7.0322 -2.6670 -2.5000 0.9688
-6.7948 -3.2242 -2.5000 0.9688
-6.6595 -3.4952 -2.5000 0.9688
-6.0126 -4.5181 -2.5000 0.9688
-5.4241 -5.2099 -2.5000 0.9688
-5.2099 -5.4241 -2.5000 0.9688
-4.9873 -5.6295 -2.5000 0.9688
-4.7566 -5.8258 -2.5000 0.9688
-4.2724 -6.1896 -2.5000 0.9688
-3.4952 -6.6595 -2.5000 0.9688
-3.2242 -6.7948 -2.5000 0.9688
-1.7999 -7.3024 -2.5000 0.9688
-1.5044 -7.3689 -2.5000 0.9688
-0.6052 -7.4965 -2.5000 0.9688
0.9747
-.5148 -2.5000 0.9688
0.6052 -7.4965 -2.5000 0.9688
0.9065 -7.4661 -2.5000 0.9688
1.2064 -7.4235 -2.5000 0.9688
1.5045 -7.3690 -2.5000 0.9688
1.7999 -7.3024 -2.5000 0.9688
2.0925 -7.2240 -2.5000 0.9688
2.6670 -7.0322 -2.5000 0.9688
2.9480 -6.9191 -2.5000 0.9688
3.2242 -6.7948 -2.5000 0.9688
3.4952 -6.6595 -2.5000 0.9688
4.2724 -6.1896 -2.5000 0.9688
4.5181 -6.0126 -2.5000 0.9688
4.7566 -5.8258 -2.5000 0.9688
4.9873 -5.6295 -2.5000 0.9688
5.8257 -4.7566 -2.5000 0.9688
6.3566 -4.0197 -2.5000 0.9688
6.9191 -2.9480 -2.5000 0.9688
7.1339 -2.3816 -2.5000 0.9688
7.2240 -2.0925 -2.5000 0.9688
7.3024 -1.7999 -2.5000 0.9688
4.5831 -0.7448 -1.5434 0.9806
4.1586 -0.3357 -1.3868 0.9826
4.1504 -0.1673 -1.3807 0.9826
4.1586 0.3357 -1.3868 0.9826
4.1704 0.5064 -1.3965 0.9824
7.3689 1.5044 -2.5000 0.9688
7.1339 2.3816 -2.5000 0.9688
5.9691 3.7746 -2.3476 0.9707
5.8123 4.0119 -2.3476 0.9707
5.6460 4.2427 -2.3476 0.9707
5.4706 4.4666 -2.3476 0.9707
5.2863 4.6833 -2.3476 0.9707
4.8923 5.0935 -2.3476 0.9707
4.6833 5.2863 -2.3476 0.9707
4.4666 5.4706 -2.3476 0.9707
4.2427 5.6460 -2.3476 0.9707
4.0119 5.8123 -2.3476 0.9707
3.7746 5.9691 -2.3476 0.9707
3.0276 6.3806 -2.3476 0.9707
2.7683 6.4973 -2.3476 0.9707
1.9649 6.7836 -2.3476 0.9707
1.6902 6.8572 -2.3476 0.9707
1.1310 6.9595 -2.3437 0.9707
0.8493 6.9946 -2.3421 0.9707
0.5669 7.0217 -2.3416 0.9707
0.0000 7.0462 -2.3422 0.9707
-0.2837 7.0414 -2.3425 0.9707
-0.8497 6.9978 -2.3432 0.9707
-1.4116 6.9143 -2.3457 0.9707
-1.6902 6.8572 -2.3476 0.9707
-1.9649 6.7836 -2.3476 0.9707
-2.2365 6.6990 -2.3476 0.9707
-2.7682 6.4973 -2.3476 0.9707
-3.0276 6.3806 -2.3476 0.9707
-3.2821 6.2535 -2.3476 0.9707
-4.4666 5.4706 -2.3476 0.9707
-4.8923 5.0935 -2.3476 0.9707
-5.0935 4.8923 -2.3476 0.9707
-5.2863 4.6833 -2.3476 0.9707
-5.4706 4.4666 -2.3476 0.9707
-5.6460 4.2427 -2.3476 0.9707
-5.8123 4.0119 -2.3476 0.9707
-6.3806 3.0276 -2.3476 0.9707
-7.2240 2.0924 -2.5000 0.9688
-7.4661 0.9065 -2.5000 0.9688
-7.5148 0.3028 -2.5000 0.9688
-6.9909 -0.0000 -2.5000 0.9707
-6.9852 -0.2815 -2.5000 0.9707
-6.9682 -0.5626 -2.5000 0.9707
-6.6311 -2.2138 -2.5000 0.9707
-6.4315 -2.7402 -2.5000 0.9707
-6.3159 -2.9970 -2.5000 0.9707
-6.0543 -3.4955 -2.5000 0.9707
-5.7534 -3.9713 -2.5000 0.9707
-5.5888 -4.1997 -2.5000 0.9707
-5.2328 -4.6358 -2.5000 0.9707
-4.8428 -5.0419 -2.5000 0.9707
-4.6358 -5.2328 -2.5000 0.9707
-4.4214 -5.4152 -2.5000 0.9707
-3.2488 -6.1901 -2.5000 0.9707
-2.7402 -6.4315 -2.5000 0.9707
-2.2138 -6.6311 -2.5000 0.9707
-0.8427 -6.9399 -2.5000 0.9707
-0.5626 -6.9682 -2.5000 0.9707
0.0001 -6.9909 -2.5000 0.9707
0.2815 -6.9852 -2.5000 0.9707
0.5625 -6.9682 -2.5000 0.9707
1.1214 -6.9004 -2.5000 0.9707
1.9450 -6.7149 -2.5000 0.9707
2.4790 -6.5366 -2.5000 0.9707
2.7402 -6.4315 -2.5000 0.9707
3.7364 -5.9086 -2.5000 0.9707
3.9713 -5.7534 -2.5000 0.9707
4.1997 -5.5888 -2.5000 0.9707
4.4214 -5.4152 -2.5000 0.9707
4.6359 -5.2328 -2.5000 0.9707
4.8428 -5.0419 -2.5000 0.9707
5.0419 -4.8428 -2.5000 0.9707
5.5888 -4.1997 -2.5000 0.9707
5.9087 -3.7364 -2.5000 0.9707
6.0543 -3.4955 -2.5000 0.9707
6.1901 -3.2488 -2.5000 0.9707
6.5366 -2.4790 -2.5000 0.9707
4.1187 -0.6694 -1.4922 0.9824
4.0428 -0.1629 -1.4469 0.9830
6.7149 1.9450 -2.5000 0.9707
6.6311 2.2138 -2.5000 0.9707
6.3161 2.6910 -2.4551 0.9713
5.8128 3.0508 -2.3476 0.9725
5.6852 3.2824 -2.3476 0.9725
5.4027 3.7292 -2.3476 0.9725
5.2481 3.9437 -2.3476 0.9725
5.0851 4.1518 -2.3476 0.9725
4.7345 4.5476 -2.3476 0.9725
4.1518 5.0851 -2.3476 0.9725
3.9437 5.2481 -2.3476 0.9725
3.7292 5.4027 -2.3476 0.9725
3.2824 5.6852 -2.3476 0.9725
2.8143 5.9309 -2.3476 0.9725
2.5732 6.0394 -2.3476 0.9725
2.3279 6.1381 -2.3476 0.9725
1.3131 6.4321 -2.3476 0.9725
0.5282 6.5435 -2.3476 0.9725
0.2643 6.5594 -2.3476 0.9725
-0.2643 6.5594 -2.3476 0.9725
-0.5282 6.5435 -2.3476 0.9725
-0.7913 6.5169 -2.3476 0.9725
-1.8264 6.3056 -2.3476 0.9725
-2.3279 6.1381 -2.3476 0.9725
-2.5732 6.0394 -2.3476 0.9725
-2.8143 5.9309 -2.3476 0.9725
-3.0508 5.8128 -2.3476 0.9725
-3.5086 5.5485 -2.3476 0.9725
-3.7292 5.4027 -2.3476 0.9725
-3.9437 5.2481 -2.3476 0.9725
-4.1518 5.0851 -2.3476 0.9725
-4.3532 4.9688
-3.476 0.9725
-4.5476 4.7345 -2.3476 0.9725
-4.7345 4.5476 -2.3476 0.9725
-5.0851 4.1518 -2.3476 0.9725
-5.4027 3.7292 -2.3476 0.9725
-5.5485 3.5086 -2.3476 0.9725
-5.6852 3.2824 -2.3476 0.9725
-6.0396 2.8658 -2.3906 0.9720
-6.4315 2.7402 -2.5000 0.9707
-6.7878 1.6730 -2.5000 0.9707
-6.8496 1.3983 -2.5000 0.9707
-6.5237 -0.0000 -2.5000 0.9724
-6.5184 -0.2627 -2.5000 0.9724
-6.4392 -1.0465 -2.5000 0.9724
-6.3919 -1.3049 -2.5000 0.9724
-6.3341 -1.5612 -2.5000 0.9724
-6.2661 -1.8150 -2.5000 0.9724
-6.1880 -2.0659 -2.5000 0.9724
-6.0998 -2.3133 -2.5000 0.9724
-6.0017 -2.5571 -2.5000 0.9724
-5.8938 -2.7967 -2.5000 0.9724
-5.6497 -3.2618 -2.5000 0.9724
-5.5138 -3.4867 -2.5000 0.9724
-5.0533 -4.1259 -2.5000 0.9724
-4.8831 -4.3260 -2.5000 0.9724
-4.5191 -4.7049 -2.5000 0.9724
-4.3260 -4.8831 -2.5000 0.9724
-3.9191 -5.2153 -2.5000 0.9724
-3.4867 -5.5138 -2.5000 0.9724
-3.0317 -5.7765 -2.5000 0.9724
-2.7967 -5.8938 -2.5000 0.9724
-2.5571 -6.0017 -2.5000 0.9724
-2.3133 -6.0998 -2.5000 0.9724
-2.0659 -6.1880 -2.5000 0.9724
-1.5612 -6.3341 -2.5000 0.9724
-1.3049 -6.3919 -2.5000 0.9724
-1.0465 -6.4392 -2.5000 0.9724
-0.7864 -6.4761 -2.5000 0.9724
-0.5250 -6.5025 -2.5000 0.9724
-0.2627 -6.5184 -2.5000 0.9724
0.0000 -6.5237 -2.5000 0.9724
0.2627 -6.5184 -2.5000 0.9724
0.5249 -6.5025 -2.5000 0.9724
1.3049 -6.3919 -2.5000 0.9724
1.8150 -6.2661 -2.5000 0.9724
2.7967 -5.8938 -2.5000 0.9724
3.0317 -5.7764 -2.5000 0.9724
3.2618 -5.6497 -2.5000 0.9724
3.7058 -5.3689 -2.5000 0.9724
3.9191 -5.2153 -2.5000 0.9724
4.1259 -5.0533 -2.5000 0.9724
4.3260 -4.8831 -2.5000 0.9724
4.5191 -4.7049 -2.5000 0.9724
4.8831 -4.3260 -2.5000 0.9724
5.0533 -4.1259 -2.5000 0.9724
5.2153 -3.9191 -2.5000 0.9724
5.3689 -3.7059 -2.5000 0.9724
5.6497 -3.2619 -2.5000 0.9724
5.7765 -3.0317 -2.5000 0.9724
5.8938 -2.7967 -2.5000 0.9724
6.0998 -2.3133 -2.5000 0.9724
6.1880 -2.0658 -2.5000 0.9724
6.2661 -1.8150 -2.5000 0.9724
6.3341 -1.5612 -2.5000 0.9724
6.3919 -1.3049 -2.5000 0.9724
3.9821 -0.4835 -1.5372 0.9830
3.9772 -0.3211 -1.5291 0.9831
3.9821 0.4835 -1.5372 0.9830
6.3919 1.3049 -2.5000 0.9724
6.3341 1.5612 -2.5000 0.9724
6.2661 1.8150 -2.5000 0.9724
6.0998 2.3133 -2.5000 0.9724
5.1776 3.2741 -2.3476 0.9741
4.5854 4.0623 -2.3476 0.9741
4.4181 4.2436 -2.3476 0.9741
4.2436 4.4181 -2.3476 0.9741
4.0623 4.5854 -2.3476 0.9741
3.8744 4.7452 -2.3476 0.9741
3.6802 4.8974 -2.3476 0.9741
3.4800 5.0416 -2.3476 0.9741
3.2742 5.1776 -2.3476 0.9741
3.0630 5.3053 -2.3476 0.9741
2.6262 5.5346 -2.3476 0.9741
2.1723 5.7279 -2.3476 0.9741
1.4660 5.9480 -2.3476 0.9741
0.9827 6.0467 -2.3476 0.9741
0.4929 6.1062 -2.3476 0.9741
0.2467 6.1210 -2.3476 0.9741
0.0000 6.1260 -2.3476 0.9741
-0.4929 6.1062 -2.3476 0.9741
-0.9827 6.0467 -2.3476 0.9741
-1.2254 6.0022 -2.3476 0.9741
-1.4661 5.9480 -2.3476 0.9741
-1.7044 5.8841 -2.3476 0.9741
-2.1723 5.7279 -2.3476 0.9741
-2.4012 5.6358 -2.3476 0.9741
-3.0630 5.3053 -2.3476 0.9741
-3.2742 5.1777 -2.3476 0.9741
-3.8744 4.7452 -2.3476 0.9741
-4.7452 3.8744 -2.3476 0.9741
-4.8974 3.6802 -2.3476 0.9741
-5.1776 3.2742 -2.3476 0.9741
-5.3053 3.0630 -2.3476 0.9741
-5.4243 2.8469 -2.3476 0.9741
-5.8938 2.7967 -2.5000 0.9724
-6.0998 2.3133 -2.5000 0.9724
-6.2661 1.8150 -2.5000 0.9724
-6.4761 0.7864 -2.5000 0.9724
-6.5025 0.5249 -2.5000 0.9724
-2.6381 0.0000 -1.0797 0.9887
-2.6499 -0.2139 -1.0881 0.9886
-2.6602 -0.3230 -1.0968 0.9885
-5.9849 -1.2218 -2.5000 0.9739
-5.8672 -1.6995 -2.5000 0.9739
-5.6196 -2.3943 -2.5000 0.9739
-5.5186 -2.6186 -2.5000 0.9739
-5.2900 -3.0542 -2.5000 0.9739
-5.1627 -3.2647 -2.5000 0.9739
-4.7316 -3.8632 -2.5000 0.9739
-4.5722 -4.0506 -2.5000 0.9739
-4.2314 -4.4054 -2.5000 0.9739
-3.6696 -4.8833 -2.5000 0.9739
-2.8387 -5.4087 -2.5000 0.9739
-2.3943 -5.6196 -2.5000 0.9739
-2.1661 -5.7114 -2.5000 0.9739
-1.4618 -5.9309 -2.5000 0.9739
-1.2218 -5.9849 -2.5000 0.9739
-0.9799 -6.0293 -2.5000 0.9739
-0.4915 -6.0886 -2.5000 0.9739
0.0000 -6.1084 -2.5000 0.9739
0.2460 -6.1034 -2.5000 0.9739
0.7363 -6.0638 -2.5000 0.9739
1.2218 -5.9849 -2.5000 0.9739
1.6995 -5.8672 -2.5000 0.9739
2.6186 -5.5186 -2.5000 0.9739
3.0542 -5.2900 -2.5000 0.9739
3.2647 -5.1627 -2.5000 0.9739
3.6696 -4.8833 -2.5000 0.9739
3.8632 -4.7316 -2.5000 0.9739
4.0506 -4.5722 -2.5000 0.9739
4.2314 -4.4054 -2.5000 0.9739
4.5722 -4.0506 -2.5000 0.9739
4.7316 -3.8632 -2.5000 0.9739
5.0271 -3.4699 -2.5000 0.9739
5.1627 -3.2647 -2.5000 0.9739
5.2900 -3.0542 -2.5000 0.9739
5.4087 -2.8387 -2.5000 0.9739
5.5186 -2.6186 -2.5000 0.9739
5.6196 -2.3943 -2.5000 0.9739
5.7940 -1.9343 -2.5000 0.9739
5.8672 -1.6995 -2.5000 0.9739
3.9980 -0.6497 -1.6577 0.9826
3.9378 -0.3179 -1.6169 0.9831
3.9293 -0.1583 -1.6095 0.9831
3.9258 0.0000 -1.6067 0.9832
3.9528 0.4800 -1.6297 0.9829
3.9980 0.6497 -1.6577 0.9826
5.9309 1.4618 -2.5000 0.9739
5.8671 1.6995 -2.5000 0.9739
5.7940 1.9343 -2.5000 0.9739
5.1526 2.7043 -2.3816 0.9752
4.9742 2.8720 -2.3509 0.9755
4.8480 3.0657 -2.3476 0.9755
4.4431 3.6277 -2.3476 0.9755
4.1368 3.9735 -2.3476 0.9755
3.8037 4.2935 -2.3476 0.9755
3.4459 4.5856 -2.3476 0.9755
2.8680 4.9675 -2.3476 0.9755
2.6657 5.0790 -2.3476 0.9755
2.2483 5.2770 -2.3476 0.9755
2.0340 5.3633 -2.3476 0.9755
1.5959 5.5095 -2.3476 0.9755
1.3727 5.5693 -2.3476 0.9755
1.1473 5.6201 -2.3476 0.9755
0.9201 5.6617 -2.3476 0.9755
0.4616 5.7174 -2.3476 0.9755
0.2310 5.7313 -2.3476 0.9755
0.0000 5.7360 -2.3476 0.9755
-0.2310 5.7313 -2.3476 0.9755
-0.6914 5.6942 -2.3476 0.9755
-1.1474 5.6201 -2.3476 0.9755
-1.3727 5.5693 -2.3476 0.9755
-1.5958 5.5095 -2.3476 0.9755
-1.8164 5.4408 -2.3476 0.9755
-2.0340 5.3633 -2.3476 0.9755
-2.2483 5.2770 -2.3476 0.9755
-2.4590 5.1822 -2.3476 0.9755
-2.6656 5.0790 -2.3476 0.9755
-2.8680 4.9675 -2.3476 0.9755
-3.0657 4.8480 -2.3476 0.9755
-3.2584 4.7206 -2.3476 0.9755
-3.4459 4.5856 -2.3476 0.9755
-3.6277 4.4431 -2.3476 0.9755
-4.1368 3.9735 -2.3476 0.9755
-4.5856 3.4459 -2.3476 0.9755
-4.8480 3.0657 -2.3476 0.9755
-5.1716 2.7143 -2.3904 0.9751
-5.5186 2.6186 -2.5000 0.9739
-5.6196 2.3943 -2.5000 0.9739
-5.7114 2.1661 -2.5000 0.9739
-5.8672 1.6995 -2.5000 0.9739
-5.9309 1.4618 -2.5000 0.9739
-2.8591 0.4647 -1.1855 0.9876
-2.6418 0.1065 -1.0821 0.9886
-2.4008 -0.1938 -1.0497 0.9895
-5.1825 -2.4591 -2.5000 0.9753
-5.0793 -2.6658 -2.5000 0.9753
-4.8483 -3.0659 -2.5000 0.9753
-4.4434 -3.6279 -2.5000 0.9753
-4.1371 -3.9737 -2.5000 0.9753
-3.8039 -4.2937 -2.5000 0.9753
-3.4461 -4.5859 -2.5000 0.9753
-3.2586 -4.7209 -2.5000 0.9753
-2.6658 -5.0793 -2.5000 0.9753
-2.4591 -5.1825 -2.5000 0.9753
-2.2485 -5.2773 -2.5000 0.9753
-1.8165 -5.4411 -2.5000 0.9753
-1.3728 -5.5697 -2.5000 0.9753
-1.1474 -5.6204 -2.5000 0.9753
-0.9202 -5.6621 -2.5000 0.9753
-0.6914 -5.6945 -2.5000 0.9753
-0.2310 -5.7317 -2.5000 0.9753
-0.0000 -5.7364 -2.5000 0.9753
0.4616 -5.7178 -2.5000 0.9753
0.9202 -5.6621 -2.5000 0.9753
1.3728 -5.5697 -2.5000 0.9753
1.5959 -5.5099 -2.5000 0.9753
2.0341 -5.3636 -2.5000 0.9753
2.4591 -5.1825 -2.5000 0.9753
2.6658 -5.0793 -2.5000 0.9753
3.2586 -4.7209 -2.5000 0.9753
3.8039 -4.2937 -2.5000 0.9753
4.2937 -3.8039 -2.5000 0.9753
4.5859 -3.4461 -2.5000 0.9753
4.7209 -3.2586 -2.5000 0.9753
4.8483 -3.0659 -2.5000 0.9753
5.0793 -2.6658 -2.5000 0.9753
5.1825 -2.4591 -2.5000 0.9753
5.2773 -2.2485 -2.5000 0.9753
5.5099 -1.5960 -2.5000 0.9753
3.9802 -0.6468 -1.7574 0.9826
3.9309 -0.3173 -1.7187 0.9829
3.9231 -0.1581 -1.7112 0.9830
3.9231 0.1581 -1.7112 0.9830
3.9309 0.3173 -1.7187 0.9829
3.9802 0.6468 -1.7574 0.9826
5.5697 1.3728 -2.5000 0.9753
5.3636 2.0341 -2.5000 0.9753
5.2773 2.2485 -2.5000 0.9753
5.1825 2.4591 -2.5000 0.9753
5.0793 2.6658 -2.5000 0.9753
4.6922 2.7091 -2.3614 0.9766
4.3063 3.2360 -2.3476 0.9768
4.1725 3.4068 -2.3476 0.9768
4.0320 3.5720 -2.3476 0.9768
3.8849 3.7315 -2.3476 0.9768
3.5720 4.0320 -2.3476 0.9768
3.4068 4.1725 -2.3476 0.9768
3.2360 4.3063 -2.3476 0.9768
3.0600 4.4331 -2.3476 0.9768
2.5033 4.7697 -2.3476 0.9768
2.3092 4.8666 -2.3476 0.9768
2.1114 4.9556 -2.3476 0.9768
1.9101 5.0366 -2.3476 0.9768
1.4987 5.1740 -2.3476 0.9768
0.8641 5.3169 -2.3476 0.9768
0.6493 5.3474 -2.3476 0.9768
0.4334 5.3692 -2.3476 0.9768
0.2169 5.3823 -2.3476 0.9768
-0.2169 5.3823 -2.3476 0.9768
-0.4334 5.3692 -2.3476 0.9768
-0.6493 5.3474 -2.3476 0.9768
-1.0775 5.2778 -2.3476 0.9768
-1.4987 5.1740 -2.3476 0.9768
-1.7058 5.1094 -2.3476 0.9768
-1.9101 5.0366 -2.3476 0.9768
-2.1114 4.9556 -2.3476 0.9768
-2.5033 4.7697 -2.3476 0.9768
-2.6933 4.6650 -2.3476 0.9768
-2.8790 4.5528 -2.3476 0.9768
-3.0600 4.4331 -2.3476 0.9768
-3.7315 3.8849 -2.3476 0.9768
-4.0320 3.5720 -2.3476 0.9768
-4.3063 3.2360 -2.3476 0.9768
-4.5527 2.8790 -2.3476 0.9768
-5.0793 2.6658 -2.5000 0.9753
-5.1825 2.4591 -2.5000 0.9753
-5.2773 2.2485 -2.5000 0.9753
-5.3636 2.0341 -2.5000 0.9753
-5.4412 1.8165 -2.5000 0.9753
-5.5697 1.3728 -2.5000 0.9753
-2.4304 0.3950 -1.0731 0.9893
-2.4095 0.2926 -1.0578 0.9895
-2.4011 0.0968 -1.0473 0.9896
-2.2418 0.0000 -1.0377 0.9902
-2.2422 -0.2723 -1.0455 0.9901
-4.9687 -2.1170 -2.5000 0.9765
-4.8795 -2.3153 -2.5000 0.9765
-4.5648 -2.8866 -2.5000 0.9765
-4.4449 -3.0681 -2.5000 0.9765
-4.3177 -3.2446 -2.5000 0.9765
-4.0426 -3.5815 -2.5000 0.9765
-3.8951 -3.7413 -2.5000 0.9765
-3.7414 -3.8952 -2.5000 0.9765
-3.5815 -4.0426 -2.5000 0.9765
-3.4158 -4.1836 -2.5000 0.9765
-3.2446 -4.3177 -2.5000 0.9765
-2.8866 -4.5648 -2.5000 0.9765
-2.7004 -4.6773 -2.5000 0.9765
-2.3153 -4.8795 -2.5000 0.9765
-2.1170 -4.9687 -2.5000 0.9765
-1.9152 -5.0499 -2.5000 0.9765
-1.5026 -5.1877 -2.5000 0.9765
-1.2925 -5.2440 -2.5000 0.9765
-0.8664 -5.3310 -2.5000 0.9765
-0.6510 -5.3615 -2.5000 0.9765
-0.4346 -5.3834 -2.5000 0.9765
0.2175 -5.3965 -2.5000 0.9765
0.4346 -5.3834 -2.5000 0.9765
1.5026 -5.1877 -2.5000 0.9765
1.7103 -5.1230 -2.5000 0.9765
2.1170 -4.9687 -2.5000 0.9765
2.3153 -4.8795 -2.5000 0.9765
2.5099 -4.7823 -2.5000 0.9765
2.7005 -4.6773 -2.5000 0.9765
2.8866 -4.5648 -2.5000 0.9765
3.0681 -4.4449 -2.5000 0.9765
3.2446 -4.3177 -2.5000 0.9765
3.5815 -4.0426 -2.5000 0.9765
3.7413 -3.8952 -2.5000 0.9765
4.3177 -3.2446 -2.5000 0.9765
4.7823 -2.5099 -2.5000 0.9765
4.8795 -2.3153 -2.5000 0.9765
4.9687 -2.1170 -2.5000 0.9765
5.0499 -1.9152 -2.5000 0.9765
5.1230 -1.7103 -2.5000 0.9765
5.1877 -1.5026 -2.5000 0.9765
5.2440 -1.2925 -2.5000 0.9765
3.9277 -0.4769 -1.8314 0.9827
3.9126 -0.1577 -1.8126 0.9829
3.9100 0.0000 -1.8099 0.9829
3.9277 0.4769 -1.8314 0.9827
5.2918 1.0803 -2.5000 0.9765
5.2440 1.2925 -2.5000 0.9765
5.1877 1.5026 -2.5000 0.9765
5.1229 1.7103 -2.5000 0.9765
4.7823 2.5099 -2.5000 0.9765
4.6504 2.6849 -2.4856 0.9766
4.2968 2.7171 -2.3532 0.9778
4.1739 2.8810 -2.3476 0.9779
3.7962 3.3631 -2.3476 0.9779
3.5133 3.6577 -2.3476 0.9779
2.3569 4.4907 -2.3476 0.9779
1.9879 4.6658 -2.3476 0.9779
1.2137 4.9243 -2.3476 0.9779
1.0145 4.9692 -2.3476 0.9779
0.8136 5.0060 -2.3476 0.9779
0.6113 5.0347 -2.3476 0.9779
0.4081 5.0552 -2.3476 0.9779
-0.2042 5.0676 -2.3476 0.9779
-0.8136 5.0060 -2.3476 0.9779
-1.2137 4.9243 -2.3476 0.9779
-1.6060 4.8107 -2.3476 0.9779
-1.9879 4.6658 -2.3476 0.9779
-2.1742 4.5820 -2.3476 0.9779
-2.5358 4.3922 -2.3476 0.9779
-2.7106 4.2865 -2.3476 0.9779
-3.0468 4.0545 -2.3476 0.9779
-3.3631 3.7962 -2.3476 0.9779
-3.9285 3.2076 -2.3476 0.9779
-4.0545 3.0468 -2.3476 0.9779
-4.2945 2.7157 -2.3520 0.9779
-4.6461 2.6824 -2.4833 0.9766
-4.8795 2.3153 -2.5000 0.9765
-4.9687 2.1170 -2.5000 0.9765
-5.0499 1.9152 -2.5000 0.9765
-5.1230 1.7103 -2.5000 0.9765
-5.1877 1.5026 -2.5000 0.9765
-2.2422 0.2723 -1.0455 0.9901
-2.0970 -0.0845 -1.0295 0.9907
-2.0926 -0.1689 -1.0298 0.9907
-2.0958 -0.2545 -1.0356 0.9906
-2.0953 -0.3405 -1.0413 0.9906
-2.1259 -0.4340 -1.0643 0.9904
-4.8954 -1.4180 -2.5000 0.9775
-4.8343 -1.6139 -2.5000 0.9775
-4.4138 -2.5483 -2.5000 0.9775
-4.3076 -2.7240 -2.5000 0.9775
-3.8149 -3.3797 -2.5000 0.9775
-3.3797 -3.8149 -2.5000 0.9775
-2.7240 -4.3076 -2.5000 0.9775
-2.3685 -4.5128 -2.5000 0.9775
-1.9977 -4.6888 -2.5000 0.9775
-1.8073 -4.7654 -2.5000 0.9775
-0.8176 -5.0306 -2.5000 0.9775
-0.4101 -5.0801 -2.5000 0.9775
-0.2052 -5.0925 -2.5000 0.9775
0.0000 -5.0966 -2.5000 0.9775
0.2052 -5.0925 -2.5000 0.9775
0.6143 -5.0594 -2.5000 0.9775
0.8176 -5.0306 -2.5000 0.9775
1.2197 -4.9485 -2.5000 0.9775
1.4179 -4.8954 -2.5000 0.9775
1.6139 -4.8343 -2.5000 0.9775
1.9977 -4.6888 -2.5000 0.9775
2.3685 -4.5128 -2.5000 0.9775
2.5483 -4.4138 -2.5000 0.9775
2.7240 -4.3076 -2.5000 0.9775
2.8952 -4.1944 -2.5000 0.9775
3.3797 -3.8149 -2.5000 0.9775
3.5305 -3.6757 -2.5000 0.9775
3.6757 -3.5305 -2.5000 0.9775
3.8149 -3.3797 -2.5000 0.9775
4.1944 -2.8952 -2.5000 0.9775
4.3076 -2.7240 -2.5000 0.9775
4.4138 -2.5483 -2.5000 0.9775
4.6045 -2.1849 -2.5000 0.9775
4.8343 -1.6139 -2.5000 0.9775
4.8954 -1.4180 -2.5000 0.9775
4.9485 -1.2197 -2.5000 0.9775
3.9381 -0.6400 -1.9571 0.9824
3.9123 -0.4750 -1.9332 0.9826
3.9009 -0.3149 -1.9197 0.9827
3.9009 0.3149 -1.9197 0.9827
3.9123 0.4750 -1.9332 0.9826
3.9381 0.6400 -1.9571 0.9824
4.9936 1.0195 -2.5000 0.9775
4.9485 1.2197 -2.5000 0.9775
4.8954 1.4180 -2.5000 0.9775
4.8343 1.6139 -2.5000 0.9775
4.7654 1.8073 -2.5000 0.9775
3.9418 2.7208 -2.3494 0.9789
3.8261 2.8751 -2.3476 0.9789
3.7072 3.0268 -2.3476 0.9789
3.5823 3.1736 -2.3476 0.9789
3.4516 3.3153 -2.3476 0.9789
3.3153 3.4516 -2.3476 0.9789
3.1736 3.5823 -2.3476 0.9789
2.8751 3.8261 -2.3476 0.9789
2.7187 3.9387 -2.3476 0.9789
2.5579 4.0450 -2.3476 0.9789
2.2241 4.2377 -2.3476 0.9789
2.0517 4.3238 -2.3476 0.9789
1.8759 4.4029 -2.3476 0.9789
1.6971 4.4749 -2.3476 0.9789
1.3315 4.5969 -2.3476 0.9789
1.1454 4.6468 -2.3476 0.9789
0.9573 4.6892 -2.3476 0.9789
0.3851 4.7704 -2.3476 0.9789
0.1927 4.7820 -2.3476 0.9789
-0.1927 4.7820 -2.3476 0.9789
-0.3851 4.7704 -2.3476 0.9789
-0.5769 4.7510 -2.3476 0.9789
-0.7677 4.7239 -2.3476 0.9789
-0.9573 4.6892 -2.3476 0.9789
-1.1454 4.6468 -2.3476 0.9789
-1.3315 4.5969 -2.3476 0.9789
-1.5155 4.5396 -2.3476 0.9789
-2.0517 4.3238 -2.3476 0.9789
-2.8751 3.8261 -2.3476 0.9789
-3.0268 3.7072 -2.3476 0.9789
-3.1736 3.5823 -2.3476 0.9789
-3.4516 3.3153 -2.3476 0.9789
-3.7072 3.0268 -2.3476 0.9789
-3.8261 2.8751 -2.3476 0.9789
-4.2474 2.6859 -2.4651 0.9779
-4.5128 2.3685 -2.5000 0.9775
-4.7654 1.8073 -2.5000 0.9775
-4.8343 1.6139 -2.5000 0.9775
-4.8954 1.4180 -2.5000 0.9775
-2.1259 0.4340 -1.0643 0.9904
-2.0953 0.3405 -1.0413 0.9906
-2.0926 0.1689 -1.0298 0.9907
-2.0970 0.0845 -1.0295 0.9907
-1.9730 -0.1593 -1.0269 0.9911
-1.9739 -0.2397 -1.0315 0.9911
-1.9840 -0.4050 -1.0505 0.9909
-4.5710 -1.5260 -2.5000 0.9785
-4.5058 -1.7088 -2.5000 0.9785
-4.3537 -2.0659 -2.5000 0.9785
-4.2670 -2.2395 -2.5000 0.9785
-4.1734 -2.4095 -2.5000 0.9785
-4.0730 -2.5756 -2.5000 0.9785
-3.9659 -2.7375 -2.5000 0.9785
-3.7328 -3.0478 -2.5000 0.9785
-3.6071 -3.1956 -2.5000 0.9785
-3.3383 -3.4755 -2.5000 0.9785
-3.0478 -3.7328 -2.5000 0.9785
-2.7375 -3.9660 -2.5000 0.9785
-2.5756 -4.0730 -2.5000 0.9785
-1.8889 -4.4334 -2.5000 0.9785
-0.9639 -4.7216 -2.5000 0.9785
-0.5809 -4.7839 -2.5000 0.9785
-0.1940 -4.8151 -2.5000 0.9785
-0.0000 -4.8190 -2.5000 0.9785
0.1940 -4.8151 -2.5000 0.9785
0.7730 -4.7566 -2.5000 0.9785
1.5260 -4.5710 -2.5000 0.9785
1.8889 -4.4334 -2.5000 0.9785
2.0659 -4.3537 -2.5000 0.9785
2.4095 -4.1734 -2.5000 0.9785
2.5756 -4.0730 -2.5000 0.9785
3.0478 -3.7328 -2.5000 0.9785
3.6071 -3.1956 -2.5000 0.9785
4.0730 -2.5756 -2.5000 0.9785
4.1734 -2.4095 -2.5000 0.9785
4.2670 -2.2395 -2.5000 0.9785
4.3537 -2.0659 -2.5000 0.9785
4.4334 -1.8889 -2.5000 0.9785
4.5058 -1.7088 -2.5000 0.9785
4.5710 -1.5260 -2.5000 0.9785
4.6287 -1.3407 -2.5000 0.9785
4.6790 -1.1533 -2.5000 0.9785
4.7216 -0.9639 -2.5000 0.9785
3.9416 -0.6406 -2.0716 0.9822
3.8994 -0.0000 -2.0229 0.9826
3.8989 0.1571 -2.0243 0.9826
3.8993 0.3148 -2.0294 0.9825
4.7216 0.9639 -2.5000 0.9785
4.6790 1.1533 -2.5000 0.9785
4.5710 1.5260 -2.5000 0.9785
4.5058 1.7088 -2.5000 0.9785
4.0730 2.5756 -2.5000 0.9785
3.8972 2.6900 -2.4566 0.9789
3.6205 2.7207 -2.3495 0.9798
2.7185 3.6177 -2.3476 0.9798
2.5706 3.7242 -2.3476 0.9798
2.4186 3.8247 -2.3476 0.9798
1.7737 4.1631 -2.3476 0.9798
1.4330 4.2924 -2.3476 0.9798
0.5455 4.4922 -2.3476 0.9798
0.3641 4.5106 -2.3476 0.9798
-0.1822 4.5216 -2.3476 0.9798
-0.3641 4.5106 -2.3476 0.9798
-0.9052 4.4338 -2.3476 0.9798
-1.0830 4.3937 -2.3476 0.9798
-1.2590 4.3466 -2.3476 0.9798
-1.6047 4.2312 -2.3476 0.9798
-2.2626 3.9190 -2.3476 0.9798
-2.4186 3.8247 -2.3476 0.9798
-2.5706 3.7242 -2.3476 0.9798
-2.7185 3.6177 -2.3476 0.9798
-2.8620 3.5053 -2.3476 0.9798
-3.1347 3.2636 -2.3476 0.9798
-3.2636 3.1347 -2.3476 0.9798
-3.3872 3.0008 -2.3476 0.9798
-3.8942 2.6880 -2.45471.9977 
-4.1734 2.4095 -2.5000 0.9785
-4.2670 2.2395 -2.5000 0.9785
-4.3537 2.0659 -2.5000 0.9785
-4.5710 1.5260 -2.5000 0.9785
-4.6287 1.3407 -2.5000 0.9785
-2.4132 0.5948 -1.2894 0.9889
-1.9840 0.4050 -1.0505 0.9909
-1.9734 0.3207 -1.0372 0.9910
-1.9730 0.1593 -1.0269 0.9911
-1.9769 0.0797 -1.0264 0.9911
-1.8782 -0.1516 -1.0321 0.9914
-1.8739 -0.3045 -1.0398 0.9914
-4.3843 -1.2699 -2.5000 0.9794
-4.3296 -1.4454 -2.5000 0.9794
-4.2679 -1.6186 -2.5000 0.9794
-4.1993 -1.7891 -2.5000 0.9794
-4.1238 -1.9568 -2.5000 0.9794
-3.9530 -2.2823 -2.5000 0.9794
-3.7565 -2.5929 -2.5000 0.9794
-3.6491 -2.7421 -2.5000 0.9794
-3.5357 -2.8868 -2.5000 0.9794
-3.4166 -3.0268 -2.5000 0.9794
-3.1620 -3.2919 -2.5000 0.9794
-3.0268 -3.4166 -2.5000 0.9794
-2.7421 -3.6491 -2.5000 0.9794
-1.9568 -4.1238 -2.5000 0.9794
-1.6186 -4.2679 -2.5000 0.9794
-0.7322 -4.5054 -2.5000 0.9794
-0.5502 -4.5312 -2.5000 0.9794
-0.1838 -4.5608 -2.5000 0.9794
0.0000 -4.5645 -2.5000 0.9794
0.1838 -4.5608 -2.5000 0.9794
0.3673 -4.5497 -2.5000 0.9794
0.5502 -4.5312 -2.5000 0.9794
0.7322 -4.5054 -2.5000 0.9794
0.9130 -4.4723 -2.5000 0.9794
1.6186 -4.2679 -2.5000 0.9794
2.2823 -3.9530 -2.5000 0.9794
3.1619 -3.2919 -2.5000 0.9794
3.5357 -2.8868 -2.5000 0.9794
3.7565 -2.5929 -2.5000 0.9794
4.1238 -1.9568 -2.5000 0.9794
4.2679 -1.6186 -2.5000 0.9794
4.3296 -1.4454 -2.5000 0.9794
4.4319 -1.0924 -2.5000 0.9794
4.2599 -0.6923 -2.3638 0.9805
3.8985 -0.3147 -2.1422 0.9823
3.8991 0.1571 -2.1373 0.9824
3.9164 0.4755 -2.1608 0.9822
4.4319 1.0924 -2.5000 0.9794
4.3296 1.4454 -2.5000 0.9794
4.2679 1.6186 -2.5000 0.9794
4.1993 1.7891 -2.5000 0.9794
4.1238 1.9568 -2.5000 0.9794
3.9530 2.2823 -2.5000 0.9794
3.7565 2.5929 -2.5000 0.9794
3.5805 2.6906 -2.4530 0.9798
3.3278 2.7171 -2.3530 0.9806
2.8423 3.2083 -2.3476 0.9806
1.9919 3.7953 -2.3476 0.9806
1.5199 4.0077 -2.3476 0.9806
1.3573 4.0657 -2.3476 0.9806
1.0258 4.1617 -2.3476 0.9806
0.6876 4.2308 -2.3476 0.9806
0.5167 4.2550 -2.3476 0.9806
0.3449 4.2724 -2.3476 0.9806
0.1726 4.2828 -2.3476 0.9806
0.0000 4.2863 -2.3476 0.9806
-0.1726 4.2828 -2.3476 0.9806
-0.3449 4.2724 -2.3476 0.9806
-0.6876 4.2308 -2.3476 0.9806
-0.8574 4.1996 -2.3476 0.9806
-1.0258 4.1617 -2.3476 0.9806
-1.6801 3.9433 -2.3476 0.9806
-1.9919 3.7953 -2.3476 0.9806
-2.2908 3.6227 -2.3476 0.9806
-2.7108 3.3202 -2.3476 0.9806
-2.9692 3.0913 -2.3476 0.9806
-3.0913 2.9692 -2.3476 0.9806
-3.2083 2.8423 -2.3476 0.9806
-3.3264 2.7160 -2.3520 0.9806
-3.9530 2.2823 -2.5000 0.9794
-4.0417 2.1212 -2.5000 0.9794
-4.1992 1.7891 -2.5000 0.9794
-4.2679 1.6186 -2.5000 0.9794
-4.3296 1.4454 -2.5000 0.9794
-4.3843 1.2699 -2.5000 0.9794
-1.8732 0.3824 -1.0471 0.9913
-1.8739 0.3045 -1.0398 0.9914
-1.8782 0.1516 -1.0321 0.9914
-1.8820 0.0758 -1.0316 0.9914
-1.7936 -0.0723 -1.0364 0.9917
-1.7863 -0.2169 -1.0389 0.9917
-1.7777 -0.3629 -1.0475 0.9917
-2.5146 -0.7284 -1.5115 0.9880
-4.0487 -1.5355 -2.5000 0.9802
-3.8341 -2.0123 -2.5000 0.9802
-3.7500 -2.1651 -2.5000 0.9802
-3.6598 -2.3143 -2.5000 0.9802
-3.3542 -2.7386 -2.5000 0.9802
-2.9996 -3.1229 -2.5000 0.9802
-2.7386 -3.3541 -2.5000 0.9802
-2.6013 -3.4617 -2.5000 0.9802
-2.1651 -3.7500 -2.5000 0.9802
-2.0123 -3.8341 -2.5000 0.9802
-1.6973 -3.9836 -2.5000 0.9802
-1.3712 -4.1073 -2.5000 0.9802
-1.2047 -4.1592 -2.5000 0.9802
-0.6946 -4.2741 -2.5000 0.9802
-0.5219 -4.2986 -2.5000 0.9802
-0.3484 -4.3161 -2.5000 0.9802
0.0000 -4.3301 -2.5000 0.9802
0.1744 -4.3266 -2.5000 0.9802
0.6946 -4.2741 -2.5000 0.9802
0.8661 -4.2426 -2.5000 0.9802
1.2047 -4.1592 -2.5000 0.9802
1.5355 -4.0487 -2.5000 0.9802
1.6973 -3.9836 -2.5000 0.9802
1.8563 -3.9121 -2.5000 0.9802
2.1651 -3.7500 -2.5000 0.9802
2.4598 -3.5636 -2.5000 0.9802
2.9996 -3.1229 -2.5000 0.9802
3.2411 -2.8714 -2.5000 0.9802
3.4617 -2.6013 -2.5000 0.9802
3.5636 -2.4598 -2.5000 0.9802
3.6598 -2.3143 -2.5000 0.9802
3.7500 -2.1651 -2.5000 0.9802
4.0487 -1.5355 -2.5000 0.9802
4.2043 -1.0363 -2.5000 0.9802
4.2426 -0.8661 -2.5000 0.9802
4.2986 -0.5219 -2.5000 0.9802
4.3161 -0.3484 -2.5000 0.9802
4.3266 -0.1744 -2.5000 0.9802
4.2986 0.5219 -2.5000 0.9802
4.1592 1.2047 -2.5000 0.9802
4.1073 1.3712 -2.5000 6176 -
3.8341 2.0123 -2.5000 0.9802
3.7500 2.1651 -2.5000 0.9802
3.2946 2.6900 -2.4557 0.9805
2.9325 2.8167 -2.3476 0.9814
2.8167 2.9325 -2.3476 0.9814
2.5716 3.1497 -2.3476 0.9814
2.4427 3.2507 -2.3476 0.9814
2.3099 3.3464 -2.3476 0.9814
2.1732 3.4367 -2.3476 0.9814
1.5938 3.7408 -2.3476 0.9814
1.4419 3.8019 -2.3476 0.9814
