ply
format ascii 1.0
element vertex 1571
property float32 x
property float32 y
property float32 z
property float32 I
end_header
-5.6160 -8.8810 1.8528 0.9582
-4.5192 -9.5241 1.8588 0.9581
-4.1072 -9.6400 1.8476 0.9583
-2.9857 -8.9434 1.6625 0.9624
-2.3309 -9.4569 1.7174 0.9612
-1.1284 -9.2937 1.6508 0.9627
0.0000 -9.4437 1.6652 0.9624
0.7432 -9.2065 1.6286 0.9632
1.0965 -9.0303 1.6040 0.9637
1.4307 -8.8036 1.5727 0.9644
1.7482 -8.5631 1.5410 0.9651
27.2194 -9.0871 5.0599 0.8900
27.7893 -8.0493 5.1014 0.8891
23.8153 1.9226 4.2129 0.9075
20.7272 3.3685 3.7027 0.9182
35.0825 20.2549 7.1430 0.8483
36.1856 22.8824 7.5492 0.8404
15.3191 17.2917 4.0734 0.9104
15.9494 19.5345 4.4467 0.9026
14.5381 21.0621 4.5126 0.9013
5.8346 10.1057 2.0576 0.9537
4.8407 10.2015 1.9910 0.9552
4.6839 16.1708 2.9686 0.9339
4.0159 16.2930 2.9589 0.9341
2.6139 16.0837 2.8732 0.9360
1.2959 16.0522 2.8396 0.9367
-0.0000 15.8721 2.7987 0.9376
-3.3551 20.6450 3.6880 0.9186
-4.5153 22.1173 3.9803 0.9124
-40.2956 21.1488 8.0243 0.8312
-35.9844 -10.4230 5.7392 0.8593
-35.0022 -11.6854 5.6531 0.8613
-32.8999 -22.7092 6.1242 0.8506
-2.2360 -9.0717 1.4313 0.9629
-0.7298 -9.0408 1.3895 0.9640
-0.3665 -9.0956 1.3945 0.9638
0.3589 -8.9065 1.3655 0.9646
1.0255 -8.4458 1.3033 0.9662
1.9189 -7.7853 1.2284 0.9681
2.1663 -7.4788 1.1928 0.9690
38.3832 -28.8431 7.3552 0.8234
28.0141 -11.9357 4.6649 0.8841
27.7495 -9.2641 4.4817 0.8884
20.4100 4.1667 3.1912 0.9192
34.8753 20.1352 6.1692 0.8496
20.9842 15.7686 4.0211 0.8992
3.1477 2.7886 0.6442 0.9831
2.8634 2.9811 0.6332 0.9834
14.6471 16.5331 3.3838 0.9145
14.6144 17.8994 3.5400 0.9107
6.7246 9.7422 1.8135 0.9532
5.7919 9.1591 1.6601 0.9571
5.2181 9.0379 1.5988 0.9586
5.3365 10.1676 1.7591 0.9546
4.3811 10.2826 1.7123 0.9558
5.3917 16.1502 2.6083 0.9334
4.0159 16.2930 2.5707 0.9343
3.3229 16.2764 2.5449 0.9350
2.6139 16.0837 2.4963 0.9362
1.9510 16.0679 2.4796 0.9366
0.6402 15.8874 2.4358 0.9377
-0.0000 15.8721 2.4315 0.9378
-0.8417 20.8877 3.2025 0.9189
-1.7826 22.0813 3.3937 0.9143
-2.5098 20.6699 3.1898 0.9192
-3.3559 20.6497 3.2049 0.9188
-4.2115 20.6292 3.2255 0.9183
-2.5856 2.2906 0.5292 0.9861
-38.4328 20.1711 6.6493 0.8389
-40.2215 19.0854 6.8202 0.8351
-42.9357 -5.2134 5.6322 0.8399
-33.1515 -6.7680 4.4061 0.8724
-35.0247 -8.6328 4.6974 0.8646
-27.0961 -7.8485 3.6735 0.8924
-34.7831 -13.1915 4.8443 0.8607
-33.4905 -23.1168 5.2992 0.8486
-31.9731 -24.0262 5.2081 0.8510
-5.3966 -7.8183 1.2371 0.9624
-4.7407 -8.2111 1.2347 0.9625
-4.0502 -8.5356 1.2303 0.9626
-3.7086 -8.7044 1.2321 0.9626
-3.3605 -8.8609 1.2341 0.9625
-1.8423 -11.3358 1.4955 0.9547
-0.7050 -8.7337 1.1410 0.9653
0.9606 -7.9109 1.0377 0.9684
1.2526 -7.7073 1.0168 0.9690
1.5343 -7.5156 0.9989 0.9695
25.5691 -22.6522 4.4483 0.8713
25.4700 -19.1394 4.1488 0.8794
25.2814 -17.4505 4.0003 0.8835
25.2567 -15.9714 3.8914 0.8864
29.9922 -15.7411 4.4108 0.8723
26.7892 -6.6030 3.5929 0.8947
20.7095 2.5146 2.7166 0.9193
13.0731 2.1246 1.7247 0.9480
20.2148 16.5049 3.3984 0.9001
2.9513 2.8348 0.5329 0.9836
2.8627 2.9804 0.5381 0.9835
14.8203 19.7222 3.2125 0.9053
14.2052 20.5798 3.2563 0.9041
6.7664 10.7002 1.6486 0.9502
5.4340 9.4118 1.4152 0.9571
5.0509 9.6236 1.4153 0.9571
4.3110 10.1183 1.4322 0.9566
5.8428 15.4063 2.1457 0.9357
4.4529 15.3730 2.0842 0.9375
3.7852 15.3571 2.0597 0.9382
2.6139 16.0837 2.1219 0.9364
1.9510 16.0679 2.1077 0.9368
1.2959 16.0522 2.0971 0.9371
-1.7908 22.1825 2.8980 0.9141
-4.2115 20.6292 2.7418 0.9186
-9.5334 13.8116 2.1854 0.9345
-29.7246 22.3366 4.8418 0.8607
-38.6120 18.3216 5.5654 0.8416
-44.0477 18.7670 6.2348 0.8244
-38.8065 3.1328 5.0699 0.8547
-41.3992 -5.0268 4.4782 0.8455
-33.1972 -6.7773 3.6383 0.8726
-36.1287 -8.9050 3.9957 0.8610
-35.1179 -11.7241 3.9756 0.8616
-32.0304 -24.0693 4.3023 0.8511
-5.1534 -7.4660 0.9742 0.9642
-4.4838 -7.7662 0.9630 0.9646
-4.1562 -7.9190 0.9604 0.9647
-3.8315 -8.0746 0.9597 0.9647
-3.5080 -8.2337 0.9611 0.9646
-3.1845 -8.3969 0.9643 0.9645
-1.8418 -11.3332 1.2329 0.9549
25.7670 -29.0849 4.1725 0.8553
25.7350 -21.0120 3.5676 0.8749
25.2308 -15.9550 3.2056 0.8868
32.8130 -15.5700 3.9001 0.8641
26.6813 -7.7283 2.9829 0.8943
23.8672 0.0000 2.5629 0.9084
22.9571 1.8533 2.4732 0.9115
12.9892 2.1110 1.4131 0.9484
21.5071 5.3011 2.3786 0.9147
34.8192 20.1028 4.3174 0.8507
20.2148 16.5049 2.8023 0.9003
14.8203 19.7222 2.6491 0.9055
5.9570 8.6301 1.1260 0.9587
5.4866 8.6762 1.1023 0.9595
6.0273 10.4394 1.2944 0.9527
4.4529 15.3730 1.7186 0.9376
3.7852 15.3571 1.6984 0.9384
3.1320 15.3414 1.6814 0.9390
1.2959 16.0522 1.7293 0.9373
0.6819 16.9203 1.8184 0.9341
-0.0000 19.1529 2.0567 0.9258
-1.6699 20.6853 2.2285 0.9199
-32.7099 31.4184 4.8703 0.8332
-2.5856 2.2906 0.3709 0.9862
-37.9429 21.9064 4.7047 0.8384
-38.0765 19.9841 4.6176 0.8411
-39.1947 18.5981 4.6586 0.8399
-48.2248 11.8864 5.3334 0.8189
-40.8708 8.3438 4.4793 0.8455
-37.9303 4.6056 4.1029 0.8575
-39.3666 1.5865 4.2307 0.8534
-49.3949 0.0001 4.1814 0.8201
-46.9180 -3.7876 3.9847 0.8278
-41.1807 -5.0003 3.5117 0.8466
-41.0257 -6.6674 3.5185 0.8463
-47.1127 -11.6123 4.1076 0.8230
-37.0576 -10.7339 3.2660 0.8565
-27.2797 -11.6228 2.5102 0.8878
-32.7216 -20.6920 3.2773 0.8561
-32.5033 -22.4354 3.3433 0.8534
-31.7849 -23.8848 3.3657 0.8525
-2.0985 -17.2824 1.4737 0.9325
-1.3926 -17.2507 1.4651 0.9329
-0.6941 -17.2240 1.4592 0.9331
0.6925 -17.1852 1.4560 0.9333
1.3863 -17.1729 1.4585 0.9332
2.0842 -17.1652 1.4638 0.9329
2.7891 -17.1623 1.4719 0.9326
25.5512 -28.8414 3.2618 0.8567
27.5835 -28.7175 3.3708 0.8523
25.2308 -15.9550 2.5271 0.8871
26.0262 -15.0262 2.5440 0.8864
30.3432 -15.9253 2.9009 0.8715
32.9488 -15.6344 3.0873 0.8638
28.4709 -7.0174 2.4823 0.8890
27.9392 -5.7038 2.4139 0.8918
29.1013 -4.7294 2.4958 0.8884
21.5413 2.6156 1.8369 0.9166
13.0483 2.1206 1.1191 0.9483
14.4508 2.9502 1.2485 0.9425
20.8330 6.0344 1.8361 0.9166
46.5397 17.6502 4.2135 0.8189
45.1250 19.2259 4.1522 0.8213
33.8873 19.5648 3.3124 0.8546
33.5659 21.2258 3.3619 0.8526
24.0442 16.5965 2.4732 0.8893
19.2626 15.7274 2.1051 0.9050
2.9500 2.8335 0.3463 0.9837
7.6486 8.6334 0.9764 0.9548
14.5739 19.3944 2.0537 0.9072
14.5381 21.0621 2.1665 0.9024
5.1795 9.8687 0.9435 0.9562
4.6763 10.9755 1.0099 0.9532
3.4277 10.2672 0.9163 0.9575
3.7852 15.3571 1.3389 0.9385
3.1320 15.3414 1.3255 0.9391
-0.0000 19.1529 1.6213 0.9260
-0.8346 20.7094 1.7545 0.9202
-1.6699 20.6853 1.7568 0.9201
-3.4676 21.3372 1.8299 0.9169
-4.5153 22.1173 1.9109 0.9134
-14.2539 42.6956 3.8104 0.8347
-16.1703 42.6377 3.8603 0.8327
-20.2109 42.5941 3.9910 0.8276
-29.7404 22.3484 3.1492 0.8613
-37.0891 21.4134 3.6254 0.8420
-38.5881 20.2526 3.6892 0.8395
-37.3270 17.7119 3.4975 0.8472
-44.4569 18.9414 4.0907 0.8237
-40.3910 9.9555 3.5215 0.8462
-40.8670 8.3431 3.5309 0.8458
-36.9858 4.4909 3.1539 0.8611
-37.2078 3.0037 3.1600 0.8608
-48.8666 0.0000 3.0302 0.8221
-43.6321 -3.5224 2.7144 0.8391
-33.5423 -5.4512 2.1073 0.8727
-39.4062 -9.7128 2.5167 0.8499
-36.0266 -10.4352 2.3258 0.8604
-35.6324 -11.8958 2.3295 0.8602
-27.2774 -11.6218 1.8386 0.8880
-32.9445 -22.7399 2.4823 0.8518
-32.3979 -24.3454 2.5130 0.8501
0.0000 -16.4573 1.0205 0.9362
0.6626 -16.4411 1.0203 0.9362
1.3262 -16.4281 1.0220 0.9361
3.3497 -16.4078 1.0384 0.9351
14.6184 -23.1172 1.6961 0.8962
16.0870 -16.7484 1.4401 0.9111
19.0979 -16.9193 1.5822 0.9028
20.8536 -17.0264 1.6694 0.8977
25.1953 -15.9325 1.8485 0.8874
25.9362 -14.9743 1.8571 0.8869
30.3432 -15.9253 2.1250 0.8717
26.7222 -12.6798 1.8341 0.8882
29.7900 -6.0817 1.8854 0.8853
30.0980 -3.6546 1.8801 0.8856
20.4126 1.6479 1.2699 0.9212
23.2881 2.8277 1.4547 0.9103
21.7946 4.4494 1.3794 0.9147
22.2844 5.4926 1.4232 0.9121
43.7674 18.6475 2.9501 0.8264
35.8496 18.8152 2.5106 0.8502
33.9679 19.6113 2.4322 0.8545
24.0441 16.5965 1.8117 0.8895
20.9842 15.7686 1.6277 0.9001
19.2626 15.7274 1.5420 0.9051
15.3191 17.2917 1.4325 0.9116
6.7872 8.3128 0.6655 0.9579
5.9715 9.4431 0.6928 0.9562
5.9781 10.3542 0.7414 0.9532
5.4030 10.2945 0.7210 0.9545
5.0983 10.7443 0.7375 0.9535
4.7537 11.1573 0.7521 0.9526
3.7751 11.3076 0.7392 0.9533
3.3454 11.5494 0.7456 0.9530
2.7964 17.2067 1.0810 0.9325
2.1342 17.5768 1.0980 0.9315
0.6402 15.8874 0.9860 0.9383
-0.0000 15.8721 0.9842 0.9384
-0.8346 20.7094 1.2852 0.9203
-1.6699 20.6853 1.2869 0.9202
-2.5092 20.6652 1.2909 0.9200
-3.3551 20.6450 1.2970 0.9196
-4.5153 22.1173 1.3998 0.9135
-10.5686 42.8784 2.7385 0.8378
-32.9398 31.6392 2.8322 0.8327
-34.5523 28.2111 2.7661 0.8363
-29.7388 22.3472 2.3067 0.8615
-37.5791 17.8315 2.5793 0.8465
-40.2050 17.1298 2.7100 0.8393
-47.8366 13.8561 3.0883 0.8191
-39.1083 9.6394 2.4977 0.8509
-37.4647 -17.7773 1.6351 0.8470
-32.6247 -20.6307 1.5221 0.8568
-31.6168 -21.8236 1.5148 0.8575
-31.9029 -23.9735 1.5736 0.8524
-4.2674 -14.7327 0.6048 0.9404
-3.6418 -14.7754 0.6000 0.9409
-3.0134 -14.7604 0.5940 0.9415
-1.8406 -11.3254 0.4524 0.9551
1.1805 -14.6236 0.5785 0.9430
4.2252 -14.5871 0.5988 0.9410
14.7974 -31.1848 1.3611 0.8709
14.7528 -23.3296 1.0884 0.8954
15.1899 -22.0064 1.0544 0.8985
14.6231 -17.9100 0.9117 0.9116
17.8964 -15.8548 0.9428 0.9087
19.4741 -15.9001 0.9913 0.9043
25.3539 -17.5005 1.2148 0.8840
30.3180 -15.9121 1.3501 0.8719
33.5234 -14.2830 1.4368 0.8643
37.2378 -14.1224 1.5704 0.8526
42.0733 -14.0461 1.7490 0.8373
33.6102 -5.4622 1.3427 0.8726
22.6543 1.8289 0.8962 0.9130
22.3614 2.7152 0.8882 0.9138
21.9408 3.5657 0.8765 0.9149
21.0279 4.2929 0.8463 0.9177
26.3470 7.6315 1.0816 0.8960
43.8971 18.7028 1.8815 0.8261
36.0833 17.1217 1.5748 0.8522
35.7465 18.7612 1.5919 0.8508
34.7057 20.0373 1.5802 0.8518
34.8323 22.0266 1.6250 0.8479
22.0192 16.5463 1.0861 0.8956
20.2126 16.5031 1.0289 0.9008
14.6144 17.8994 0.9112 0.9116
5.8595 8.4888 0.4067 0.9595
5.8803 9.2989 0.4338 0.9569
4.9331 10.3963 0.4537 0.9550
3.8764 10.2211 0.4310 0.9572
3.9719 16.1145 0.6544 0.9357
2.7942 17.1935 0.6868 0.9326
0.6526 8.0830 0.3198 0.9681
0.0001 7.9255 0.3125 0.9688
-10.8086 32.3757 1.3459 0.8723
-2.5856 2.2906 0.1362 0.9863
-34.8961 28.4917 1.7764 0.8350
-29.7372 22.3460 1.4667 0.8617
-37.7533 19.8145 1.6812 0.8431
-38.6745 18.3512 1.6879 0.8425
-39.5448 8.0731 1.5915 0.8508
-38.2072 6.2093 1.5263 0.8565
-37.6061 4.5662 1.4937 0.8593
-37.2212 3.0048 1.4724 0.8612
-41.4886 -5.0377 0.7060 0.8460
-40.8669 -6.6416 0.6994 0.8474
-31.6889 -7.8107 0.5513 0.8776
-34.3249 -21.7057 0.6860 0.8500
-31.1675 -21.5133 0.6397 0.8594
-30.8973 -23.2178 0.6528 0.8567
-32.9143 -26.8736 0.7178 0.8437
-4.2674 -14.7327 0.2591 0.9405
-3.6418 -14.7754 0.2571 0.9409
-3.0134 -14.7604 0.2545 0.9415
-1.8401 -11.3228 0.1938 0.9551
-1.1881 -14.7167 0.2494 0.9426
-0.5925 -14.7024 0.2486 0.9428
0.5913 -14.6741 0.2481 0.9429
1.7783 -14.6457 0.2492 0.9427
3.5991 -14.6021 0.2540 0.9416
14.8853 -31.3701 0.5865 0.8703
14.3990 -27.4351 0.5234 0.8834
14.8629 -23.5038 0.4697 0.8947
14.2425 -20.6338 0.4235 0.9046
13.7913 -14.3582 0.3363 0.9234
14.9204 -14.3312 0.3495 0.9206
16.1436 -14.3019 0.3643 0.9173
25.2402 -15.9610 0.5045 0.8874
30.2778 -15.8910 0.5776 0.8721
42.1048 -14.0566 0.7498 0.8373
30.0041 -8.6908 0.5277 0.8825
22.6819 8.6021 0.4098 0.9075
44.1894 18.8273 0.8114 0.8252
42.4051 22.2559 0.8090 0.8256
35.6483 20.5815 0.6953 0.8482
34.5174 21.8275 0.6899 0.8493
24.0609 16.6081 0.4939 0.8896
20.2126 16.5031 0.4408 0.9009
2.9479 2.8315 0.0690 0.9838
8.5219 9.6192 0.2171 0.9499
8.0767 9.8921 0.2157 0.9502
7.2759 9.6824 0.2046 0.9527
7.0589 10.2265 0.2099 0.9515
6.3954 10.1135 0.2021 0.9533
3.5884 10.7485 0.1914 0.9557
3.2733 13.2802 0.2310 0.9468
3.2865 16.0981 0.2775 0.9364
2.7921 17.1803 0.2940 0.9327
2.1331 17.5679 0.2989 0.9317
0.6380 7.9018 0.1339 0.9688
0.3148 7.8109 0.1320 0.9692
0.0001 7.7648 0.1312 0.9694
-0.6520 8.0778 0.1369 0.9681
-0.9974 8.2146 0.1398 0.9674
-1.3478 8.2936 0.1419 0.9669
-1.7599 8.6210 0.1486 0.9654
-2.5856 2.2906 0.0584 0.9863
-29.7347 22.3441 0.6283 0.8617
-37.8717 21.8653 0.7387 0.8395
-38.9755 18.4941 0.7287 0.8415
-39.6408 9.7706 0.6896 0.8493
-40.2076 8.2084 0.6932 0.8486
-37.5468 4.5590 0.6389 0.8596
-32.4858 -6.6321 -0.1867 0.8758
-27.2704 -11.6188 -0.1669 0.8882
-31.2911 -21.5987 -0.2141 0.8589
-31.0422 -23.3267 -0.2186 0.8561
-32.8234 -26.7995 -0.2386 0.8441
-4.2674 -14.7327 -0.0864 0.9405
-3.0134 -14.7604 -0.0848 0.9415
-1.8397 -11.3202 -0.0646 0.9552
-1.7887 -14.7310 -0.0835 0.9424
-0.5925 -14.7024 -0.0828 0.9428
0.0000 -14.6883 -0.0827 0.9429
0.5913 -14.6741 -0.0827 0.9429
1.1805 -14.6236 -0.0826 0.9430
1.7783 -14.6457 -0.0831 0.9427
13.1481 -34.6687 -0.2088 0.8622
14.7565 -34.6349 -0.2120 0.8602
15.0600 -31.7382 -0.1978 0.8689
14.9188 -25.8402 -0.1680 0.8875
14.8629 -23.5038 -0.1566 0.8947
14.6422 -21.2129 -0.1451 0.9020
14.7708 -19.6564 -0.1384 0.9063
16.1436 -14.3019 -0.1214 0.9173
18.9433 -14.2349 -0.1334 0.9096
20.5666 -14.1961 -0.1407 0.9049
32.1571 -15.2587 -0.2004 0.8673
40.7241 -13.5957 -0.2417 0.8422
43.3895 18.4865 -0.2655 0.8281
44.4739 21.1031 -0.2772 0.8213
35.2564 22.2948 -0.2349 0.8463
24.2200 16.7179 -0.1657 0.8889
2.9472 2.8309 -0.0230 0.9838
7.2491 8.8784 -0.0645 0.9552
6.9908 9.3030 -0.0655 0.9545
6.6251 9.5980 -0.0657 0.9544
6.2453 9.8761 -0.0658 0.9543
5.7142 9.8971 -0.0643 0.9553
4.5274 9.5411 -0.0595 0.9586
3.9372 9.2408 -0.0566 0.9606
3.3810 10.1271 -0.0601 0.9582
2.9874 12.1203 -0.0703 0.9513
2.4749 12.1228 -0.0697 0.9517
2.7917 17.1778 -0.0980 0.9328
0.9826 8.0919 -0.0459 0.9679
0.6289 7.7898 -0.0440 0.9692
0.3104 7.7018 -0.0434 0.9696
-0.9824 8.0910 -0.0459 0.9679
-1.3301 8.1846 -0.0467 0.9674
-2.2972 9.3203 -0.0540 0.9623
-38.6701 20.2957 -0.2459 0.8397
-39.7034 11.5002 -0.2327 0.8476
-39.2722 9.6798 -0.2277 0.8506
-37.9642 3.0648 -0.2144 0.8587
-35.8796 -5.8310 -1.0235 0.8646
-32.3237 -6.5990 -0.9289 0.8763
-33.0906 -8.1562 -0.9596 0.8725
-27.2680 -11.6178 -0.8346 0.8882
-34.7933 -22.0019 -1.1591 0.8481
-33.5545 -34.9338 -1.3639 0.8238
-30.9094 -34.8895 -1.3125 0.8298
-30.8404 -37.7727 -1.3731 0.8227
-3.0134 -14.7604 -0.4242 0.9415
-1.8393 -11.3176 -0.3229 0.9552
-1.7887 -14.7310 -0.4178 0.9423
-0.5925 -14.7024 -0.4143 0.9428
-0.0000 -14.6883 -0.4136 0.9429
0.5913 -14.6741 -0.4135 0.9429
3.5991 -14.6021 -0.4235 0.9416
11.5866 -34.7061 -1.0303 0.8638
15.0600 -31.7382 -0.9892 0.8689
14.9837 -28.5490 -0.9079 0.8790
14.9188 -25.8402 -0.8402 0.8875
14.8629 -23.5038 -0.7830 0.8947
14.6422 -21.2129 -0.7258 0.9020
14.7708 -19.6564 -0.6923 0.9063
14.7323 -18.0437 -0.6559 0.9110
12.7425 -14.3833 -0.5411 0.9260
18.9433 -14.2349 -0.6672 0.9095
20.5666 -14.1961 -0.7037 0.9048
30.3167 -14.3854 -0.9449 0.8743
37.2981 -14.1453 -1.1232 0.8525
40.5972 -13.5533 -1.2051 0.8426
29.9903 -8.6868 -0.8792 0.8825
30.4679 7.5097 -0.8836 0.8820
23.7651 6.8836 -0.6967 0.9057
19.3956 6.4752 -0.5758 0.9214
14.7151 6.2695 -0.4504 0.9380
15.3191 17.2917 -0.6505 0.9117
6.0956 8.8310 -0.3021 0.9580
5.8254 10.0897 -0.3281 0.9544
5.4478 10.3798 -0.3301 0.9542
4.5884 10.7692 -0.3296 0.9542
4.2952 11.3254 -0.3411 0.9527
3.1961 9.5734 -0.2842 0.9604
2.7482 11.1497 -0.3233 0.9551
2.7918 17.1786 -0.4901 0.9327
0.9784 8.0573 -0.2285 0.9680
0.0001 7.6039 -0.2141 0.9700
-0.3104 7.7032 -0.2171 0.9696
-0.6339 7.8533 -0.2219 0.9690
-0.9717 8.0028 -0.2270 0.9683
-1.3226 8.1386 -0.2322 0.9675
-2.1395 8.6804 -0.2517 0.9649
-5.6911 19.6479 -0.5760 0.9214
-6.1683 16.2645 -0.4898 0.9328
-6.2583 14.6889 -0.4496 0.9381
-4.0681 3.3215 -0.1479 0.9792
-48.5350 -0.0001 -2.4614 0.8233
-48.5002 -1.9546 -2.4616 0.8233
-28.1469 -2.2722 -1.4321 0.8931
-48.1767 -5.8497 -2.4612 0.8234
-47.8887 -7.7827 -2.4605 0.8234
-27.9750 -6.8952 -1.4612 0.8910
-45.2108 -17.1462 -2.4522 0.8239
-27.2657 -11.6168 -1.5030 0.8881
-27.8393 -13.2099 -1.5627 0.8839
-27.8926 -14.6391 -1.5975 0.8815
-27.9722 -17.6885 -1.6784 0.8759
-28.0924 -22.9367 -1.8392 0.8648
-28.3275 -31.9751 -2.1664 0.8427
-4.2674 -14.7327 -0.7779 0.9404
-3.0134 -14.7604 -0.7640 0.9414
-1.8389 -11.3150 -0.5814 0.9551
-1.1881 -14.7167 -0.7488 0.9426
0.5913 -14.6741 -0.7448 0.9429
1.1805 -14.6236 -0.7440 0.9429
1.7783 -14.6457 -0.7482 0.9426
11.5866 -34.7061 -1.8556 0.8637
14.8629 -23.5038 -1.4103 0.8946
14.6422 -21.2129 -1.3072 0.9019
14.7708 -19.6564 -1.2469 0.9062
12.7425 -14.3833 -0.9745 0.9259
13.7913 -14.3582 -1.0097 0.9234
16.1436 -14.3019 -1.0938 0.9172
18.9433 -14.2349 -1.2017 0.9095
25.2402 -15.9609 -1.5145 0.8873
26.0368 -15.0324 -1.5247 0.8866
28.7861 -15.1081 -1.6487 0.8779
31.8778 -13.5818 -1.7573 0.8704
29.9834 -8.6848 -1.5831 0.8825
45.7861 -7.4410 -2.3525 0.8305
49.1634 -3.9689 -2.5014 0.8207
49.1634 3.9689 -2.5014 0.8207
48.9637 5.9453 -2.5014 0.8207
45.7575 7.4363 -2.3510 0.8305
30.4701 7.5102 -1.5915 0.8819
23.9288 6.9310 -1.2634 0.9050
18.4019 6.1435 -0.9839 0.9252
11.9557 5.6730 -0.6711 0.9484
10.8439 5.6913 -0.6211 0.9521
9.8651 5.6956 -0.5777 0.9554
8.8910 5.6223 -0.5335 0.9587
2.9459 2.8296 -0.2072 0.9838
2.8573 2.9748 -0.2092 0.9836
5.4719 6.1764 -0.4185 0.9675
8.1400 9.9696 -0.6527 0.9498
5.7464 9.0871 -0.5453 0.9579
5.5056 9.5359 -0.5584 0.9569
4.8535 10.2285 -0.5742 0.9557
3.8260 10.0882 -0.5472 0.9577
3.2350 9.6898 -0.5181 0.9599
3.6954 12.7579 -0.6736 0.9482
0.6279 7.7767 -0.3957 0.9692
0.3092 7.6719 -0.3894 0.9697
0.0001 7.6285 -0.3869 0.9699
-0.3107 7.7117 -0.3914 0.9696
-0.6347 7.8628 -0.4001 0.9689
-0.9801 8.0726 -0.4124 0.9680
-1.3344 8.2113 -0.4219 0.9672
-1.7225 8.4378 -0.4367 0.9661
-2.6181 9.0388 -0.4772 0.9630
-5.6493 16.9217 -0.9047 0.9310
-5.6643 14.9357 -0.8101 0.9380
-5.5572 13.0431 -0.7190 0.9448
-5.5748 11.7487 -0.6595 0.9492
-5.8194 11.0880 -0.6351 0.9511
-5.9031 8.5521 -0.5270 0.9592
-6.1106 7.4840 -0.4900 0.9620
-2.5856 2.2906 -0.1752 0.9863
-4.0678 3.3213 -0.2663 0.9792
-29.1419 18.4282 -1.7486 0.8710
-23.2588 12.2072 -1.3321 0.9001
-23.2209 11.0184 -1.3035 0.9022
-45.5841 15.2182 -2.4372 0.8249
-46.2283 13.3902 -2.4408 0.8247
-28.5018 5.8187 -1.4753 0.8900
-48.0692 5.8367 -2.4557 0.8237
-32.7926 0.0000 -2.4044 0.8768
-28.4333 -1.1458 -2.0865 0.8921
-28.1102 -3.4132 -2.0762 0.8926
-27.9305 -8.0902 -2.1321 0.8899
-30.5727 -11.5947 -2.3975 0.8771
-27.1020 -11.5471 -2.1600 0.8886
-27.8393 -13.2099 -2.2594 0.8837
-27.8909 -14.6383 -2.3096 0.8813
-27.9031 -16.1098 -2.3624 0.8788
-26.8069 -18.5035 -2.3883 0.8775
-26.0378 -19.5661 -2.3881 0.8775
-24.8421 -22.0082 -2.4335 0.8754
-21.9088 -26.8334 -2.5400 0.8703
-16.0987 -30.6735 -2.5400 0.8703
-4.2674 -14.7327 -1.1246 0.9403
-3.6418 -14.7754 -1.1158 0.9408
-3.0134 -14.7604 -1.1046 0.9414
-1.8384 -11.3124 -0.8403 0.9551
-1.7887 -14.7310 -1.0880 0.9422
0.5913 -14.6741 -1.0768 0.9428
1.1805 -14.6236 -1.0757 0.9429
2.9841 -14.6168 -1.0938 0.9419
3.5991 -14.6021 -1.1027 0.9415
4.2252 -14.5871 -1.1135 0.9409
11.5066 -30.3405 -2.3792 0.8780
13.9036 -29.3013 -2.3780 0.8780
14.8629 -23.5038 -2.0390 0.8945
14.6422 -21.2129 -1.8899 0.9018
12.7425 -14.3833 -1.4090 0.9258
16.1436 -14.3019 -1.5814 0.9171
25.2402 -15.9609 -2.1897 0.8871
28.5157 -14.9662 -2.3613 0.8788
28.6185 -13.5796 -2.3226 0.8807
29.5953 -12.6094 -2.3587 0.8790
30.0478 -11.3956 -2.3563 0.8791
30.4464 -10.1645 -2.3535 0.8792
29.9764 -8.6828 -2.2883 0.8823
31.8842 -7.8588 -2.4078 0.8766
33.4257 -6.8239 -2.5014 0.8721
34.0045 -2.7451 -2.5014 0.8721
34.1151 0.0000 -2.5014 0.8721
31.4605 6.4227 -2.3543 0.8792
31.1763 7.6843 -2.3543 0.8792
18.2630 6.0971 -1.4117 0.9257
15.7998 5.9920 -1.2390 0.9345
13.5015 5.7525 -1.0761 0.9428
9.7611 5.6356 -0.8264 0.9558
8.7995 5.5645 -0.7634 0.9591
8.3709 5.7780 -0.7458 0.9600
7.3567 5.5282 -0.6747 0.9638
4.9786 5.6196 -0.5505 0.9703
4.2959 5.7168 -0.5243 0.9717
4.0711 5.8979 -0.5255 0.9717
3.7487 5.9281 -0.5143 0.9723
3.2362 5.6052 -0.4746 0.9744
1.6786 5.7950 -0.4424 0.9761
1.2550 6.1472 -0.4600 0.9752
0.9828 8.0935 -0.5978 0.9678
0.6295 7.7966 -0.5735 0.9691
0.3088 7.6622 -0.5623 0.9697
-0.6387 7.9124 -0.5820 0.9687
-1.3622 5.5268 -0.4174 0.9774
-2.5387 5.9586 -0.4749 0.9744
-2.6078 5.4959 -0.4460 0.9759
-3.1186 5.9419 -0.4920 0.9734
-3.2696 5.6630 -0.4795 0.9741
-5.5363 5.7639 -0.5860 0.9685
-5.6803 5.4560 -0.5775 0.9689
-26.9110 18.5754 -2.3976 0.8771
-27.5219 17.4038 -2.3876 0.8776
-23.0601 13.3138 -1.9524 0.8987
-23.0272 12.0856 -1.9068 0.9010
-22.9572 10.8933 -1.8632 0.9031
-23.0600 9.8249 -1.8379 0.9044
-28.5468 7.0362 -2.1558 0.8888
-32.3328 5.2546 -2.4018 0.8769
-32.5311 3.9500 -2.4028 0.8768
-28.3164 2.2859 -2.0830 0.8923
-28.2738 1.1394 -2.0748 0.8927
-25.7332 -4.1821 -2.5029 0.9005
-25.6770 -5.2420 -2.5160 0.9000
-25.6194 -6.3146 -2.5332 0.8994
-25.4122 -7.3608 -2.5400 0.8991
-25.0952 -8.3780 -2.5400 0.8991
-23.9024 -11.3418 -2.5400 0.8991
-23.4263 -12.2951 -2.5400 0.8991
-22.9123 -13.2284 -2.5400 0.8991
-22.3610 -14.1402 -2.5400 0.8991
-21.1507 -15.8937 -2.5400 0.8991
-20.4935 -16.7325 -2.5400 0.8991
-17.5441 -19.8032 -2.5400 0.8991
-15.8937 -21.1507 -2.5400 0.8991
-14.1402 -22.3610 -2.5400 0.8991
-13.2284 -22.9122 -2.5400 0.8991
-12.2951 -23.4263 -2.5400 0.8991
-10.3702 -24.3397 -2.5400 0.8991
-1.8380 -11.3098 -1.1000 0.9550
-1.7887 -14.7310 -1.4246 0.9421
0.5913 -14.6741 -1.4099 0.9427
1.7783 -14.6457 -1.4164 0.9424
2.3778 -14.6314 -1.4231 0.9422
3.5991 -14.6021 -1.4438 0.9414
7.8231 -23.4331 -2.3718 0.9055
12.3345 -21.3638 -2.3683 0.9056
14.0061 -20.2912 -2.3671 0.9057
14.7323 -18.0437 -2.2364 0.9106
12.7425 -14.3833 -1.8448 0.9257
14.9204 -14.3312 -1.9862 0.9202
16.1436 -14.3019 -2.0706 0.9170
17.4089 -14.2140 -2.1577 0.9136
19.6560 -14.7705 -2.3605 0.9059
20.2265 -13.9613 -2.3595 0.9060
21.2552 -12.2717 -2.3563 0.9061
21.7134 -11.3961 -2.3543 0.9062
22.5197 -9.5947 -2.3501 0.9063
25.0261 -7.2489 -2.5014 0.9006
25.2977 -6.2353 -2.5014 0.9006
25.7174 -4.1795 -2.5014 0.9006
25.8649 -3.1406 -2.5014 0.9006
26.0337 -1.0491 -2.5014 0.9006
26.0549 -0.0001 -2.5014 0.9006
26.0337 1.0491 -2.5014 0.9006
25.9704 2.0965 -2.5014 0.9006
23.8104 5.8687 -2.3543 0.9062
23.5548 6.8227 -2.3543 0.9062
15.7001 5.9542 -1.6120 0.9348
13.5219 5.7612 -1.4111 0.9426
10.4214 5.4696 -1.1299 0.9538
8.8002 5.5649 -0.9996 0.9590
8.4116 5.8061 -0.9813 0.9598
6.7142 5.4819 -0.8322 0.9658
3.1356 2.7779 -0.4022 0.9833
3.5892 5.6758 -0.6447 0.9734
2.8962 5.5182 -0.5983 0.9753
2.3892 5.6077 -0.5852 0.9758
2.1115 5.5674 -0.5716 0.9764
1.5958 5.5092 -0.5507 0.9772
1.4644 5.9408 -0.5874 0.9757
0.8875 5.4605 -0.5311 0.9780
-0.2278 5.6534 -0.5432 0.9775
-0.4446 5.5078 -0.5305 0.9780
-0.6510 5.3619 -0.5186 0.9785
-0.9457 5.8190 -0.5660 0.9766
-1.5733 5.4318 -0.5429 0.9775
-2.0979 5.5316 -0.5680 0.9765
-2.2786 5.3480 -0.5581 0.9769
-2.9685 5.6560 -0.6132 0.9747
-3.1452 5.4477 -0.6039 0.9750
-3.5652 5.1650 -0.6025 0.9751
-4.4309 5.4268 -0.6726 0.9722
-4.6696 5.2709 -0.6761 0.9721
-5.3711 5.5919 -0.7444 0.9693
-5.6306 5.4083 -0.7495 0.9691
-21.7735 15.0292 -2.5400 0.8991
-22.9123 13.2284 -2.5400 0.8991
-23.4263 12.2951 -2.5400 0.8991
-23.9024 11.3418 -2.5400 0.8991
-25.0953 8.3781 -2.5400 0.8991
-25.6880 6.3316 -2.5400 0.8991
-25.9221 5.2921 -2.5400 0.8991
-21.3829 0.0000 -2.5400 0.9175
-21.3135 -1.7206 -2.5400 0.9175
-20.9507 -4.2771 -2.5400 0.9175
-20.2824 -6.7713 -2.5400 0.9175
-19.9933 -7.5825 -2.5400 0.9175
-19.6718 -8.3814 -2.5400 0.9175
-19.3184 -9.1667 -2.5400 0.9175
-18.0726 -11.4284 -2.5400 0.9175
-17.0944 -12.8456 -2.5400 0.9175
-16.5633 -13.5235 -2.5400 0.9175
-16.0053 -14.1795 -2.5400 0.9175
-14.8124 -15.4214 -2.5400 0.9175
-14.1795 -16.0053 -2.5400 0.9175
-13.5235 -16.5633 -2.5400 0.9175
-12.8456 -17.0944 -2.5400 0.9175
-10.6914 -18.5181 -2.5400 0.9175
-8.6169 -18.1598 -2.3877 0.9222
-7.8792 -18.4933 -2.3878 0.9222
-7.1292 -18.7981 -2.3881 0.9222
-3.6418 -14.7754 -1.8076 0.9405
-3.0134 -14.7604 -1.7895 0.9411
-1.8376 -11.3072 -1.3608 0.9549
-1.1881 -14.7167 -1.7538 0.9423
-0.0000 -14.6883 -1.7448 0.9426
1.1805 -14.6236 -1.7427 0.9426
3.5991 -14.6021 -1.7864 0.9412
6.3059 -18.8885 -2.3654 0.9229
7.0604 -18.6167 -2.3651 0.9229
9.9480 -17.2304 -2.3634 0.9230
10.6313 -16.8120 -2.3628 0.9230
11.9437 -15.8941 -2.3616 0.9230
13.1765 -14.8732 -2.3603 0.9231
13.7605 -14.3262 -2.3596 0.9231
14.3208 -13.7553 -2.3587 0.9231
14.8542 -13.1596 -2.3573 0.9232
15.8450 -11.9067 -2.3543 0.9233
16.3009 -11.2517 -2.3528 0.9233
17.1300 -9.8900 -2.3496 0.9234
17.9243 -9.4074 -2.4046 0.9217
19.9743 -6.6684 -2.5014 0.9187
8.4115 -2.0732 -1.0291 0.9657
8.4694 -1.7290 -1.0268 0.9658
8.7670 -1.4248 -1.0551 0.9649
20.9045 -2.5383 -2.5014 0.9187
21.0580 0.0000 -2.5014 0.9187
20.9897 1.6945 -2.5014 0.9187
20.9045 2.5383 -2.5014 0.9187
19.5254 3.1732 -2.3498 0.9234
19.2414 4.7426 -2.3540 0.9233
10.8499 5.6945 -1.4555 0.9518
9.8541 5.6893 -1.3516 0.9552
7.3144 5.4964 -1.0868 0.9638
6.7433 5.5056 -1.0341 0.9655
3.1345 2.7769 -0.4974 0.9833
2.9438 2.8276 -0.4849 0.9837
2.8553 2.9727 -0.4896 0.9835
4.5064 5.5192 -0.8464 0.9717
4.1946 5.5819 -0.8294 0.9723
3.1673 5.4858 -0.7525 0.9748
2.8494 5.4289 -0.7283 0.9756
2.0465 5.3961 -0.6855 0.9770
1.8139 5.4331 -0.6804 0.9772
1.6214 5.5975 -0.6922 0.9768
1.4254 5.7830 -0.7075 0.9763
1.1019 5.3970 -0.6543 0.9781
0.8751 5.3843 -0.6480 0.9783
0.4436 5.4948 -0.6548 0.9780
0.0000 5.4946 -0.6527 0.9781
-0.2156 5.3500 -0.6360 0.9787
-0.4375 5.4201 -0.6459 0.9783
-0.6448 5.3109 -0.6355 0.9787
-1.1108 5.4413 -0.6597 0.9779
-1.3100 5.3148 -0.6502 0.9782
-1.5885 5.4842 -0.6782 0.9773
-2.4733 5.2124 -0.6853 0.9770
-2.9325 5.5874 -0.7496 0.9749
-3.1042 5.3766 -0.7375 0.9753
-4.4341 5.4308 -0.8328 0.9722
-5.0829 5.2918 -0.8716 0.9709
-4.0671 3.3207 -0.6237 0.9791
-17.5978 12.1469 -2.5400 0.9175
-18.0726 11.4284 -2.5400 0.9175
-18.5181 10.6915 -2.5400 0.9175
-18.9336 9.9371 -2.5400 0.9175
-19.6718 8.3814 -2.5400 0.9175
-19.9933 7.5825 -2.5400 0.9175
-20.2824 6.7713 -2.5400 0.9175
-20.7615 5.1173 -2.5400 0.9175
-21.1060 3.4301 -2.5400 0.9175
-21.2270 2.5774 -2.5400 0.9175
-21.3135 1.7206 -2.5400 0.9175
-21.3655 0.8610 -2.5400 0.9175
-17.6943 -2.8756 -2.5400 0.9301
-15.8731 -8.3308 -2.5400 0.9301
-15.5247 -8.9632 -2.5400 0.9301
-15.1512 -9.5811 -2.5400 0.9301
-13.8859 -11.3375 -2.5400 0.9301
-12.9286 -12.4181 -2.5400 0.9301
-11.8874 -13.4181 -2.5400 0.9301
-11.3375 -13.8859 -2.5400 0.9301
-10.7692 -14.3311 -2.5400 0.9301
-9.0118 -14.2510 -2.3891 0.9341
-7.8310 -14.9207 -2.3876 0.9342
-6.4865 -15.2244 -2.3448 0.9353
-5.9761 -15.7577 -2.3879 0.9342
-5.3365 -15.9848 -2.3878 0.9342
-3.6276 -14.7178 -2.1478 0.9406
-1.7873 -14.7196 -2.1009 0.9419
-1.1881 -14.7167 -2.0920 0.9421
1.1805 -14.6236 -2.0788 0.9425
1.7783 -14.6457 -2.0904 0.9421
2.3778 -14.6314 -2.1003 0.9419
2.9787 -14.5906 -2.1100 0.9416
3.5871 -14.5534 -2.1238 0.9412
4.2089 -14.5307 -2.1435 0.9407
5.9086 -15.5798 -2.3609 0.9349
7.7400 -14.7474 -2.3599 0.9349
8.8976 -14.0704 -2.3588 0.9350
9.9932 -13.2985 -2.3570 0.9350
10.5161 -12.8799 -2.3560 0.9350
12.8488 -10.4907 -2.3503 0.9352
13.2537 -9.9595 -2.3490 0.9352
14.9210 -9.4355 -2.5014 0.9312
15.2889 -8.8270 -2.5014 0.9312
15.6319 -8.2043 -2.5014 0.9312
16.7455 -5.5904 -2.5014 0.9312
7.9166 -2.2931 -1.1678 0.9673
8.0792 -1.3130 -1.1598 0.9675
10.0670 -1.2223 -1.4369 0.9599
17.5968 -1.4205 -2.5014 0.9312
17.6541 0.0000 -2.5014 0.9312
17.6398 0.7109 -2.5014 0.9312
16.1222 3.9738 -2.3527 0.9351
15.9601 4.6229 -2.3543 0.9351
15.5364 5.8922 -2.3543 0.9351
13.5643 5.7792 -2.0891 0.9422
11.8976 5.6455 -1.8659 0.9482
10.5087 5.5154 -1.6816 0.9532
9.8603 5.6928 -1.6132 0.9550
8.8290 5.5831 -1.4801 0.9587
7.2972 5.4835 -1.2933 0.9638
6.8357 5.5811 -1.2504 0.9650
3.1334 2.7759 -0.5931 0.9832
2.8546 2.9720 -0.5839 0.9835
4.9735 5.6138 -1.0627 0.9702
3.9411 5.7096 -0.9830 0.9724
3.1367 5.4328 -0.8889 0.9750
2.6700 5.6268 -0.8825 0.9752
2.0699 5.4577 -0.8271 0.9767
1.8171 5.4427 -0.8130 0.9771
1.5847 5.4708 -0.8070 0.9773
1.4057 5.7028 -0.8322 0.9766
1.1071 5.4225 -0.7842 0.9779
0.8773 5.3980 -0.7749 0.9781
0.6529 5.3765 -0.7674 0.9784
0.0000 5.4944 -0.7785 0.9780
-0.2177 5.4040 -0.7663 0.9784
-0.4348 5.3865 -0.7657 0.9784
-0.6412 5.2811 -0.7538 0.9787
-1.3205 5.3574 -0.7818 0.9780
-1.5625 5.3942 -0.7957 0.9776
-1.9200 5.7510 -0.8591 0.9758
-2.2349 5.2455 -0.8079 0.9772
-2.4705 5.2065 -0.8165 0.9770
-2.8817 5.4905 -0.8786 0.9753
-3.2886 5.2005 -0.8718 0.9754
-3.6778 5.3282 -0.9173 0.9742
-4.5698 5.1582 -0.9764 0.9725
-5.6208 5.3989 -1.1043 0.9690
-2.5856 2.2906 -0.4894 0.9861
-4.0668 3.3205 -0.7439 0.9790
-14.7532 10.1834 -2.5400 0.9301
-15.1512 9.5811 -2.5400 0.9301
-15.5247 8.9632 -2.5400 0.9301
-15.8731 8.3308 -2.5400 0.9301
-16.1956 7.6850 -2.5400 0.9301
-16.4920 7.0266 -2.5400 0.9301
-16.7615 6.3568 -2.5400 0.9301
-17.2187 4.9875 -2.5400 0.9301
-17.6943 2.8756 -2.5400 0.9301
-17.9119 0.7219 -2.5400 0.9301
-15.4182 0.0000 -2.5400 0.9394
-15.4057 -0.6208 -2.5400 0.9394
-15.3682 -1.2406 -2.5400 0.9394
-15.3058 -1.8585 -2.5400 0.9394
-15.2186 -2.4733 -2.5400 0.9394
-15.1066 -3.0840 -2.5400 0.9394
-14.4163 -5.4674 -2.5400 0.9394
-14.1844 -6.0434 -2.5400 0.9394
-13.3526 -7.7091 -2.5400 0.9394
-13.0313 -8.2405 -2.5400 0.9394
-11.1196 -10.6806 -2.5400 0.9394
-9.7512 -11.9430 -2.5400 0.9394
-8.7177 -12.6297 -2.5281 0.9397
-7.6520 -12.1006 -2.3586 0.9436
-7.1522 -12.3880 -2.3565 0.9437
-6.1181 -12.8937 -2.3511 0.9438
-4.5301 -13.5693 -2.3567 0.9437
-3.9808 -13.7434 -2.3571 0.9436
-2.8629 -14.0236 -2.3579 0.9436
-0.5765 -14.3061 -2.3587 0.9436
0.0000 -14.3181 -2.3588 0.9436
0.5765 -14.3064 -2.3587 0.9436
1.1521 -14.2712 -2.3587 0.9436
1.7257 -14.2125 -2.3586 0.9436
2.2964 -14.1305 -2.3584 0.9436
2.8633 -14.0251 -2.3581 0.9436
3.4252 -13.8967 -2.3579 0.9436
4.5309 -13.5717 -2.3571 0.9436
5.0727 -13.3756 -2.3566 0.9437
5.6060 -13.1577 -2.3561 0.9437
6.1298 -12.9182 -2.3556 0.9437
6.6432 -12.6576 -2.3549 0.9437
7.6357 -12.0749 -2.3536 0.9437
8.1131 -11.7538 -2.3528 0.9437
8.5768 -11.4137 -2.3520 0.9438
9.4604 -10.6786 -2.3502 0.9438
9.8787 -10.2849 -2.3493 0.9438
10.3754 -9.9657 -2.3700 0.9433
11.7616 -9.6030 -2.5014 0.9403
12.1387 -9.1216 -2.5014 0.9403
12.4962 -8.6255 -2.5014 0.9403
12.8333 -8.1153 -2.5014 0.9403
13.1497 -7.5920 -2.5014 0.9403
13.7180 -6.5092 -2.5014 0.9403
14.1973 -5.3843 -2.5014 0.9403
14.4025 -4.8083 -2.5014 0.9403
7.5357 -1.8574 -1.2786 0.9690
7.6625 -1.2453 -1.2789 0.9690
9.0405 -1.0977 -1.5003 0.9638
15.1347 -1.2218 -2.5014 0.9403
15.1840 0.0000 -2.5014 0.9403
15.0733 1.8302 -2.5014 0.9403
13.5558 4.5256 -2.3543 0.9437
11.8581 5.6268 -2.1623 0.9482
9.8478 5.6857 -1.8733 0.9549
8.8412 5.5908 -1.7233 0.9585
8.2781 5.7140 -1.6571 0.9600
7.3872 5.5511 -1.5223 0.9632
6.5305 5.3319 -1.3889 0.9664
3.1322 2.7749 -0.6894 0.9832
2.8539 2.9713 -0.6787 0.9834
4.9375 5.5733 -1.2266 0.9703
4.4892 5.4982 -1.1693 0.9716
4.1834 5.5671 -1.1472 0.9722
2.8251 5.3827 -1.0015 0.9757
2.6395 5.5626 -1.0143 0.9753
2.3278 5.4634 -0.9783 0.9762
1.8081 5.4160 -0.9406 0.9771
1.5583 5.3798 -0.9227 0.9775
1.4073 5.7093 -0.9687 0.9764
1.1123 5.4483 -0.9161 0.9777
0.0000 5.5504 -0.9144 0.9778
-0.6495 5.3492 -0.8877 0.9784
-0.9161 5.6372 -0.9409 0.9771
-1.1109 5.4415 -0.9149 0.9777
-1.5759 5.4405 -0.9331 0.9773
-2.0509 5.4078 -0.9528 0.9768
-2.2382 5.2534 -0.9407 0.9771
-2.4924 5.2526 -0.9578 0.9767
-3.2786 5.1847 -1.0106 0.9754
-3.6254 5.2523 -1.0514 0.9745
-4.3667 5.3482 -1.1374 0.9724
-2.5856 2.2906 -0.5690 0.9861
-4.0667 3.3204 -0.8649 0.9789
-12.3260 9.2624 -2.5400 0.9394
-13.3526 7.7092 -2.5400 0.9394
-13.6521 7.1652 -2.5400 0.9394
-13.9296 6.6097 -2.5400 0.9394
-14.1844 6.0434 -2.5400 0.9394
-14.4163 5.4674 -2.5400 0.9394
-14.8095 4.2896 -2.5400 0.9394
-15.2185 2.4733 -2.5400 0.9394
-15.3058 1.8585 -2.5400 0.9394
-15.3682 1.2407 -2.5400 0.9394
-13.5024 -0.5441 -2.5400 0.9465
-13.4695 -1.0874 -2.5400 0.9465
-12.9798 -3.7596 -2.5400 0.9465
-12.8179 -4.2793 -2.5400 0.9465
-12.4320 -5.2968 -2.5400 0.9465
-11.9655 -6.2800 -2.5400 0.9465
-11.7029 -6.7567 -2.5400 0.9465
-11.4214 -7.2224 -2.5400 0.9465
-11.1213 -7.6765 -2.5400 0.9465
-10.8032 -8.1180 -2.5400 0.9465
-10.4675 -8.5465 -2.5400 0.9465
-9.7459 -9.3610 -2.5400 0.9465
-9.3468 -9.7311 -2.5361 0.9466
-8.4645 -10.3671 -2.5156 0.9470
-6.2486 -10.8229 -2.3490 0.9504
-4.8985 -11.4972 -2.3490 0.9504
-3.9629 -11.8704 -2.3522 0.9503
-3.4823 -12.0224 -2.3526 0.9503
-2.5044 -12.2672 -2.3533 0.9503
-1.0077 -12.4829 -2.3539 0.9503
1.0078 -12.4834 -2.3540 0.9503
2.0088 -12.3605 -2.3538 0.9503
2.9963 -12.1564 -2.3533 0.9503
3.4829 -12.0244 -2.3530 0.9503
4.4378 -11.7014 -2.3523 0.9503
4.9044 -11.5110 -2.3518 0.9503
5.8122 -11.0742 -2.3508 0.9504
6.2519 -10.8285 -2.3502 0.9504
6.6810 -10.5652 -2.3496 0.9504
7.0993 -10.2850 -2.3490 0.9504
7.6020 -10.1163 -2.3785 0.9498
8.8249 -9.9612 -2.5014 0.9473
9.5978 -9.2188 -2.5014 0.9473
9.9612 -8.8249 -2.5014 0.9473
10.6390 -7.9947 -2.5014 0.9473
12.4433 -4.7191 -2.5014 0.9473
7.0517 -2.0425 -1.3799 0.9706
7.0926 -1.7482 -1.3730 0.9707
7.1793 -1.4657 -1.3773 0.9706
7.2871 -1.1843 -1.3877 0.9704
8.2008 -0.9957 -1.5527 0.9669
13.2973 -0.5358 -2.5014 0.9473
13.3081 0.0000 -2.5014 0.9473
13.1357 2.1348 -2.5014 0.9473
12.0204 3.4818 -2.3522 0.9503
11.8771 3.9652 -2.3535 0.9503
11.5233 4.9096 -2.3543 0.9503
10.8919 5.7165 -2.3121 0.9512
10.0045 5.7761 -2.1714 0.9541
6.7829 5.5380 -1.6459 0.9650
3.1311 2.7739 -0.7863 0.9831
2.8533 2.9706 -0.7742 0.9834
4.5022 5.5142 -1.3380 0.9714
3.5345 5.5892 -1.2430 0.9734
3.1856 5.5176 -1.1975 0.9744
2.3352 5.4809 -1.1198 0.9760
1.8122 5.4282 -1.0757 0.9770
1.1184 5.4781 -1.0509 0.9775
0.8683 5.3425 -1.0174 0.9782
0.4385 5.4309 -1.0241 0.9781
-0.2186 5.4256 -1.0206 0.9781
-0.6499 5.3529 -1.0135 0.9783
-0.9094 5.5958 -1.0656 0.9772
-1.5808 5.4574 -1.0679 0.9771
-1.8973 5.6831 -1.1262 0.9759
-2.0361 5.3686 -1.0792 0.9769
-2.2137 5.1958 -1.0616 0.9773
-3.1057 5.3792 -1.1675 0.9750
-3.2552 5.1477 -1.1448 0.9755
-4.1498 5.5223 -1.2984 0.9723
-5.2556 5.4716 -1.4260 0.9696
-4.0669 3.3205 -0.9868 0.9789
-11.1213 7.6765 -2.5400 0.9465
-11.7029 6.7567 -2.5400 0.9465
-12.2087 5.7931 -2.5400 0.9465
-12.4320 5.2968 -2.5400 0.9465
-12.6352 4.7919 -2.5400 0.9465
-12.8179 4.2793 -2.5400 0.9465
-13.1207 3.2340 -2.5400 0.9465
-13.3384 2.1677 -2.5400 0.9465
-13.4148 1.6289 -2.5400 0.9465
-12.0065 -0.4838 -2.5400 0.9521
-11.9772 -0.9669 -2.5400 0.9521
-11.9286 -1.4484 -2.5400 0.9521
-11.8606 -1.9275 -2.5400 0.9521
-11.7734 -2.4036 -2.5400 0.9521
-11.6671 -2.8758 -2.5400 0.9521
-11.0547 -4.7100 -2.5400 0.9521
-10.8560 -5.1512 -2.5400 0.9521
-10.4063 -6.0081 -2.5400 0.9521
-10.1560 -6.4222 -2.5400 0.9521
-9.6031 -7.2162 -2.5391 0.9521
-9.2836 -7.5797 -2.5334 0.9522
-8.9448 -7.9245 -2.5260 0.9523
-8.2321 -8.5705 -2.5120 0.9526
-7.4909 -9.1747 -2.5037 0.9527
-6.7238 -9.7411 -2.5020 0.9528
-6.3247 -10.0017 -2.5014 0.9528
-5.9168 -10.2482 -2.5014 0.9528
-4.4598 -10.4676 -2.4051 0.9545
-3.9704 -10.4691 -2.3668 0.9553
-3.5190 -10.5408 -2.3490 0.9556
-2.6599 -10.7918 -2.3494 0.9556
-2.2235 -10.8914 -2.3497 0.9556
-1.7833 -10.9732 -2.3500 0.9556
-1.3401 -11.0370 -2.3501 0.9556
-0.4477 -11.1102 -2.3504 0.9556
0.0000 -11.1194 -2.3504 0.9556
0.8947 -11.0832 -2.3504 0.9556
2.2238 -10.8927 -2.3500 0.9556
2.6603 -10.7933 -2.3498 0.9556
3.0924 -10.6762 -2.3495 0.9556
3.5193 -10.5416 -2.3492 0.9556
3.9406 -10.3905 -2.3490 0.9556
5.8769 -10.1790 -2.4845 0.9531
8.1975 -8.5344 -2.5014 0.9528
8.8576 -7.8472 -2.5014 0.9528
9.4603 -7.1090 -2.5014 0.9528
9.7389 -6.7223 -2.5014 0.9528
10.0017 -6.3247 -2.5014 0.9528
10.4782 -5.4994 -2.5014 0.9528
6.9190 -2.3099 -1.5419 0.9706
6.8958 -1.9974 -1.5176 0.9711
6.9018 -1.7012 -1.5026 0.9714
7.0850 -1.1514 -1.5173 0.9711
7.4932 -0.9098 -1.5956 0.9696
11.8240 -0.4765 -2.5014 0.9528
11.8336 0.0000 -2.5014 0.9528
11.8241 0.4765 -2.5014 0.9528
11.7953 0.9522 -2.5014 0.9528
10.7956 2.6609 -2.3503 0.9556
10.5570 3.5244 -2.3526 0.9555
10.4116 3.9486 -2.3538 0.9555
9.8621 5.1760 -2.3543 0.9555
9.6457 5.5690 -2.3543 0.9555
8.9883 5.6839 -2.2480 0.9575
7.3869 5.5509 -1.9532 0.9629
2.9410 2.8249 -0.8620 0.9835
2.8526 2.9698 -0.8704 0.9833
4.4672 5.4713 -1.4931 0.9715
4.2229 5.6197 -1.4859 0.9717
3.9598 5.7367 -1.4735 0.9719
3.5319 5.5851 -1.3968 0.9733
2.8627 5.4543 -1.3021 0.9751
1.5891 5.4860 -1.2073 0.9769
0.8798 5.4132 -1.1593 0.9778
0.4386 5.4326 -1.1521 0.9780
0.0000 5.3560 -1.1322 0.9783
-0.2207 5.4782 -1.1589 0.9778
-0.6534 5.3814 -1.1459 0.9781
-0.9090 5.5932 -1.1978 0.9771
-1.0899 5.3389 -1.1518 0.9780
-1.3203 5.3567 -1.1662 0.9777
-1.5700 5.4202 -1.1928 0.9772
-1.8986 5.6871 -1.2674 0.9758
-2.8916 5.5094 -1.3152 0.9749
-3.5629 5.1617 -1.3258 0.9747
-4.1390 5.5080 -1.4564 0.9722
-4.3877 5.3739 -1.4665 0.9720
-4.6641 5.2646 -1.4867 0.9717
-2.5856 2.2906 -0.7302 0.9860
-9.0299 6.7855 -2.3876 0.9549
-9.2958 6.4164 -2.3876 0.9549
-9.5466 6.0369 -2.3876 0.9549
-9.7819 5.6476 -2.3876 0.9549
-10.0014 5.2492 -2.3876 0.9549
-10.8560 5.1513 -2.5400 0.9521
-11.0547 4.7100 -2.5400 0.9521
-11.7734 2.4036 -2.5400 0.9521
-11.8606 1.9275 -2.5400 0.9521
-12.0065 0.4839 -2.5400 0.9521
-10.7723 -0.8696 -2.5400 0.9566
-10.7286 -1.3027 -2.5400 0.9566
-10.5890 -2.1617 -2.5400 0.9566
-10.3807 -3.0068 -2.5400 0.9566
-10.2512 -3.4223 -2.5400 0.9566
-10.1051 -3.8324 -2.5400 0.9566
-9.7624 -4.6323 -2.5396 0.9566
-9.5594 -5.0169 -2.5373 0.9566
-8.8379 -6.1004 -2.5239 0.9568
-7.6881 -7.3846 -2.5054 0.9571
-7.3779 -7.6812 -2.5031 0.9572
-7.0618 -7.9711 -2.5028 0.9572
-6.7343 -8.2480 -2.5025 0.9572
-6.3959 -8.5114 -2.5022 0.9572
-6.0473 -8.7610 -2.5019 0.9572
-5.6889 -8.9963 -2.5016 0.9572
-4.9461 -9.4241 -2.5014 0.9572
-4.5627 -9.6156 -2.5014 0.9572
-3.3704 -10.0954 -2.5014 0.9572
-2.9611 -10.2230 -2.5014 0.9572
-2.1274 -10.4204 -2.4996 0.9572
-1.6927 -10.4157 -2.4801 0.9576
-1.2641 -10.4104 -2.4647 0.9578
-0.4190 -10.3978 -2.4457 0.9581
0.8368 -10.3654 -2.4440 0.9582
1.2571 -10.3528 -2.4510 0.9581
1.6803 -10.3394 -2.4619 0.9579
2.1077 -10.3239 -2.4764 0.9576
2.9611 -10.2230 -2.5014 0.9572
3.7741 -9.9516 -2.5014 0.9572
4.1718 -9.7915 -2.5014 0.9572
4.5627 -9.6156 -2.5014 0.9572
4.9461 -9.4241 -2.5014 0.9572
5.3216 -9.2173 -2.5014 0.9572
6.3938 -8.5086 -2.5014 0.9572
7.3728 -7.6759 -2.5014 0.9572
8.2443 -6.7312 -2.5014 0.9572
8.5086 -6.3938 -2.5014 0.9572
8.9955 -5.6884 -2.5014 0.9572
9.6156 -4.5627 -2.5014 0.9572
9.7915 -4.1718 -2.5014 0.9572
6.9711 -2.6438 -1.7522 0.9698
6.9876 -1.1356 -1.6638 0.9713
7.2411 -0.8792 -1.7143 0.9705
10.6087 -0.8564 -2.5014 0.9572
10.6346 -0.4285 -2.5014 0.9572
10.5656 1.2829 -2.5014 0.9572
9.6075 2.7828 -2.3508 0.9597
9.4918 3.1688 -2.3518 0.9597
9.3607 3.5500 -2.3529 0.9597
9.2141 3.9258 -2.3539 0.9597
8.4667 5.3540 -2.3543 0.9597
7.3633 5.5332 -2.1647 0.9629
3.1288 2.7719 -0.9824 0.9830
2.9403 2.8242 -0.9582 0.9834
2.8519 2.9691 -0.9676 0.9832
4.9643 5.6036 -1.7594 0.9697
4.4816 5.4889 -1.6654 0.9713
2.8703 5.4688 -1.4516 0.9749
2.3267 5.4609 -1.3951 0.9759
1.7808 5.3341 -1.3217 0.9772
1.5581 5.3789 -1.3161 0.9773
1.4098 5.7196 -1.3845 0.9761
0.8776 5.4000 -1.2858 0.9778
0.2241 5.5593 -1.3076 0.9774
-0.2210 5.4855 -1.2903 0.9777
-0.4303 5.3304 -1.2568 0.9783
-1.1034 5.4049 -1.2965 0.9776
-1.3062 5.2995 -1.2828 0.9778
-1.5365 5.3046 -1.2980 0.9776
-2.2452 5.2698 -1.3463 0.9767
-2.8948 5.5155 -1.4640 0.9747
-3.3029 5.2231 -1.4524 0.9749
-3.5911 5.2026 -1.4857 0.9744
-4.3927 5.3801 -1.6324 0.9719
-8.3606 5.7709 -2.3876 0.9591
-8.5862 5.4296 -2.3876 0.9591
-8.7979 5.0795 -2.3876 0.9591
-8.9953 4.7211 -2.3876 0.9591
-9.1781 4.3551 -2.3876 0.9591
-9.4986 3.6024 -2.3875 0.9591
-10.2512 3.4224 -2.5400 0.9566
-10.3807 3.0068 -2.5400 0.9566
-10.7286 1.3027 -2.5400 0.9566
-10.7723 0.8696 -2.5400 0.9566
-9.8062 0.0000 -2.5390 0.9603
-9.7989 -0.3949 -2.5392 0.9603
-9.7328 -1.1818 -2.5385 0.9603
-9.6765 -1.5726 -2.5383 0.9603
-9.5107 -2.3442 -2.5362 0.9603
-9.2786 -3.0977 -2.5327 0.9604
-8.8042 -4.1776 -2.5232 0.9605
-8.6156 -4.5218 -2.5193 0.9606
-6.9727 -6.6973 -2.5033 0.9608
-6.6966 -6.9719 -2.5030 0.9608
-6.1125 -7.4865 -2.5024 0.9609
-5.8055 -7.7257 -2.5021 0.9609
-5.4891 -7.9523 -2.5019 0.9609
-5.1638 -8.1659 -2.5016 0.9609
-4.8305 -8.3666 -2.5014 0.9609
-4.4897 -8.5543 -2.5014 0.9609
-4.1416 -8.7282 -2.5014 0.9609
-3.7868 -8.8879 -2.5014 0.9609
-3.4258 -9.0331 -2.5014 0.9609
-2.6879 -9.2795 -2.5014 0.9609
-2.3120 -9.3802 -2.5014 0.9609
-1.5497 -9.5358 -2.5014 0.9609
-0.7774 -9.6296 -2.5014 0.9609
-0.3890 -9.6531 -2.5014 0.9609
0.7774 -9.6296 -2.5014 0.9609
1.1645 -9.5905 -2.5014 0.9609
1.5497 -9.5358 -2.5014 0.9609
2.3120 -9.3802 -2.5014 0.9609
2.6878 -9.2795 -2.5014 0.9609
3.4258 -9.0331 -2.5014 0.9609
4.4897 -8.5544 -2.5014 0.9609
4.8305 -8.3666 -2.5014 0.9609
5.1635 -8.1653 -2.5014 0.9609
5.4881 -7.9508 -2.5014 0.9609
6.1100 -7.4834 -2.5014 0.9609
6.6924 -6.9675 -2.5014 0.9609
6.9675 -6.6924 -2.5014 0.9609
7.2313 -6.4064 -2.5014 0.9609
8.1653 -5.1635 -2.5014 0.9609
8.5544 -4.4897 -2.5014 0.9609
8.7282 -4.1416 -2.5014 0.9609
8.8879 -3.7868 -2.5014 0.9609
6.8591 -2.6013 -1.8994 0.9701
6.7538 -2.2547 -1.8436 0.9710
6.7361 -1.9511 -1.8158 0.9714
6.7615 -1.6666 -1.8031 0.9716
7.1663 -0.8701 -1.8691 0.9706
9.6610 0.0000 -2.5014 0.9609
9.6531 0.3890 -2.5014 0.9609
9.6296 0.7774 -2.5014 0.9609
9.5905 1.1645 -2.5014 0.9609
9.5359 1.5497 -2.5014 0.9609
9.3498 1.9088 -2.4708 0.9613
8.8098 2.1714 -2.3493 0.9632
8.3608 3.5622 -2.3531 0.9631
8.2138 3.8975 -2.3540 0.9631
8.0514 4.2257 -2.3543 0.9631
7.8747 4.5465 -2.3543 0.9631
7.6853 4.8599 -2.3543 0.9631
7.4834 5.1654 -2.3543 0.9631
7.2693 5.4625 -2.3543 0.9631
7.0435 5.7508 -2.3543 0.9631
3.1277 2.7709 -1.0819 0.9829
3.9613 5.7389 -1.8055 0.9716
3.5832 5.6663 -1.7359 0.9727
2.8835 5.4939 -1.6065 0.9747
2.6406 5.5648 -1.5948 0.9749
2.3500 5.5156 -1.5523 0.9755
2.0694 5.4566 -1.5110 0.9762
1.1417 5.5920 -1.4778 0.9767
0.4390 5.4368 -1.4123 0.9777
-0.2174 5.3956 -1.3982 0.9779
-0.4299 5.3254 -1.3833 0.9782
-0.6555 5.3984 -1.4080 0.9778
-1.3125 5.3249 -1.4200 0.9776
-2.0421 5.3847 -1.4911 0.9765
-2.2379 5.2526 -1.4783 0.9767
-2.5036 5.2763 -1.5121 0.9762
-3.0862 5.3454 -1.5981 0.9748
-3.2619 5.1582 -1.5802 0.9751
-3.5376 5.1250 -1.6124 0.9746
-4.2294 5.6282 -1.8228 0.9713
-5.2344 5.4495 -1.9564 0.9693
-2.5856 2.2906 -0.8944 0.9858
-4.0672 3.3207 -1.3595 0.9785
-7.3720 5.5397 -2.3876 0.9626
-7.5891 5.2384 -2.3876 0.9626
-7.9858 4.6106 -2.3875 0.9626
-8.1614 4.2835 -2.3865 0.9626
-8.3236 3.9496 -2.3854 0.9626
-9.4077 2.7250 -2.5359 0.9603
-9.5125 2.3446 -2.5367 0.9603
-9.6764 1.5726 -2.5383 0.9603
-9.7346 1.1820 -2.5390 0.9603
-9.7744 0.7891 -2.5390 0.9603
-8.9146 -0.3592 -2.5257 0.9636
-8.8522 -1.0750 -2.5244 0.9636
-8.7281 -1.7818 -2.5218 0.9636
-8.6434 -2.1304 -2.5201 0.9637
-8.5453 -2.4752 -2.5185 0.9637
-8.1620 -3.4775 -2.5116 0.9638
-8.0099 -3.8005 -2.5099 0.9638
-7.8427 -4.1162 -2.5074 0.9638
-7.4767 -4.7280 -2.5043 0.9639
-6.6189 -5.8639 -2.5033 0.9639
-6.1244 -6.3762 -2.5028 0.9639
-5.5904 -6.8470 -2.5023 0.9639
-3.4634 -8.1289 -2.5014 0.9639
-2.1146 -8.5792 -2.5014 0.9639
-1.7674 -8.6574 -2.5014 0.9639
-1.0651 -8.7715 -2.5014 0.9639
-0.7110 -8.8073 -2.5014 0.9639
-0.0000 -8.8359 -2.5014 0.9639
1.0651 -8.7715 -2.5014 0.9639
1.7674 -8.6574 -2.5014 0.9639
2.1146 -8.5792 -2.5014 0.9639
3.7879 -7.9828 -2.5014 0.9639
4.1063 -7.8238 -2.5014 0.9639
4.7225 -7.4681 -2.5014 0.9639
5.0194 -7.2718 -2.5014 0.9639
5.5883 -6.8444 -2.5014 0.9639
5.8593 -6.6138 -2.5014 0.9639
6.6138 -5.8593 -2.5014 0.9639
6.8444 -5.5883 -2.5014 0.9639
7.0638 -5.3081 -2.5014 0.9639
7.2718 -5.0194 -2.5014 0.9639
7.4681 -4.7225 -2.5014 0.9639
7.9828 -3.7879 -2.5014 0.9639
6.7344 -2.2483 -2.0099 0.9709
6.7257 -1.9481 -1.9823 0.9713
6.7444 -1.6624 -1.9664 0.9715
6.7896 -1.3861 -1.9617 0.9716
6.8868 -1.1192 -1.9752 0.9714
8.8359 0.0000 -2.5014 0.9639
8.8073 0.7110 -2.5014 0.9639
8.7215 1.4174 -2.5014 0.9639
8.6574 1.7674 -2.5014 0.9639
8.0565 1.9858 -2.3490 0.9661
7.9727 2.3093 -2.3498 0.9661
7.8761 2.6294 -2.3506 0.9661
7.6445 3.2570 -2.3523 0.9660
7.5098 3.5635 -2.3532 0.9660
7.3628 3.8643 -2.3540 0.9660
7.2023 4.1582 -2.3543 0.9660
6.8443 4.7243 -2.3543 0.9660
6.4420 5.2597 -2.3543 0.9660
3.1265 2.7699 -1.1825 0.9828
4.2374 5.6390 -1.9968 0.9711
3.5384 5.5955 -1.8742 0.9729
3.1628 5.4781 -1.7907 0.9740
2.8429 5.4166 -1.7318 0.9749
2.0678 5.4522 -1.6508 0.9761
1.8038 5.4031 -1.6126 0.9766
1.5715 5.4253 -1.5990 0.9768
1.3998 5.6791 -1.6558 0.9760
1.1109 5.4415 -1.5722 0.9772
0.2246 5.5728 -1.5789 0.9771
-0.2183 5.4173 -1.5349 0.9777
-0.4272 5.2927 -1.5032 0.9782
-1.5600 5.3857 -1.5873 0.9770
-1.8887 5.6573 -1.6884 0.9755
-2.0420 5.3842 -1.6302 0.9763
-2.2341 5.2436 -1.6135 0.9766
-3.1233 5.4097 -1.7684 0.9744
-3.6182 5.2419 -1.8031 0.9739
-4.1176 5.4795 -1.9404 0.9719
-4.7487 5.3601 -2.0273 0.9707
-5.3615 5.5818 -2.1910 0.9683
-2.5856 2.2906 -0.9779 0.9857
-6.7190 5.0490 -2.3793 0.9657
-6.9149 4.7730 -2.3786 0.9657
-7.0987 4.4890 -2.3777 0.9657
-7.4277 3.8984 -2.3748 0.9657
-7.5690 3.5915 -2.3717 0.9658
-7.8188 2.9653 -2.3673 0.9658
-7.9257 2.6460 -2.3655 0.9659
-8.0188 2.3227 -2.3634 0.9659
-8.6510 2.1323 -2.5223 0.9636
-8.7296 1.7822 -2.5223 0.9636
-8.1605 -0.3289 -2.5120 0.9664
-8.0559 -1.3092 -2.5103 0.9664
-7.9191 -1.9519 -2.5086 0.9664
-7.8314 -2.2684 -2.5078 0.9665
-7.4922 -3.1921 -2.5049 0.9665
-7.3570 -3.4909 -2.5047 0.9665
-7.2099 -3.7840 -2.5045 0.9665
-6.5073 -4.8899 -2.5036 0.9665
-5.6366 -5.8683 -2.5027 0.9665
-5.1434 -6.2995 -2.5014 0.9665
-4.8856 -6.5015 -2.5014 0.9665
-4.3466 -6.8735 -2.5014 0.9665
-4.0663 -7.0430 -2.5014 0.9665
-3.7794 -7.2010 -2.5014 0.9665
-3.1877 -7.4818 -2.5014 0.9665
-2.5753 -7.7140 -2.5014 0.9665
-1.9462 -7.8962 -2.5014 0.9665
-1.6267 -7.9682 -2.5014 0.9665
0.0000 -8.1325 -2.5014 0.9665
0.6544 -8.1062 -2.5014 0.9665
0.9803 -8.0732 -2.5014 0.9665.5743046 -8.0272 -2.5014 0.9665
1.6267 -7.9682 -2.5014 0.9665
1.9462 -7.8962 -2.5014 0.9665
2.2626 -7.8114 -2.5014 0.9665
2.5753 -7.7140 -2.5014 0.9665
2.8838 -7.6041 -2.5014 0.9665
4.0663 -7.0430 -2.5014 0.9665
4.6198 -6.6929 -2.5014 0.9665
4.8856 -6.5015 -2.5014 0.9665
5.3929 -6.0873 -2.5014 0.9665
6.5015 -4.8856 -2.5014 0.9665
6.8735 -4.3466 -2.5014 0.9665
7.2010 -3.7794 -2.5014 0.9665
6.7648 -2.5655 -2.2253 0.9702
6.7147 -2.2417 -2.1773 0.9708
6.7407 -1.6614 -2.1353 0.9714
6.7749 -1.3831 -2.1268 0.9715
7.0925 -0.8612 -2.1975 0.9705
8.1062 -0.6544 -2.5014 0.9665
8.1260 0.3275 -2.5014 0.9665
8.0732 0.9803 -2.5014 0.9665
8.0272 1.3046 -2.5014 0.9665
7.4322 1.8319 -2.3544 0.9685
7.3367 2.1251 -2.3494 0.9685
7.0341 2.9970 -2.3517 0.9685
6.9100 3.2788 -2.3525 0.9685
6.7745 3.5556 -2.3533 0.9685
6.6280 3.8267 -2.3540 0.9685
6.2994 4.3482 -2.3543 0.9685
6.1193 4.5983 -2.3543 0.9685
3.1253 2.7688 -1.2843 0.9827
2.8497 2.9669 -1.2653 0.9829
4.5162 5.5313 -2.1964 0.9706
2.8535 5.4368 -1.8886 0.9746
2.0797 5.4836 -1.8039 0.9758
0.6538 5.3840 -1.6682 0.9776
0.4430 5.4874 -1.6933 0.9772
0.2221 5.5095 -1.6960 0.9772
0.0000 5.4950 -1.6902 0.9773
-0.2176 5.4002 -1.6623 0.9776
-0.6581 5.4200 -1.6793 0.9774
-1.1009 5.3928 -1.6929 0.9772
-1.2957 5.2569 -1.6653 0.9776
-1.8777 5.6245 -1.8238 0.9755
-2.5035 5.2761 -1.7962 0.9759
-3.1137 5.3931 -1.9154 0.9743
-3.3352 5.2742 -1.9194 0.9742
-4.7516 5.3634 -2.2040 0.9705
-5.5204 5.3024 -2.3543 0.9685
-2.5856 2.2906 -1.0625 0.9856
-6.1063 4.5886 -2.3493 0.9685
-6.2887 4.3408 -2.3503 0.9685
-6.6265 3.8258 -2.3535 0.9685
-7.0393 2.9992 -2.3535 0.9685
-7.3468 2.1281 -2.3526 0.9685
-7.4251 1.8301 -2.3522 0.9685
-7.9946 1.6321 -2.5097 0.9664
-8.1037 0.9840 -2.5108 0.9664
-8.1389 0.6570 -2.5115 0.9664
-7.5328 -0.3035 -2.5060 0.9687
-7.5141 -0.6066 -2.5059 0.9687
-7.4401 -1.2091 -2.5056 0.9687
-7.3178 -1.8037 -2.5053 0.9687
-7.2388 -2.0967 -2.5051 0.9687
-7.1480 -2.3864 -2.5050 0.9687
-6.6708 -3.5011 -2.5043 0.9687
-6.1987 -4.2787 -2.5037 0.9687
-6.0209 -4.5244 -2.5035 0.9688
-5.8334 -4.7628 -2.5033 0.9688
-5.6338 -4.9911 -2.5019 0.9688
-5.2129 -5.4270 -2.5014 0.9688
-4.5207 -6.0159 -2.5014 0.9688
-4.2748 -6.1930 -2.5014 0.9688
-4.0219 -6.3601 -2.5014 0.9688
-2.6684 -7.0361 -2.5014 0.9688
-1.8009 -7.3065 -2.5014 0.9688
-1.5052 -7.3730 -2.5014 0.9688
0.0000 -7.5251 -2.5014 0.9688
0.3030 -7.5190 -2.5014 0.9688
0.6055 -7.5007 -2.5014 0.9688
1.5052 -7.3730 -2.5014 0.9688
2.9496 -6.9230 -2.5014 0.9688
3.2260 -6.7986 -2.5014 0.9688
3.4971 -6.6632 -2.5014 0.9688
4.2748 -6.1930 -2.5014 0.9688
4.5207 -6.0159 -2.5014 0.9688
4.7592 -5.8290 -2.5014 0.9688
4.9901 -5.6326 -2.5014 0.9688
5.2128 -5.4271 -2.5014 0.9688
5.6326 -4.9901 -2.5014 0.9688
5.8290 -4.7592 -2.5014 0.9688
6.7986 -3.2260 -2.5014 0.9688
6.9230 -2.9496 -2.5014 0.9688
7.0361 -2.6684 -2.5014 0.9688
7.1379 -2.3830 -2.5014 0.9688
7.3065 -1.8009 -2.5014 0.9688
7.4277 -1.2071 -2.5014 0.9688
7.5007 -0.6055 -2.5014 0.9688
7.5190 -0.3030 -2.5014 0.9688
7.5251 0.0000 -2.5014 0.9688
7.5007 0.6055 -2.5014 0.9688
7.4703 0.9071 -2.5014 0.9688
