ply
format ascii 1.0
element vertex 1522
property float32 x
property float32 y
property float32 z
property float32 I
end_header
-33.4099 -9.6773 -0.1958 0.8701
-31.4661 -21.7194 -0.2153 0.8582
-31.2429 -23.4775 -0.2200 0.8553
-32.6491 -26.6571 -0.2373 0.8448
-4.2673 -14.7325 -0.0864 0.9405
-3.6409 -14.7716 -0.0857 0.9410
-1.8363 -11.2993 -0.0645 0.9552
-0.5912 -14.6713 -0.0827 0.9430
0.0000 -14.6518 -0.0825 0.9431
0.5897 -14.6325 -0.0825 0.9431
1.1752 -14.5579 -0.0822 0.9433
1.7720 -14.5936 -0.0828 0.9429
3.5823 -14.5341 -0.0843 0.9419
13.0923 -34.5216 -0.2079 0.8627
15.2347 -32.1066 -0.2001 0.8675
14.9568 -23.6522 -0.1576 0.8941
14.7141 -21.3170 -0.1458 0.9016
12.6130 -14.2371 -0.1071 0.9267
13.6424 -14.2033 -0.1109 0.9242
14.7493 -14.1669 -0.1151 0.9215
15.9467 -14.1275 -0.1199 0.9183
18.6807 -14.0376 -0.1316 0.9108
25.2735 -15.9820 -0.1684 0.8873
32.2081 -15.2829 -0.2007 0.8671
29.9260 -8.6682 -0.1754 0.8828
43.7099 18.6230 -0.2675 0.8269
44.2186 20.9820 -0.2756 0.8222
35.0520 22.1656 -0.2335 0.8471
24.2120 16.7123 -0.1656 0.8890
21.5086 17.5612 -0.1563 0.8949
19.6894 17.4432 -0.1481 0.9001
2.7890 2.9037 -0.0227 0.9840
2.6996 3.0473 -0.0229 0.9838
6.9377 9.2324 -0.0650 0.9549
6.5988 9.5600 -0.0654 0.9546
6.2183 9.8334 -0.0655 0.9545
5.0798 9.6787 -0.0615 0.9572
3.3560 10.0522 -0.0597 0.9585
2.1405 17.6290 -0.1000 0.9314
0.6456 7.9966 -0.0452 0.9684
0.3143 7.7971 -0.0439 0.9693
-0.9777 8.0524 -0.0457 0.9681
-1.3268 8.1646 -0.0466 0.9675
-2.1322 8.6509 -0.0502 0.9650
-38.8879 20.4100 -0.2473 0.8389
-39.0160 18.5133 -0.2431 0.8414
-39.5835 9.7565 -0.2295 0.8495
-39.3895 8.0414 -0.2263 0.8515
-41.0508 6.6714 -0.2342 0.8467
-37.5362 4.5577 -0.2129 0.8596
-32.9623 -8.1245 -0.9559 0.8730
-27.6616 -11.7855 -0.8466 0.8866
-33.6587 -35.0424 -1.3682 0.8233
-4.2673 -14.7325 -0.4319 0.9405
-3.6409 -14.7716 -0.4284 0.9409
-3.0114 -14.7509 -0.4239 0.9415
-1.8359 -11.2967 -0.3223 0.9552
-1.1860 -14.6908 -0.4150 0.9427
4.2039 -14.5136 -0.4255 0.9413
11.5420 -34.5726 -1.0263 0.8643
14.6879 -34.4738 -1.0551 0.8608
15.1267 -28.8216 -0.9165 0.8779
14.9050 -25.8162 -0.8394 0.8876
14.9568 -23.6522 -0.7880 0.8941
14.8279 -19.7323 -0.6950 0.9060
12.6130 -14.2371 -0.5356 0.9267
13.6424 -14.2033 -0.5545 0.9242
20.2617 -13.9856 -0.6932 0.9062
25.2736 -15.9820 -0.8420 0.8872
25.8249 -14.9100 -0.8397 0.8875
23.5451 -10.0316 -0.7206 0.9027
38.7829 -12.9476 -1.1513 0.8491
29.9159 -8.6653 -0.8770 0.8828
46.3264 -11.4185 -1.3435 0.8262
33.1349 8.1670 -0.9609 0.8724
16.6735 6.3234 -0.5021 0.9311
13.6240 6.4647 -0.4246 0.9414
33.6061 23.1966 -1.1498 0.8492
21.5086 17.5612 -0.7819 0.8948
19.6894 17.4432 -0.7407 0.9001
2.6990 3.0466 -0.1146 0.9838
6.5993 8.0826 -0.2938 0.9591
6.3479 8.4474 -0.2975 0.9586
6.0482 8.7622 -0.2998 0.9583
5.6824 8.9859 -0.2994 0.9583
5.7956 10.0381 -0.3264 0.9547
3.3693 10.0920 -0.2996 0.9583
0.6443 7.9801 -0.2254 0.9685
0.0001 7.6862 -0.2164 0.9697
-0.6290 7.7922 -0.2201 0.9692
-1.3138 8.0847 -0.2306 0.9678
-6.3108 18.9030 -0.5611 0.9234
-4.2561 3.4750 -0.1547 0.9783
-41.2465 21.6478 -1.3117 0.8299
-28.3139 -1.1410 -1.4371 0.8927
-48.1694 -5.8488 -2.4608 0.8234
-42.3697 -6.8858 -2.1769 0.8420
-28.1018 -5.7370 -1.4545 0.8915
-45.2119 -17.1466 -2.4522 0.8239
-42.6638 -22.3917 -2.4436 0.8245
-27.8921 -16.1035 -1.6334 0.8790
-27.9186 -17.6546 -1.6752 0.8761
-27.9760 -21.0226 -1.7747 0.8692
-28.0075 -22.8674 -1.8337 0.8652
-34.2940 -32.9399 -2.4115 0.8266
-28.1168 -29.2727 -2.0583 0.8500
-28.1597 -31.7857 -2.1537 0.8436
-28.2826 -37.6373 -2.3876 0.8282
-3.6409 -14.7716 -0.7715 0.9409
-1.1860 -14.6908 -0.7475 0.9427
-0.5912 -14.6713 -0.7446 0.9429
0.5897 -14.6325 -0.7427 0.9430
3.5823 -14.5341 -0.7591 0.9418
11.5420 -34.5726 -1.8485 0.8642
15.2347 -32.1065 -1.8023 0.8673
15.1267 -28.8216 -1.6508 0.8778
14.9050 -25.8162 -1.5118 0.8875
14.8279 -19.7323 -1.2518 0.9059
13.6424 -14.2033 -0.9988 0.9242
15.9467 -14.1275 -1.0804 0.9182
17.2506 -14.0846 -1.1294 0.9147
18.6807 -14.0376 -1.1850 0.9107
20.2617 -13.9856 -1.2486 0.9061
25.8249 -14.9100 -1.5123 0.8874
28.8318 -15.1321 -1.6513 0.8777
28.6072 -13.5743 -1.6058 0.8809
37.2681 -14.1339 -2.0214 0.8525
38.6733 -12.9110 -2.0677 0.8493
29.9058 -8.6623 -1.5790 0.8828
45.1735 -11.1343 -2.3595 0.8300
45.5438 -9.2978 -2.3574 0.8301
45.8057 -7.4442 -2.3535 0.8304
49.1634 -3.9689 -2.5014 0.8207
49.1634 3.9689 -2.5014 0.8207
48.9637 5.9453 -2.5014 0.8207
45.4852 9.2859 -2.3543 0.8303
24.9163 7.2170 -1.3156 0.9013
19.7962 6.6089 -1.0584 0.9198
16.2951 6.1799 -0.8838 0.9326
13.9227 5.9319 -0.7675 0.9412
12.2979 5.8354 -0.6903 0.9469
9.0189 5.7032 -0.5412 0.9582
8.1851 6.1507 -0.5192 0.9598
19.6894 17.4433 -1.3340 0.9000
7.6592 10.1924 -0.6466 0.9502
5.6285 8.1543 -0.5025 0.9611
5.6444 8.9258 -0.5356 0.9586
5.4236 9.3939 -0.5501 0.9575
3.3425 10.0118 -0.5353 0.9586
2.7660 9.5490 -0.5042 0.9610
2.2253 18.3270 -0.9363 0.9287
0.6459 8.0006 -0.4071 0.9684
0.0001 7.6766 -0.3893 0.9697
-0.3088 7.6631 -0.3889 0.9698
-0.6297 7.8009 -0.3969 0.9691
-0.9707 7.9948 -0.4084 0.9683
-1.3255 8.1566 -0.4191 0.9674
-1.7025 8.3398 -0.4317 0.9665
-5.9486 13.9619 -0.7697 0.9410
-5.9405 11.3186 -0.6483 0.9501
-5.8701 10.1673 -0.5954 0.9541
-5.7586 9.1065 -0.5464 0.9578
-5.9384 7.9026 -0.5013 0.9612
-6.4209 7.8641 -0.5149 0.9602
-6.4483 6.7133 -0.4721 0.9634
-34.1536 32.8051 -2.4017 0.8272
-6.0775 5.3841 -0.4118 0.9680
-4.3132 3.5217 -0.2824 0.9779
-29.4705 18.6360 -1.7683 0.8697
-23.5085 12.3382 -1.3464 0.8991
-28.9950 10.9963 -1.5726 0.8832
-28.8303 8.3508 -1.5222 0.8867
-47.2836 9.6530 -2.4474 0.8242
-28.4726 2.2985 -1.4486 0.8919
-48.4723 1.9534 -2.4602 0.8234
-28.2612 -2.2815 -2.0789 0.8925
-32.5417 -3.9513 -2.4036 0.8768
-28.1554 -4.5757 -2.0915 0.8919
-28.1018 -5.7370 -2.1030 0.8913
-27.9361 -9.3264 -2.1595 0.8886
-27.8427 -13.2115 -2.2598 0.8837
-28.8814 -15.1581 -2.3916 0.8774
-26.0380 -19.5663 -2.3881 0.8775
-25.2245 -20.5952 -2.3877 0.8776
-24.7856 -21.9581 -2.4279 0.8756
-24.6672 -23.6932 -2.5078 0.8718
-23.9970 -24.9835 -2.5400 0.8703
-20.8106 -27.6939 -2.5400 0.8703
-17.3207 -30.0004 -2.5400 0.8703
-13.5783 -31.8694 -2.5400 0.8703
-4.2673 -14.7325 -1.1246 0.9403
-1.8350 -11.2915 -0.8388 0.9552
-1.1860 -14.6908 -1.0807 0.9426
-0.5912 -14.6713 -1.0766 0.9428
0.0000 -14.6518 -1.0743 0.9429
1.1752 -14.5579 -1.0709 0.9431
1.7720 -14.5936 -1.0779 0.9427
3.5823 -14.5341 -1.0976 0.9417
4.2039 -14.5136 -1.1079 0.9412
10.2785 -30.7878 -2.3799 0.8779
11.5075 -30.3426 -2.3794 0.8780
14.7141 -21.3170 -1.8992 0.9013
14.8279 -19.7323 -1.8098 0.9057
14.7740 -18.0949 -1.7128 0.9106
12.6130 -14.2371 -1.3946 0.9266
15.9467 -14.1275 -1.5621 0.9181
20.2617 -13.9856 -1.8052 0.9060
25.2736 -15.9820 -2.1925 0.8870
25.8249 -14.9100 -2.1865 0.8873
28.5197 -14.9683 -2.3616 0.8788
23.5451 -10.0316 -1.8765 0.9024
30.4561 -10.1677 -2.3543 0.8792
29.8957 -8.6594 -2.2821 0.8826
33.6734 -5.4725 -2.5014 0.8721
33.8664 -4.1121 -2.5014 0.8721
34.0045 -2.7451 -2.5014 0.8721
34.0875 -1.3737 -2.5014 0.8721
34.0875 1.3737 -2.5014 0.8721
31.4524 6.4211 -2.3537 0.8792
31.1763 7.6843 -2.3543 0.8792
14.0687 5.9941 -1.1213 0.9405
12.8597 6.1020 -1.0437 0.9445
11.1965 5.8764 -0.9272 0.9505
9.7964 5.6560 -0.8294 0.9556
7.4568 5.6035 -0.6839 0.9633
7.0715 5.7737 -0.6694 0.9640
6.3067 5.5872 -0.6178 0.9668
2.9588 2.8420 -0.3008 0.9837
2.7870 2.9016 -0.2950 0.9840
4.3032 5.7264 -0.5252 0.9717
3.9865 5.7754 -0.5145 0.9722
3.7526 5.9342 -0.5148 0.9722
3.6055 6.2448 -0.5287 0.9715
2.9772 5.6725 -0.4697 0.9746
2.7964 5.8931 -0.4783 0.9742
2.5603 6.0092 -0.4789 0.9741
2.3198 6.1167 -0.4797 0.9741
1.9488 5.8372 -0.4512 0.9756
1.7111 5.9075 -0.4510 0.9756
1.0081 6.2031 -0.4608 0.9751
0.6476 8.0213 -0.5901 0.9682
0.0000 5.8579 -0.4295 0.9768
-0.4700 5.8230 -0.4283 0.9768
-1.3374 8.2298 -0.6113 0.9671
-1.2457 6.1017 -0.4566 0.9753
-3.0128 9.0245 -0.6976 0.9626
-2.2825 6.0185 -0.4720 0.9745
-3.4777 6.0235 -0.5100 0.9725
-3.5974 5.6888 -0.4935 0.9734
-3.7695 5.4610 -0.4865 0.9737
-4.3727 5.8190 -0.5337 0.9712
-4.7888 5.4053 -0.5295 0.9715
-4.3132 3.5217 -0.4083 0.9779
-4.3038 3.2341 -0.3947 0.9786
-27.2178 18.7871 -2.4249 0.8758
-23.2802 12.2184 -1.9278 0.8999
-23.1962 11.0067 -1.8826 0.9021
-28.5999 4.6479 -2.1245 0.8903
-28.4726 2.2985 -2.0945 0.8918
-32.7535 1.3200 -2.4035 0.8768
-26.0820 0.0000 -2.5040 0.9005
-25.9576 -2.0955 -2.5002 0.9006
-25.8943 -3.1441 -2.5042 0.9005
-25.8299 -4.1978 -2.5123 0.9002
-25.7642 -5.2598 -2.5245 0.8997
-25.6880 -6.3315 -2.5400 0.8991
-25.0952 -8.3780 -2.5400 0.8991
-24.7375 -9.3817 -2.5400 0.8991
-22.3610 -14.1403 -2.5400 0.8991
-18.3273 -19.0807 -2.5400 0.8991
-16.7325 -20.4935 -2.5400 0.8991
-15.8937 -21.1507 -2.5400 0.8991
-13.2284 -22.9123 -2.5400 0.8991
-11.3418 -23.9024 -2.5400 0.8991
-9.3817 -24.7375 -2.5400 0.8991
-7.8758 -23.5910 -2.3877 0.9049
-3.0114 -14.7509 -1.4454 0.9413
-1.1860 -14.6908 -1.4150 0.9425
-0.5912 -14.6713 -1.4097 0.9427
0.0000 -14.6518 -1.4066 0.9428
3.5823 -14.5341 -1.4371 0.9416
4.2039 -14.5136 -1.4507 0.9411
7.8236 -23.4345 -2.3719 0.9055
14.0072 -20.2929 -2.3673 0.9057
12.6130 -14.2371 -1.8261 0.9264
14.7493 -14.1669 -1.9634 0.9211
15.9467 -14.1275 -2.0453 0.9180
20.7662 -13.1317 -2.3588 0.9060
21.2603 -12.2747 -2.3569 0.9061
22.5254 -9.5972 -2.3507 0.9063
25.5283 -5.2116 -2.5014 0.9006
25.7174 -4.1795 -2.5014 0.9006
25.8649 -3.1406 -2.5014 0.9006
25.9703 -2.0966 -2.5014 0.9006
26.0337 -1.0491 -2.5014 0.9006
26.0337 1.0491 -2.5014 0.9006
24.1585 3.9261 -2.3498 0.9063
23.5548 6.8227 -2.3543 0.9062
15.9469 6.0478 -1.6374 0.9338
12.0353 5.7108 -1.2789 0.9479
7.3479 5.5216 -0.8824 0.9637
7.0336 5.7428 -0.8718 0.9642
2.7864 2.9010 -0.3862 0.9840
2.6971 3.0444 -0.3905 0.9838
4.5542 5.5779 -0.6913 0.9715
4.2701 5.6824 -0.6824 0.9718
3.9507 5.7236 -0.6677 0.9724
3.6678 5.8001 -0.6588 0.9728
3.3268 5.7621 -0.6388 0.9736
2.6701 5.6271 -0.5980 0.9753
1.8355 5.4979 -0.5565 0.9770
1.5903 5.4901 -0.5488 0.9773
0.9105 5.6020 -0.5449 0.9775
0.6713 5.5285 -0.5347 0.9779
0.0000 5.7565 -0.5527 0.9771
-0.2280 5.6586 -0.5437 0.9775
-0.6734 5.5461 -0.5364 0.9778
-0.9504 5.8485 -0.5689 0.9765
-1.5766 5.4429 -0.5440 0.9775
-2.1421 5.6483 -0.5800 0.9760
-2.3035 5.4064 -0.5642 0.9767
-2.8446 5.4200 -0.5877 0.9757
-3.2108 5.5613 -0.6165 0.9745
-3.3512 5.2995 -0.6020 0.9751
-3.6358 5.2673 -0.6145 0.9746
-4.5583 5.5828 -0.6919 0.9715
-5.2024 5.4162 -0.7210 0.9703
-5.8896 5.2177 -0.7554 0.9689
-4.3132 3.5217 -0.5346 0.9779
-21.7735 15.0292 -2.5400 0.8991
-22.3610 14.1403 -2.5400 0.8991
-22.9123 13.2284 -2.5400 0.8991
-23.9024 11.3418 -2.5400 0.8991
-24.3397 10.3703 -2.5400 0.8991
-25.0953 8.3777 -2.5400 0.8991
-25.4122 7.3607 -2.5400 0.8991
-25.9221 5.2921 -2.5400 0.8991
-26.2639 3.1890 -2.5400 0.8991
-26.1434 1.0536 -2.5119 0.9002
-21.3829 0.0000 -2.5400 0.9175
-21.2270 -2.5774 -2.5400 0.9175
-21.1060 -3.4301 -2.5400 0.9175
-20.7615 -5.1173 -2.5400 0.9175
-19.9933 -7.5825 -2.5400 0.9175
-19.6718 -8.3814 -2.5400 0.9175
-18.9336 -9.9371 -2.5400 0.9175
-18.0726 -11.4284 -2.5400 0.9175
-17.5978 -12.1469 -2.5400 0.9175
-16.5633 -13.5235 -2.5400 0.9175
-14.8124 -15.4214 -2.5400 0.9175
-13.5235 -16.5633 -2.5400 0.9175
-12.8456 -17.0944 -2.5400 0.9175
-12.1469 -17.5978 -2.5400 0.9175
-11.4284 -18.0726 -2.5400 0.9175
-10.6914 -18.5181 -2.5400 0.9175
-9.9371 -18.9336 -2.5400 0.9175
-8.6169 -18.1597 -2.3876 0.9222
-6.5129 -15.2864 -1.9738 0.9353
-7.1290 -18.7978 -2.3881 0.9222
-3.0114 -14.7509 -1.7883 0.9412
-1.8342 -11.2863 -1.3582 0.9550
-1.7862 -14.7106 -1.7602 0.9421
-1.1860 -14.6908 -1.7507 0.9424
1.1752 -14.5579 -1.7349 0.9429
2.9713 -14.5541 -1.7645 0.9419
7.0608 -18.6178 -2.3652 0.9229
7.8035 -18.3155 -2.3649 0.9229
8.5332 -17.9833 -2.3645 0.9229
10.6321 -16.8133 -2.3630 0.9230
11.2978 -16.3677 -2.3624 0.9230
12.5716 -15.3975 -2.3612 0.9231
13.1777 -14.8745 -2.3605 0.9231
13.7618 -14.3276 -2.3598 0.9231
14.8569 -13.1620 -2.3577 0.9232
15.8481 -11.9090 -2.3548 0.9233
16.7328 -10.5812 -2.3517 0.9233
17.6155 -9.2453 -2.3632 0.9230
19.0249 -9.0274 -2.5014 0.9187
19.9743 -6.6684 -2.5014 0.9187
8.8116 -1.4320 -1.0604 0.9647
21.0409 -0.8479 -2.5014 0.9187
21.0580 0.0000 -2.5014 0.9187
21.0409 0.8479 -2.5014 0.9187
20.9897 1.6945 -2.5014 0.9187
19.5204 3.1724 -2.3492 0.9234
19.3943 3.9594 -2.3513 0.9234
19.2365 4.7414 -2.3534 0.9233
19.0374 5.5143 -2.3543 0.9233
13.6712 5.8248 -1.7652 0.9419
10.9102 5.7261 -1.4636 0.9516
8.8594 5.6024 -1.2451 0.9587
8.4545 5.8357 -1.2203 0.9595
6.2154 5.5062 -0.9863 0.9671
2.6965 3.0437 -0.4830 0.9838
4.5677 5.5944 -0.8579 0.9713
3.9653 5.7447 -0.8292 0.9723
3.6872 5.8309 -0.8195 0.9726
2.9191 5.5617 -0.7461 0.9750
2.6220 5.5255 -0.7265 0.9757
1.5902 5.4900 -0.6789 0.9772
1.4018 5.6873 -0.6958 0.9767
1.1835 5.7971 -0.7028 0.9764
0.8840 5.4390 -0.6546 0.9780
0.4335 5.3696 -0.6399 0.9785
0.0000 5.6875 -0.6756 0.9774
-0.4352 5.3911 -0.6425 0.9784
-0.8786 5.4065 -0.6506 0.9782
-1.3423 5.4458 -0.6662 0.9777
-1.8669 5.5922 -0.7003 0.9765
-2.4752 5.2163 -0.6858 0.9770
-2.8437 5.4182 -0.7269 0.9757
-3.1850 5.5166 -0.7567 0.9747
-3.3624 5.3173 -0.7473 0.9750
-3.9751 5.2899 -0.7860 0.9737
-4.6880 5.2916 -0.8398 0.9719
-5.7010 5.4758 -0.9390 0.9687
-4.3038 3.2341 -0.6395 0.9785
-17.5978 12.1469 -2.5400 0.9175
-19.3184 9.1667 -2.5400 0.9175
-19.6718 8.3814 -2.5400 0.9175
-19.9933 7.5825 -2.5400 0.9175
-20.2824 6.7713 -2.5400 0.9175
-20.5386 5.9491 -2.5400 0.9175
-20.9507 4.2771 -2.5400 0.9175
-21.2270 2.5774 -2.5400 0.9175
-21.3135 1.7206 -2.5400 0.9175
-17.9264 0.0000 -2.5400 0.9301
-17.7957 -2.1608 -2.5400 0.9301
-17.5642 -3.5857 -2.5400 0.9301
-17.4055 -4.2901 -2.5400 0.9301
-17.2187 -4.9874 -2.5400 0.9301
-16.7615 -6.3568 -2.5400 0.9301
-16.4920 -7.0266 -2.5400 0.9301
-16.1956 -7.6849 -2.5400 0.9301
-15.1512 -9.5811 -2.5400 0.9301
-14.3311 -10.7692 -2.5400 0.9301
-13.4181 -11.8874 -2.5400 0.9301
-12.9286 -12.4181 -2.5400 0.9301
-12.4181 -12.9286 -2.5400 0.9301
-9.0062 -14.2422 -2.3876 0.9342
-7.2251 -15.2265 -2.3880 0.9342
-6.4745 -15.1962 -2.3404 0.9354
-5.3365 -15.9848 -2.3878 0.9342
-3.6267 -14.7139 -2.1472 0.9406
-3.0007 -14.6985 -2.1256 0.9412
-1.7862 -14.7106 -2.0996 0.9419
-1.1860 -14.6908 -2.0883 0.9422
1.1752 -14.5579 -2.0694 0.9427
2.3685 -14.5740 -2.0921 0.9421
2.9684 -14.5400 -2.1026 0.9418
3.5736 -14.4985 -2.1158 0.9415
5.9089 -15.5806 -2.3610 0.9349
6.5307 -15.3280 -2.3607 0.9349
8.3266 -14.4221 -2.3596 0.9349
9.4547 -13.6974 -2.3582 0.9350
9.9946 -13.3003 -2.3573 0.9350
10.5176 -12.8817 -2.3563 0.9350
11.0230 -12.4423 -2.3553 0.9351
11.9771 -11.5042 -2.3531 0.9351
12.4244 -11.0071 -2.3519 0.9351
13.2559 -9.9612 -2.3494 0.9352
13.8619 -9.5682 -2.3865 0.9342
14.9211 -9.4355 -2.5014 0.9312
15.6319 -8.2043 -2.5014 0.9312
16.2414 -6.9198 -2.5014 0.9312
16.5069 -6.2602 -2.5014 0.9312
8.2948 -1.6934 -1.1995 0.9664
9.0966 -1.1045 -1.2984 0.9637
17.6398 -0.7109 -2.5014 0.9312
17.6541 0.0000 -2.5014 0.9312
17.6398 0.7109 -2.5014 0.9312
15.9576 4.6222 -2.3540 0.9351
15.7610 5.2618 -2.3543 0.9351
15.5364 5.8922 -2.3543 0.9351
14.0093 5.9688 -2.1576 0.9403
8.9129 5.6361 -1.4942 0.9583
8.4013 5.7990 -1.4464 0.9596
7.3803 5.5459 -1.3080 0.9634
7.0230 5.7341 -1.2846 0.9640
6.2374 5.5258 -1.1807 0.9669
2.6958 3.0430 -0.5760 0.9837
4.5326 5.5514 -1.0155 0.9715
3.7056 5.8599 -0.9824 0.9724
2.8774 5.4824 -0.8773 0.9753
2.6634 5.6128 -0.8803 0.9752
2.4229 5.6867 -0.8758 0.9753
2.1059 5.5527 -0.8414 0.9763
1.8164 5.4407 -0.8127 0.9771
1.1719 5.7400 -0.8301 0.9766
0.6573 5.4126 -0.7725 0.9782
0.4327 5.3587 -0.7617 0.9785
-0.2223 5.5172 -0.7824 0.9779
-0.4415 5.4697 -0.7775 0.9781
-2.1521 5.6745 -0.8599 0.9758
-2.7970 5.3292 -0.8528 0.9760
-3.5965 5.2104 -0.8970 0.9747
-4.4955 5.5059 -1.0071 0.9717
-5.7877 5.5591 -1.1371 0.9681
-14.7532 10.1834 -2.5400 0.9301
-15.8731 8.3309 -2.5400 0.9301
-16.1956 7.6849 -2.5400 0.9301
-16.7615 6.3568 -2.5400 0.9301
-17.0039 5.6767 -2.5400 0.9301
-17.4055 4.2901 -2.5400 0.9301
-15.4182 0.0000 -2.5400 0.9394
-15.4057 -0.6208 -2.5400 0.9394
-15.3682 -1.2406 -2.5400 0.9394
-15.3058 -1.8585 -2.5400 0.9394
-14.8095 -4.2896 -2.5400 0.9394
-14.6247 -4.8825 -2.5400 0.9394
-14.4163 -5.4674 -2.5400 0.9394
-13.9296 -6.6097 -2.5400 0.9394
-13.6522 -7.1652 -2.5400 0.9394
-13.3526 -7.7091 -2.5400 0.9394
-11.5407 -10.2242 -2.5400 0.9394
-10.6806 -11.1197 -2.5400 0.9394
-8.7150 -12.6258 -2.5273 0.9397
-7.6505 -12.0983 -2.3581 0.9436
-6.6400 -12.6515 -2.3538 0.9437
-6.1179 -12.8931 -2.3510 0.9438
-5.5890 -13.1179 -2.3490 0.9438
-2.8630 -14.0238 -2.3579 0.9436
-1.7256 -14.2120 -2.3585 0.9436
0.5766 -14.3071 -2.3589 0.9436
1.1522 -14.2720 -2.3588 0.9436
1.7258 -14.2134 -2.3587 0.9436
2.8635 -14.0261 -2.3583 0.9436
3.4255 -13.8978 -2.3580 0.9436
3.9818 -13.7466 -2.3577 0.9436
5.0732 -13.3769 -2.3569 0.9437
6.1304 -12.9195 -2.3558 0.9437
8.1141 -11.7552 -2.3531 0.9437
8.5779 -11.4151 -2.3523 0.9438
9.8801 -10.2863 -2.3496 0.9438
10.2835 -9.8775 -2.3490 0.9438
11.7616 -9.6030 -2.5014 0.9403
12.1387 -9.1216 -2.5014 0.9403
12.8333 -8.1153 -2.5014 0.9403
13.4447 -7.0563 -2.5014 0.9403
13.7180 -6.5092 -2.5014 0.9403
13.9689 -5.9516 -2.5014 0.9403
14.4025 -4.8083 -2.5014 0.9403
7.8593 -1.9372 -1.3335 0.9677
7.8940 -1.6116 -1.3273 0.9679
15.1717 -0.6114 -2.5014 0.9403
15.1347 1.2218 -2.5014 0.9403
15.0733 1.8302 -2.5014 0.9403
13.7178 3.9734 -2.3528 0.9437
13.3626 5.0677 -2.3543 0.9437
13.1477 5.6017 -2.3543 0.9437
12.8581 6.1013 -2.3446 0.9439
9.9084 5.7206 -1.8848 0.9547
8.9392 5.6528 -1.7424 0.9580
7.0254 5.7361 -1.4941 0.9639
6.1866 5.4808 -1.3616 0.9670
2.9548 2.8381 -0.6749 0.9835
2.6952 3.0422 -0.6696 0.9837
3.2017 5.5454 -1.0549 0.9744
2.9051 5.5350 -1.0298 0.9750
2.4309 5.7054 -1.0217 0.9752
1.3698 5.5576 -0.9430 0.9771
1.1645 5.7038 -0.9590 0.9767
0.4235 5.2449 -0.8669 0.9789
0.0000 5.6068 -0.9237 0.9775
-0.2258 5.6050 -0.9241 0.9775
-0.8659 5.3283 -0.8893 0.9784
-1.3429 5.4484 -0.9244 0.9775
-2.4656 5.1961 -0.9475 0.9770
-2.7987 5.3324 -0.9921 0.9759
-3.3590 5.3117 -1.0353 0.9748
-3.9521 5.2593 -1.0838 0.9737
-4.5323 5.5510 -1.1806 0.9714
-4.6970 5.3017 -1.1669 0.9717
-5.0865 5.2955 -1.2096 0.9707
-5.7057 5.4804 -1.3033 0.9684
-12.3260 9.2624 -2.5400 0.9394
-13.0313 8.2405 -2.5400 0.9394
-13.6521 7.1652 -2.5400 0.9394
-13.9296 6.6097 -2.5400 0.9394
-15.1066 3.0840 -2.5400 0.9394
-15.2186 2.4733 -2.5400 0.9394
-15.3058 1.8585 -2.5400 0.9394
-15.3682 1.2407 -2.5400 0.9394
-13.5134 0.0000 -2.5400 0.9465
-13.5024 -0.5441 -2.5400 0.9465
-13.2403 -2.7030 -2.5400 0.9465
-13.1207 -3.2340 -2.5400 0.9465
-12.8179 -4.2793 -2.5400 0.9465
-12.4320 -5.2968 -2.5400 0.9465
-12.2087 -5.7932 -2.5400 0.9465
-11.7029 -6.7567 -2.5400 0.9465
-11.4214 -7.2224 -2.5400 0.9465
-11.1213 -7.6765 -2.5400 0.9465
-10.8032 -8.1181 -2.5400 0.9465
-10.4675 -8.5465 -2.5400 0.9465
-8.9072 -10.0542 -2.5247 0.9468
-8.4622 -10.3643 -2.5149 0.9470
-7.5655 -10.9605 -2.5033 0.9472
-7.0547 -11.1562 -2.4810 0.9477
-6.2486 -10.8229 -2.3490 0.9504
-4.8985 -11.4972 -2.3490 0.9504
-3.9629 -11.8704 -2.3522 0.9503
-1.5095 -12.4317 -2.3538 0.9503
-0.5043 -12.5143 -2.3541 0.9503
1.5096 -12.4329 -2.3541 0.9503
2.0089 -12.3613 -2.3539 0.9503
3.4832 -12.0253 -2.3532 0.9503
4.4382 -11.7024 -2.3525 0.9503
5.3633 -11.3029 -2.3516 0.9504
5.8128 -11.0753 -2.3510 0.9504
7.0998 -10.2859 -2.3492 0.9504
7.5326 -10.0240 -2.3568 0.9502
8.7863 -9.9176 -2.4904 0.9475
9.2188 -9.5978 -2.5014 0.9473
9.5978 -9.2188 -2.5014 0.9473
9.9612 -8.8249 -2.5014 0.9473
10.3085 -8.4166 -2.5014 0.9473
10.9523 -7.5598 -2.5014 0.9473
11.2479 -7.1127 -2.5014 0.9473
11.5251 -6.6540 -2.5014 0.9473
11.7837 -6.1846 -2.5014 0.9473
12.0232 -5.7051 -2.5014 0.9473
12.2431 -5.2163 -2.5014 0.9473
12.4433 -4.7191 -2.5014 0.9473
7.4832 -2.1675 -1.4644 0.9688
7.4405 -1.8339 -1.4404 0.9693
7.4814 -1.5273 -1.4352 0.9694
7.5651 -1.2295 -1.4406 0.9693
13.2973 -0.5358 -2.5014 0.9473
13.3081 0.0000 -2.5014 0.9473
13.1357 2.1348 -2.5014 0.9473
12.1419 2.9927 -2.3505 0.9504
12.0183 3.4812 -2.3518 0.9503
11.8750 3.9645 -2.3531 0.9503
11.7117 4.4417 -2.3543 0.9503
11.5233 4.9096 -2.3543 0.9503
11.3163 5.3696 -2.3543 0.9503
10.9465 5.7452 -2.3237 0.9509
8.4859 5.8574 -1.9381 0.9589
7.5195 5.6505 -1.7679 0.9624
6.1254 5.4266 -1.5382 0.9672
2.9537 2.8371 -0.7698 0.9835
2.7838 2.8982 -0.7553 0.9838
4.6683 5.7176 -1.3874 0.9704
4.2240 5.6211 -1.3216 0.9718
3.9192 5.6778 -1.2968 0.9723
2.4122 5.6616 -1.1567 0.9753
1.8286 5.4774 -1.0854 0.9768
1.5825 5.4635 -1.0691 0.9771
1.3518 5.4842 -1.0617 0.9773
0.4359 5.3995 -1.0182 0.9782
0.0000 5.5857 -1.0499 0.9775
-0.2221 5.5114 -1.0368 0.9778
-0.6623 5.4548 -1.0328 0.9779
-0.8834 5.4357 -1.0351 0.9778
-1.5486 5.3464 -1.0462 0.9776
-1.8170 5.4427 -1.0785 0.9769
-2.0885 5.5068 -1.1070 0.9763
-2.2696 5.3270 -1.0884 0.9767
-2.7712 5.2801 -1.1208 0.9760
-3.1956 5.5350 -1.2013 0.9743
-3.3798 5.3447 -1.1886 0.9746
-3.6089 5.2284 -1.1941 0.9745
-4.1166 5.4782 -1.2880 0.9725
-4.4518 5.4523 -1.3230 0.9718
-4.6765 5.2787 -1.3256 0.9717
-5.0051 5.2108 -1.3581 0.9710
-5.7819 5.5536 -1.5069 0.9679
-6.2271 5.0842 -1.5110 0.9678
-10.1550 7.6310 -2.3876 0.9496
-11.4214 7.2225 -2.5400 4.9465
-11.7029 6.7567 -2.5400 0.9465
-12.6352 4.7919 -2.5400 0.9465
-12.8179 4.2793 -2.5400 0.9465
-13.4696 1.0874 -2.5400 0.9465
-13.5024 0.5441 -2.5400 0.9465
-11.9772 -0.9669 -2.5400 0.9521
-11.8606 -1.9275 -2.5400 0.9521
-11.6670 -2.8756 -2.5400 0.9521
-11.3978 -3.8052 -2.5400 0.9521
-11.2353 -4.2610 -2.5400 0.9521
-11.0547 -4.7100 -2.5400 0.9521
-10.6398 -5.5842 -2.5400 0.9521
-10.4063 -6.0081 -2.5400 0.9521
-10.1560 -6.4222 -2.5400 0.9521
-9.6014 -7.2150 -2.5387 0.9521
-7.1115 -9.4637 -2.5023 0.9528
-6.3247 -10.0017 -2.5014 0.9528
-5.9168 -10.2482 -2.5014 0.9528
-5.4994 -10.4782 -2.5014 0.9528
-4.9714 -10.4771 -2.4513 0.9537
-4.4610 -10.4703 -2.4057 0.9545
-3.9698 -10.4676 -2.3664 0.9553
-2.6600 -10.7920 -2.3495 0.9556
-2.2235 -10.8916 -2.3498 0.9556
-1.7834 -10.9735 -2.3500 0.9556
0.0000 -11.1199 -2.3505 0.9556
0.8948 -11.0838 -2.3505 0.9556
2.2239 -10.8934 -2.3501 0.9556
2.6605 -10.7940 -2.3499 0.9556
3.5196 -10.5425 -2.3494 0.9556
4.8220 -10.1621 -2.3776 0.9551
5.8281 -10.0946 -2.4639 0.9535
6.3247 -10.0017 -2.5014 0.9528
6.7223 -9.7389 -2.5014 0.9528
7.1090 -9.4603 -2.5014 0.9528
7.8472 -8.8576 -2.5014 0.9528
9.1664 -7.4841 -2.5014 0.9528
10.4782 -5.4994 -2.5014 0.9528
10.6911 -5.0730 -2.5014 0.9528
10.8867 -4.6384 -2.5014 0.9528
7.3763 -2.1366 -1.6233 0.9691
7.3623 -1.8146 -1.6028 0.9695
7.3948 -1.5097 -1.5954 0.9696
10.5611 -0.8526 -2.2397 0.9576
11.8240 -0.4765 -2.5014 0.9528
11.7474 1.4264 -2.5014 0.9528
11.6804 1.8983 -2.5014 0.9528
10.6833 3.0945 -2.3511 0.9555
10.5553 3.5239 -2.3522 0.9555
10.4099 3.9480 -2.3534 0.9555
10.2466 4.3657 -2.3543 0.9555
10.0626 4.7747 -2.3543 0.9555
9.8621 5.1760 -2.3543 0.9555
9.6457 5.5690 -2.3543 0.9555
9.2960 5.8784 -2.3249 0.9560
7.3852 5.5497 -1.9527 0.9629
7.0730 5.7749 -1.9301 0.9634
6.2861 5.5689 -1.7752 0.9662
2.7831 2.8975 -0.8492 0.9837
2.6939 3.0408 -0.8587 0.9835
4.2046 5.5953 -1.4795 0.9718
3.9697 5.7510 -1.4771 0.9718
3.6776 5.8157 -1.4545 0.9723
3.2541 5.6362 -1.3757 0.9737
2.6118 5.5041 -1.2878 0.9754
2.3986 5.6297 -1.2935 0.9753
2.0891 5.5084 -1.2453 0.9762
1.8366 5.5012 -1.2260 0.9766
1.5774 5.4456 -1.1984 0.9771
1.3645 5.5360 -1.2052 0.9770
-0.2223 5.5165 -1.1670 0.9777
-0.4395 5.4445 -1.1546 0.9779
-1.1446 5.6065 -1.2096 0.9769
-1.3254 5.3774 -1.1707 0.9776
-1.8177 5.4447 -1.2133 0.9768
-2.1227 5.5970 -1.2653 0.9758
-2.2707 5.3294 -1.2245 0.9766
-2.7960 5.3273 -1.2718 0.9757
-3.6134 5.2350 -1.3446 0.9743
-3.9665 5.2784 -1.3957 0.9734
-4.4777 5.4841 -1.4966 0.9715
-4.6189 5.2137 -1.4724 0.9719
-5.6960 5.4711 -1.6695 0.9682
-5.9509 5.2720 -1.6805 0.9680
-9.2958 6.4164 -2.3876 0.9549
-9.7819 5.6476 -2.3876 0.9549
-10.0014 5.2492 -2.3876 0.9549
-10.2047 4.8422 -2.3876 0.9549
-11.0547 4.7100 -2.5400 0.9521
-11.2353 4.2610 -2.5400 0.9521
-11.3978 3.8051 -2.5400 0.9521
-11.5418 3.3431 -2.5400 0.9521
-11.6670 2.8757 -2.5400 0.9521
-11.8606 1.9275 -2.5400 0.9521
-11.9286 1.4484 -2.5400 0.9521
-12.0065 0.4839 -2.5400 0.9521
-10.8074 0.0000 -2.5400 0.9566
-10.7986 -0.4352 -2.5400 0.9566
-10.7723 -0.8696 -2.5400 0.9566
-10.7286 -1.3027 -2.5400 0.9566
-10.5890 -2.1617 -2.5400 0.9566
-10.4933 -2.5864 -2.5400 0.9566
-10.3807 -3.0068 -2.5400 0.9566
-10.2512 -3.4223 -2.5400 0.9566
-9.0896 -5.7481 -2.5275 0.9568
-8.8319 -6.0962 -2.5222 0.9569
-5.6888 -8.9960 -2.5015 0.9572
-5.3216 -9.2173 -2.5014 0.9572
-4.9461 -9.4241 -2.5014 0.9572
-4.1718 -9.7915 -2.5014 0.9572
-3.7741 -9.9516 -2.5014 0.9572
-3.3704 -10.0955 -2.5014 0.9572
-2.9611 -10.2230 -2.5014 0.9572
-2.5471 -10.3339 -2.5014 0.9572
-1.2610 -10.3854 -2.4587 0.9579
-0.4177 -10.3656 -2.4381 0.9583
0.0000 -10.3523 -2.4330 0.9584
0.4166 -10.3376 -2.4316 0.9584
0.8333 -10.3223 -2.4339 0.9583
2.9611 -10.2230 -2.5014 0.9572
4.1718 -9.7915 -2.5014 0.9572
4.5627 -9.6156 -2.5014 0.9572
5.3216 -9.2173 -2.5014 0.9572
6.0460 -8.7592 -2.5014 0.9572
7.0577 -7.9666 -2.5014 0.9572
7.3728 -7.6759 -2.5014 0.9572
7.6759 -7.3728 -2.5014 0.9572
7.9665 -7.0577 -2.5014 0.9572
8.7592 -6.0460 -2.5014 0.9572
8.9955 -5.6884 -2.5014 0.9572
9.4241 -4.9461 -2.5014 0.9572
9.6156 -4.5627 -2.5014 0.9572
7.2831 -1.7951 -1.7629 0.9696
7.3753 -1.1986 .1.7561 0.9698
10.6087 -0.8564 -2.5014 0.9572
10.6346 0.4286 -2.5014 0.9572
10.6087 0.8564 -2.5014 0.9572
10.5656 1.2829 -2.5014 0.9572
10.3065 2.1041 -2.4722 0.9577
9.7059 2.3923 -2.3494 0.9598
9.4904 3.1684 -2.3515 0.9597
9.0503 4.2944 -2.3543 0.9597
8.8700 4.6553 -2.3543 0.9597
8.6754 5.0087 -2.3543 0.9597
8.4666 5.3540 -2.3543 0.9597
7.4504 5.5986 -2.1903 0.9624
6.2208 5.5111 -1.9532 0.9664
2.7824 2.8968 -0.9440 0.9836
4.5901 5.6218 -1.7057 0.9706
3.9160 5.6733 -1.6202 0.9721
3.6989 5.8493 -1.6265 0.9720
3.2266 5.5885 -1.5166 0.9738
2.0938 5.5209 -1.3877 0.9760
1.3473 5.4661 -1.3231 0.9771
1.1561 5.6628 -1.3583 0.9765
0.6597 5.4328 -1.2862 0.9778
-0.4431 5.4898 -1.2944 0.9776
-1.1266 5.5185 -1.3237 0.9771
-2.1202 5.5905 -1.4052 0.9757
-3.1865 5.5192 -1.4978 0.9742
-3.5993 5.2145 -1.4891 0.9743
-3.9836 5.3012 -1.5585 0.9731
-4.6979 5.3028 -1.6650 0.9713
-5.6773 5.4531 -1.8501 0.9682
-5.9360 5.2588 -1.8638 0.9679
-6.2036 5.0650 -1.8822 0.9676
-8.1215 6.1029 -2.3876 0.9591
-8.3606 5.7709 -2.3876 0.9591
-8.7979 5.0795 -2.3876 0.9591
-8.9953 4.7211 -2.3876 0.9591
-9.3460 3.9820 -2.3876 0.9591
-10.4933 2.5864 -2.5400 0.9566
-10.7286 1.3027 -2.5400 0.9566
-10.7723 0.8696 -2.5400 0.9566
-10.7986 0.4352 -2.5400 0.9566
-9.7284 -1.1812 -2.5373 0.9603
-9.5971 -1.9593 -2.5361 0.9603
-9.3968 -2.7219 -2.5330 0.9604
-8.7973 -4.1744 -2.5212 0.9606
-8.6097 -4.5187 -2.5176 0.9606
-8.4107 -4.8561 -2.5146 0.9607
-8.1952 -5.1824 -2.5106 0.9607
-7.9721 -5.5025 -2.5081 0.9608
-7.4905 -6.1158 -2.5038 0.9608
-7.2374 -6.4118 -2.5035 0.9608
-6.9726 -6.6973 -2.5032 0.9608
-6.6965 -6.9718 -2.5029 0.9608
-6.1125 -7.4864 -2.5024 0.9609
-5.1638 -8.1659 -2.5016 0.9609
-4.8305 -8.3666 -2.5014 0.9609
-4.4897 -8.5544 -2.5014 0.9609
-3.4258 -9.0331 -2.5014 0.9609
-2.6878 -9.2795 -2.5014 0.9609
-1.5497 -9.5358 -2.5014 0.9609
-1.1645 -9.5905 -2.5014 0.9609
-0.3890 -9.6531 -2.5014 0.9609
0.7774 -9.6296 -2.5014 0.9609
1.1645 -9.5905 -2.5014 0.9609
1.9324 -9.4657 -2.5014 0.9609
2.6879 -9.2795 -2.5014 0.9609
3.0593 -9.1638 -2.5014 0.9609
4.8305 -8.3666 -2.5014 0.9609
5.1635 -8.1654 -2.5014 0.9609
5.4881 -7.9508 -2.5014 0.9609
5.8037 -7.7234 -2.5014 0.9609
6.1100 -7.4834 -2.5014 0.9609
6.9675 -6.6924 -2.5014 0.9609
7.2313 -6.4064 -2.5014 0.9609
7.7234 -5.8038 -2.5014 0.9609
8.1653 -5.1635 -2.5014 0.9609
8.5544 -4.4897 -2.5014 0.9609
8.8879 -3.7868 -2.5014 0.9609
9.0332 -3.4258 -2.5014 0.9609
7.2557 -2.1017 -1.9559 0.9693
7.2452 -1.7858 -1.9320 0.9696
7.2695 -1.4841 -1.9210 0.9698
9.6296 -0.7774 -2.5014 0.9609
9.6610 0.0000 -2.5014 0.9609
9.6531 0.3890 -2.5014 0.9609
9.4657 1.9324 -2.5014 0.9609
8.7175 2.5251 -2.3499 0.9632
8.6123 2.8752 -2.3509 0.9632
8.4929 3.2209 -2.3518 0.9632
8.3597 3.5617 -2.3527 0.9632
8.2127 3.8970 -2.3536 0.9631
7.8747 4.5465 -2.3543 0.9631
7.4834 5.1654 -2.3543 0.9631
7.2693 5.4625 -2.3543 0.9631
7.0434 5.7508 -2.3543 0.9631
6.1387 5.4384 -2.1234 0.9667
2.9506 2.8341 -1.0593 0.9832
2.7817 2.8961 -1.0397 0.9835
2.6925 3.0393 -1.0513 0.9834
3.7006 5.8520 -1.7927 0.9718
2.8833 5.4936 -1.6064 0.9747
2.6274 5.5370 -1.5869 0.9750
2.1184 5.5857 -1.5468 0.9756
0.0000 5.5739 -1.4432 0.9772
-0.2229 5.5318 -1.4334 0.9774
-0.4395 5.4447 -1.4143 0.9777
-0.6481 5.3375 -1.3921 0.9780
-0.8749 5.3837 -1.4122 0.9777
-1.1215 5.4933 -1.4517 0.9771
-1.3127 5.3261 -1.4203 0.9776
-1.8090 5.4186 -1.4791 0.9767
-2.2638 5.3134 -1.4954 0.9764
-2.4950 5.2580 -1.5069 0.9762
-3.2228 5.5820 -1.6689 0.9737
-3.5974 5.2117 -1.6396 0.9742
-5.1351 5.3462 -1.9193 0.9698
-5.8745 5.2043 -2.0320 0.9681
-7.9839 4.6095 -2.3870 0.9626
-8.1598 4.2826 -2.3860 0.9626
-8.3191 3.9475 -2.3842 0.9627
-8.4627 3.6056 -2.3817 0.9627
-9.4048 2.7241 -2.5352 0.9604
-9.5962 1.9591 -2.5359 0.9603
-9.6704 1.5716 -2.5367 0.9603
-9.7698 0.7887 -2.5378 0.9603
-9.7941 0.3947 -2.5379 0.9603
-8.9128 0.0000 -2.5232 0.9636
-8.9052 -0.3589 -2.5230 0.9636
-8.8820 -0.7170 -2.5226 0.9636
-8.8432 -1.0738 -2.5218 0.9636
-8.7893 -1.4284 -2.5208 0.9637
-8.7208 -1.7804 -2.5197 0.9637
-8.6377 -2.1290 -2.5185 0.9637
-8.2973 -3.1468 -2.5122 0.9638
-7.8412 -4.1154 -2.5070 0.9639
-7.6618 -4.4235 -2.5045 0.9639
-
8.89 -5.8638 -2.5033 0.9639
-6.1243 -6.3761 -2.5028 0.9639
-5.8620 -6.6169 -2.5026 0.9639
-5.5903 -6.8469 -2.5023 0.9639
-5.3095 -7.0657 -2.5020 0.9639
-4.7225 -7.4680 -2.5014 0.9639
-4.1063 -7.8239 -2.5014 0.9639
-3.7879 -7.9828 -2.5014 0.9639
-3.1333 -8.2618 -2.5014 0.9639
-2.4583 -8.4871 -2.5014 0.9639
-2.1146 -8.5792 -2.5014 0.9639
-1.4174 -8.7215 -2.5014 0.9639
-0.3558 -8.8288 -2.5014 0.9639
0.3558 -8.8288 -2.5014 0.9639
0.7110 -8.8073 -2.5014 0.9639
2.1146 -8.5792 -2.5014 0.9639
2.4583 -8.4871 -2.5014 0.9639
4.1063 -7.8239 -2.5014 0.9639
4.4180 -7.6522 -2.5014 0.9639
4.7225 -7.4681 -2.5014 0.9639
5.3081 -7.0638 -2.5014 0.9639
5.8593 -6.6138 -2.5014 0.9639
6.1209 -6.3725 -2.5014 0.9639
6.8444 -5.5883 -2.5014 0.9639
7.0638 -5.3081 -2.5014 0.9639
7.4681 -4.7225 -2.5014 0.9639
7.6522 -4.4180 -2.5014 0.9639
7.9829 -3.7879 -2.5014 0.9639
8.1289 -3.4634 -2.5014 0.9639
8.2618 -3.1333 -2.5014 0.9639
7.2883 -2.4332 -2.1752 0.9686
7.2672 -1.4836 -2.0997 0.9696
8.8073 -0.7110 -2.5014 0.9639
8.8288 0.3558 -2.5014 0.9639
8.8073 0.7110 -2.5014 0.9639
8.7715 1.0651 -2.5014 0.9639
8.7215 1.4174 -2.5014 0.9639
8.6574 1.7674 -2.5014 0.9639
8.0585 1.9862 -2.3496 0.9661
7.9716 2.3090 -2.3495 0.9661
7.8751 2.6291 -2.3503 0.9661
7.7657 2.9451 -2.3512 0.9661
7.6435 3.2566 -2.3520 0.9661
7.0290 4.4449 -2.3543 0.9660
6.8443 4.7243 -2.3543 0.9660
6.4420 5.2597 -2.3543 0.9660
2.6919 3.0385 -1.1492 0.9833
4.6334 5.6748 -2.0740 0.9700
3.9298 5.6933 -1.9584 0.9717
3.7077 5.8631 -1.9638 0.9716
2.8988 5.5231 -1.7658 0.9744
2.6372 5.5578 -1.7415 0.9748
1.8427 5.5195 -1.6473 0.9761
1.3786 5.5929 -1.6307 0.9763
1.1648 5.7054 -1.6485 0.9761
0.8939 5.4999 -1.5774 0.9771
0.2247 5.5735 -1.5791 0.9771
-0.6412 5.2811 -1.5060 0.9781
-0.8640 5.3165 -1.5248 0.9779
-1.1192 5.4823 -1.5840 0.9770
-1.3042 5.2915 -1.5428 0.9776
-1.5383 5.3110 -1.5653 0.9773
-1.8170 5.4426 -1.6243 0.9764
-3.2177 5.5732 -1.8218 0.9736
-3.9891 5.3086 -1.8798 0.9728
-4.4601 5.4625 -1.9964 0.9711
-4.7140 5.3210 -2.0125 0.9709
-5.1219 5.3324 -2.0931 0.9697
-5.7738 5.5458 -2.2664 0.9673
-6.7143 5.0454 -2.3776 0.9657
-7.0937 4.4858 -2.3760 0.9657
-7.4150 3.8917 -2.3707 0.9658
-7.6918 3.2772 -2.3669 0.9658
-7.8124 2.9629 -2.3654 0.9659
-8.0116 2.3206 -2.3612 0.9659
-8.6459 2.1310 -2.5208 0.9637
-8.7194 1.7801 -2.5193 0.9637
-8.9049 0.3589 -2.5230 0.9636
-8.1534 -0.3286 -2.5098 0.9664
-8.1329 -0.6566 -2.5096 0.9664
-7.9149 -1.9508 -2.5073 0.9665
-7.8261 -2.2669 -2.5061 0.9665
-7.2098 -3.7840 -2.5044 0.9665
-7.0510 -4.0709 -2.5042 0.9665
-6.8808 -4.3511 -2.5040 0.9665
-6.6994 -4.6243 -2.5038 0.9665
-6.0916 -5.3966 -2.5031 0.9665
-5.3936 -6.0881 -2.5017 0.9665
-3.7794 -7.2010 -2.5014 0.9665
-3.4864 -7.3474 -2.5014 0.9665
-3.1877 -7.4818 -2.5014 0.9665
-2.8838 -7.6041 -2.5014 0.9665
-2.5753 -7.7140 -2.5014 0.9665
-1.9462 -7.8962 -2.5014 0.9665
-1.6267 -7.9682 -2.5014 0.9665
-1.3046 -8.0272 -2.5014 0.9665
-0.9803 -8.0732 -2.5014 0.9665
-0.6544 -8.1062 -2.5014 0.9665
-0.3275 -8.1259 -2.5014 0.9665
0.0000 -8.1325 -2.5014 0.9665
0.3275 -8.1259 -2.5014 0.9665
0.6544 -8.1062 -2.5014 0.9665
0.9803 -8.0732 -2.5014 0.9665
1.3046 -8.0272 -2.5014 0.9665
1.9462 -7.8962 -2.5014 0.9665
2.2626 -7.8114 -2.5014 0.9665
3.1877 -7.4818 -2.5014 0.9665
3.4864 -7.3473 -2.5014 0.9665
3.7794 -7.2010 -2.5014 0.9665
4.3466 -6.8735 -2.5014 0.9665
4.6198 -6.6930 -2.5014 0.9665
5.3929 -6.0873 -2.5014 0.9665
5.6336 -5.8652 -2.5014 0.9665
6.0873 -5.3929 -2.5014 0.9665
6.5015 -4.8856 -2.5014 0.9665
6.6929 -4.6198 -2.5014 0.9665
6.8735 -4.3466 -2.5014 0.9665
7.0430 -4.0663 -2.5014 0.9665
7.2010 -3.7794 -2.5014 0.9665
7.3474 -3.4864 -2.5014 0.9665
7.4818 -3.1877 -2.5014 0.9665
7.6041 -2.8838 -2.5014 0.9665
7.8115 -2.2626 -2.5014 0.9665
7.8962 -1.9462 -2.5014 0.9665
7.9271 -0.9625 -2.4561 0.9671
8.1062 -0.6544 -2.5014 0.9665
8.1259 0.3275 -2.5014 0.9665
8.0732 0.9803 -2.5014 0.9665
7.9682 1.6267 -2.5014 0.9665
7.8502 1.9349 -2.4868 0.9667
7.3358 2.1248 -2.3491 0.9685
7.2467 2.4193 -2.3499 0.9685
7.0333 2.9966 -2.3514 0.9685
6.9092 3.2784 -2.3522 0.9685
6.7737 3.5551 -2.3530 0.9685
6.4694 4.0910 -2.3543 0.9685
6.2994 4.3482 -2.357. 0.9685
5.9291 4.8410 -2.3543 0.9685
3.6791 5.8180 -2.1173 0.9716
3.1948 5.5335 -1.9653 0.9736
2.8488 5.4277 -1.8854 0.9747
2.3990 5.6307 -1.8825 0.9747
2.1170 5.5820 -1.8362 0.9753
1.8721 5.6076 -1.8184 0.9756
1.3523 5.4864 -1.7380 0.9766
0.4369 5.4117 -1.6700 0.9775
0.2235 5.5452 -1.7070 0.9770
0.0000 5.5794 -1.7161 0.9769
-0.6540 5.3862 -1.6689 0.9775
-0.8840 5.4400 -1.6952 0.9772
-1.8172 5.4431 -1.7650 0.9763
-2.0781 5.4795 -1.8025 0.9758
-2.4861 5.2393 -1.7837 0.9760
-3.3643 5.3203 -1.9361 0.9740
-3.6718 5.3195 -1.9881 0.9733
-4.0236 5.3545 -2.0601 0.9724
-4.4834 5.4911 -2.1804 0.9708
-5.3024 5.5204 -2.3543 0.9685
-5.7294 5.0758 -2.3543 0.9685
-6.1054 4.5879 -2.3490 0.9685
-6.6186 3.8213 -2.3507 0.9685
-7.0335 2.9967 -2.3515 0.9685
-7.1486 2.7111 -2.3516 0.9685
-7.2516 2.4209 -2.3515 0.9685
-8.0481 1.3079 -2.5079 0.9665
-8.0971 0.9832 -2.5088 0.9664
-8.1323 0.6565 -2.5095 0.9664
-8.1537 0.3286 -2.5099 0.9664
-7.5139 -0.6066 -2.5058 0.9687
-7.4830 -0.9086 -2.5057 0.9687
-7.4399 -1.2091 -2.5055 0.9687
-7.3848 -1.5076 -2.5054 0.9687
-7.1479 -2.3863 -2.5049 0.9687
-7.0455 -2.6720 -2.5047 0.9687
-6.9317 -2.9533 -2.5046 0.9687
-6.5238 -3.7665 -2.5040 0.9687
-6.1986 -4.2786 -2.5036 0.9688
-5.8311 -4.7609 -2.5023 0.9688
-5.4272 -5.2127 -2.5014 0.9688
-4.5207 -6.0159 -2.5014 0.9688
-3.4971 -6.6632 -2.5014 0.9688
-2.9496 -6.9230 -2.5014 0.9688
-2.3830 -7.1379 -2.5014 0.9688
-2.0936 -7.2280 -2.5014 0.9688
-1.8009 -7.3065 -2.5014 0.9688
-1.5052 -7.3730 -2.5014 0.9688
-0.6055 -7.5007 -2.5014 0.9688
1.8009 -7.3065 -2.5014 0.9688
2.6685 -7.0361 -2.5014 0.9688
2.9496 -6.9230 -2.5014 0.9688
3.4971 -6.6632 -2.5014 0.9688
4.2748 -6.1931 -2.5014 0.9688
4.9901 -5.6326 -2.5014 0.9688
5.2128 -5.4271 -2.5014 0.9688
5.4271 -5.2128 -2.5014 0.9688
6.0159 -4.5206 -2.5014 0.9688
6.1931 -4.2748 -2.5014 0.9688
6.5170 -3.7626 -2.5014 0.9688
6.6632 -3.4971 -2.5014 0.9688
6.7986 -3.2260 -2.5014 0.9688
6.9230 -2.9496 -2.5014 0.9688
7.0361 -2.6684 -2.5014 0.9688
7.1379 -2.3830 -2.5014 0.9688
7.2280 -2.0936 -2.5014 0.9688
7.4277 -1.2071 -2.5014 0.9688
7.5007 -0.6055 -2.5014 0.9688
7.5007 0.6055 -2.5014 0.9688
7.3065 1.8009 -2.5014 0.9688
6.7876 1.9661 -2.3490 0.9707
6.7044 2.2382 -2.3495 0.9706
6.5065 2.7722 -2.3509 0.9706
6.3916 3.0328 -2.3516 0.9706
6.1304 3.5394 -2.3530 0.9706
5.9847 3.7845 -2.3537 0.9706
5.8289 4.0234 -2.3543 0.9706
5.6622 4.2549 -2.3543 0.9706
5.4863 4.4794 -2.3543 0.9706
2.7796 2.8939 -1.3338 0.9832
2.6905 3.0369 -1.3487 0.9830
4.2344 5.6349 -2.3430 0.9707
3.9894 5.7796 -2.3344 0.9708
3.3159 5.7431 -2.2044 0.9724
2.8822 5.4915 -2.0616 0.9742
1.8564 5.5604 -1.9486 0.9756
1.1714 5.7378 -1.9466 0.9756
0.4261 5.2779 -1.7601 0.9779
0.2241 5.5591 -1.8494 0.9768
-0.2211 5.4884 -1.8259 0.9771
-0.4386 5.4332 -1.8119 0.9773
-0.6604 5.4395 -1.8214 0.9772
-0.8907 5.4810 -1.8458 0.9769
-1.1124 5.4488 -1.8486 0.9768
-1.3176 5.3456 -1.8301 0.9771
-1.5392 5.3138 -1.8390 0.9770
-1.8370 5.5024 -1.9283 0.9758
-2.1424 5.6491 -2.0083 0.9749
-2.5475 5.3687 -1.9753 0.9753
-3.3996 5.3761 -2.1144 0.9735
-4.2615 5.6711 -2.3580 0.9705
-4.6967 5.3015 -2.3543 0.9706
-5.6622 4.2549 -2.3543 0.9706
-5.8289 4.0234 -2.3543 0.9706
-5.9727 3.7769 -2.3490 0.9707
-6.1199 3.5333 -2.3490 0.9707
-6.3844 3.0294 -2.3490 0.9707
-6.5012 2.7699 -2.3490 0.9707
-6.6074 2.5059 -2.3490 0.9707
-6.7030 2.2378 -2.3490 0.9707
-6.7876 1.9661 -2.3490 0.9707
-6.8628 1.6915 -2.3495 0.9706
-7.3763 1.5059 -2.5025 0.9688
-7.4302 1.2075 -2.5022 0.9688
-7.5307 0.3035 -2.5053 0.9687
-6.9959 0.0000 -2.5018 0.9707
-6.9474 -0.8436 -2.5027 0.9707
-6.9085 -1.1227 -2.5029 0.9707
-6.6398 -2.2167 -2.5033 0.9707
-6.5445 -2.4820 -2.5030 0.9707
-6.3219 -2.9998 -2.5024 0.9707
-6.1950 -3.2514 -2.5020 0.9707
-6.0583 -3.4977 -2.5016 0.9707
-5.4182 -4.4238 -2.5014 0.9707
-4.8455 -5.0447 -2.5014 0.9707
-4.6384 -5.2357 -2.5014 0.9707
-4.4238 -5.4182 -2.5014 0.9707
-4.2021 -5.5919 -2.5014 0.9707
-3.2506 -6.1936 -2.5014 0.9707
-2.9986 -6.3195 -2.5014 0.9707
-2.7417 -6.4351 -2.5014 0.9707
-2.2150 -6.6348 -2.5014 0.9707
-1.6740 -6.7916 -2.5014 0.9707
-1.1221 -6.9042 -2.5014 0.9707
-0.8431 -6.9438 -2.5014 0.9707466.2816 -6.9891 -2.5014 0.9707
0.2817 -6.9891 -2.5014 0.9707
1.3991 -6.8534 -2.5014 0.9707
1.6740 -6.7915 -2.5014 0.9707
1.9461 -6.7186 -2.5014 0.9707
2.4804 -6.5403 -2.5014 0.9707
2.9986 -6.3195 -2.5014 0.9707
3.4974 -6.0577 -2.5014 0.9707
4.4238 -5.4182 -2.5014 0.9707
4.8455 -5.0447 -2.5014 0.9707
5.0447 -4.8455 -2.5014 0.9707
5.4182 -4.4238 -2.5014 0.9707
5.5920 -4.2021 -2.5014 0.9707
5.7566 -3.9735 -2.5014 0.9707
5.9119 -3.7385 -2.5014 0.9707
6.0577 -3.4974 -2.5014 0.9707
6.1936 -3.2507 -2.5014 0.9707
6.3195 -2.9986 -2.5014 0.9707
6.6348 -2.2150 -2.5014 0.9707
6.7186 -1.9461 -2.5014 0.9707
6.9042 -1.1221 -2.5014 0.9707
6.9891 -0.2817 -2.5014 0.9707
6.9948 -0.0000 -2.5014 0.9707
6.9438 0.8431 -2.5014 0.9707
6.9042 1.1220 -2.5014 0.9707
6.8534 1.3991 -2.5014 0.9707
6.7916 1.6740 -2.5014 0.9707
6.4493 1.8681 -2.4011 0.9719
5.4167 3.7388 -2.3537 0.9724
5.2630 3.9549 -2.3543 0.9724
2.6898 3.0361 -1.4505 0.9829
4.1637 5.0997 -2.3543 0.9724
3.9550 5.2632 -2.3543 0.9724
3.7399 5.4182 -2.3543 0.9724
2.9005 5.5264 -2.2319 0.9738
2.6299 5.5423 -2.1938 0.9743
2.1286 5.6125 -2.1466 0.9748
1.8476 5.5341 -2.0864 0.9755
1.1854 5.8062 -2.1192 0.9751
0.6644 5.4718 -1.9711 0.9769
0.2246 5.5720 -1.9942 0.9766
0.0000 5.5971 -2.0016 0.9765
-0.2251 5.5868 -1.9995 0.9765
-0.4431 5.4888 -1.9692 0.9769
-0.6578 5.4174 -1.9516 0.9771
-1.5763 5.4420 -2.0261 0.9762
-1.8315 5.4861 -2.0683 0.9757
-2.1315 5.6202 -2.1495 0.9748
-2.3013 5.4014 -2.0996 0.9754
-3.2725 5.6681 -2.3405 0.9726
-4.1637 5.0997 -2.3543 0.9724
-4.3657 4.9279 -2.3543 0.9724
-4.5606 4.7481 -2.3543 0.9724
-4.9279 4.3657 -2.3543 0.9724
-5.0997 4.1637 -2.3543 0.9724
-5.2632 3.9550 -2.3543 0.9724
-5.5638 3.5183 -2.3541 0.9724
-5.8258 3.0576 -2.3529 0.9724
-6.0430 2.5747 -2.3490 0.9725
-6.1418 2.3293 -2.3490 0.9725
-6.3778 1.5720 -2.3490 0.9725
-6.9722 0.5629 -2.5014 0.9707
-3.5504 0.0000 -1.3606 0.9849
-3.5589 -0.1434 -1.3649 0.9849
-3.5687 -0.2881 -1.3720 0.9848
-3.5921 -0.4362 -1.3867 0.9846
-6.4428 -1.0471 -2.5014 0.9724
-6.2696 -1.8160 -2.5014 0.9724
-6.1914 -2.0670 -2.5014 0.9724
-6.1032 -2.3146 -2.5014 0.9724
-6.0050 -2.5586 -2.5014 0.9724
-5.8971 -2.7982 -2.5014 0.9724
-5.7797 -3.0334 -2.5014 0.9724
-5.6528 -3.2637 -2.5014 0.9724
-5.2182 -3.9212 -2.5014 0.9724
-5.0561 -4.1282 -2.5014 0.9724
-4.8858 -4.3284 -2.5014 0.9724
-4.5217 -4.7075 -2.5014 0.9724
-4.3284 -4.8858 -2.5014 0.9724
-3.7080 -5.3719 -2.5014 0.9724
-3.4886 -5.5168 -2.5014 0.9724
-2.3146 -6.1032 -2.5014 0.9724
-2.0670 -6.1914 -2.5014 0.9724
-1.8160 -6.2696 -2.5014 0.9724
-1.5621 -6.3377 -2.5014 0.9724
-1.3056 -6.3954 -2.5014 0.9724
-1.0471 -6.4428 -2.5014 0.9724
-0.7868 -6.4797 -2.5014 0.9724
-0.2628 -6.5220 -2.5014 0.9724
2.3146 -6.1032 -2.5014 0.9724
2.5585 -6.0050 -2.5014 0.9724
2.7982 -5.8971 -2.5014 0.9724
3.0334 -5.7797 -2.5014 0.9724
3.4886 -5.5169 -2.5014 0.9724
4.1282 -5.0561 -2.5014 0.9724
4.3284 -4.8858 -2.5014 0.9724
4.7075 -4.5216 -2.5014 0.9724
5.0561 -4.1282 -2.5014 0.9724
5.2182 -3.9212 -2.5014 0.9724
5.5168 -3.4887 -2.5014 0.9724
5.7797 -3.0334 -2.5014 0.9724
5.8971 -2.7982 -2.5014 0.9724
6.0050 -2.5585 -2.5014 0.9724
6.1914 -2.0670 -2.5014 0.9724
6.4428 -1.0471 -2.5014 0.9724
6.4797 -0.7868 -2.5014 0.9724
6.5062 -0.5252 -2.5014 0.9724
6.5062 0.5252 -2.5014 0.9724
6.4798 0.7868 -2.5014 0.9724
6.2696 1.8160 -2.5014 0.9724
5.8142 1.9411 -2.3490 0.9741
5.6418 2.4037 -2.3501 0.9741
5.5419 2.6296 -2.3507 0.9741
5.4329 2.8514 -2.3513 0.9741
5.0533 3.4880 -2.3531 0.9740
4.7585 3.8852 -2.3542 0.9740
4.5985 4.0739 -2.3543 0.9740
2.9452 2.8289 -1.5649 0.9827
2.6891 3.0353 -1.5540 0.9828
3.8855 4.7588 -2.3543 0.9740
3.6907 4.9114 -2.3543 0.9740
3.0718 5.3205 -2.3543 0.9740
2.6337 5.5504 -2.3543 0.9740
2.4081 5.6520 -2.3543 0.9740
2.1785 5.7443 -2.3543 0.9740
1.8454 5.5276 -2.2332 0.9753
1.3460 5.4610 -2.1554 0.9762
0.6581 5.4194 -2.0921 0.9769
-0.4418 5.4732 -2.1042 0.9768
-0.6549 5.3935 -2.0821 0.9770
-1.1240 5.5055 -2.1533 0.9762
-1.3280 5.3881 -2.1266 0.9765
-1.5679 5.4131 -2.1597 0.9761
-2.1696 5.7207 -2.3446 0.9741
-2.5602 5.3955 -2.2886 0.9747
-3.0718 5.3205 -2.3543 0.9740
-3.2835 5.1925 -2.3543 0.97439183.4900 5.0561 -2.3543 0.9740
-3.8855 4.7588 -2.3543 0.9740
-4.0739 4.5985 -2.3543 0.9740
-4.4308 4.2558 -2.3543 0.9740
-4.7588 3.8855 -2.3543 0.9740
-5.0553 3.4895 -2.3540 0.9740
-5.4352 2.8526 -2.3523 0.9740
-5.5443 2.6308 -2.3517 0.9741
-5.6443 2.4048 -2.3511 0.9741
-5.7350 2.1750 -2.3505 0.9741
-5.9515 1.4669 -2.3490 0.9741
-6.3954 1.3056 -2.5014 0.9724
-3.5921 0.4362 -1.3867 0.9846
-3.5589 0.1434 -1.3649 0.9849
-2.8096 -0.2268 -1.1536 0.9879
-2.9323 -0.3560 -1.2089 0.9873
-3.0246 -0.4915 -1.2541 0.9868
-3.0070 -0.6139 -1.2561 0.9868
-5.7972 -1.9354 -2.5014 0.9739
-5.6227 -2.3956 -2.5014 0.9739
-5.4117 -2.8403 -2.5014 0.9739
-5.2930 -3.0559 -2.5014 0.9739
-5.0299 -3.4719 -2.5014 0.9739
-4.7342 -3.8654 -2.5014 0.9739
-4.5747 -4.0529 -2.5014 0.9739
-4.0529 -4.5747 -2.5014 0.9739
-3.8654 -4.7342 -2.5014 0.9739
-3.6716 -4.8860 -2.5014 0.9739
-3.4719 -5.0299 -2.5014 0.9739
-3.0559 -5.2929 -2.5014 0.9739
-1.9354 -5.7972 -2.5014 0.9739
-1.2225 -5.9883 -2.5014 0.9739
-0.9804 -6.0326 -2.5014 0.9739
-0.7367 -6.0672 -2.5014 0.9739
-0.4918 -6.0920 -2.5014 0.9739
-0.2461 -6.1068 -2.5014 0.9739
0.0000 -6.1118 -2.5014 0.9739
0.2461 -6.1068 -2.5014 0.9739
0.4918 -6.0920 -2.5014 0.9739
1.4626 -5.9342 -2.5014 0.9739
1.9354 -5.7972 -2.5014 0.9739
2.1673 -5.7146 -2.5014 0.9739
2.3956 -5.6227 -2.5014 0.9739
2.6201 -5.5217 -2.5014 0.9739
3.0559 -5.2929 -2.5014 0.9739
3.4719 -5.0299 -2.5014 0.9739
3.8654 -4.7342 -2.5014 0.9739
4.0529 -4.5747 -2.5014 0.9739
4.2338 -4.4078 -2.5014 0.9739
4.4078 -4.2338 -2.5014 0.9739
4.5747 -4.0529 -2.5014 0.9739
5.0299 -3.4719 -2.5014 0.9739
5.1656 -3.2665 -2.5014 0.9739
5.2929 -3.0559 -2.5014 0.9739
5.5217 -2.6201 -2.5014 0.9739
5.6227 -2.3956 -2.5014 0.9739
5.7146 -2.1673 -2.5014 0.9739
5.7972 -1.9354 -2.5014 0.9739
5.8705 -1.7004 -2.5014 0.9739
5.9883 -1.2225 -2.5014 0.9739
6.0326 -0.9804 -2.5014 0.9739
6.0672 -0.7367 -2.5014 0.9739
6.0920 -0.4918 -2.5014 0.9739
6.1068 0.2461 -2.5014 0.9739
6.0920 0.4918 -2.5014 0.9739
6.0672 0.7367 -2.5014 0.9739
6.0326 0.9804 -2.5014 0.9739
5.9883 1.2225 -2.5014 0.9739
5.0860 2.6694 -2.3509 0.9755
4.8570 3.0714 -2.3520 0.9755
4.7305 3.2652 -2.3525 0.9755
4.3052 3.8141 -2.3540 0.9754
2.7774 2.8916 -1.6410 0.9828
3.2678 4.7342 -2.3543 0.9754
3.0745 4.8619 -2.3543 0.9754
2.8762 4.9817 -2.3543 0.9754
2.6733 5.0935 -2.3543 0.9754
2.2548 5.2921 -2.3543 0.9754
2.0398 5.3786 -2.3543 0.9754
1.5967 5.5122 -2.3487 0.9755
1.1506 5.6362 -2.3543 0.9754
0.6577 5.4159 -2.2329 0.9767
-0.6619 5.4515 -2.2476 0.9765
-1.8216 5.4564 -2.3543 0.9754
-2.0398 5.3786 -2.3543 0.9754
-2.2548 5.2921 -2.3543 0.9754
-2.4660 5.1970 -2.3543 0.9754
-2.6733 5.0935 -2.3543 0.9754
-3.2678 4.7342 -2.3543 0.9754
-3.6381 4.4559 -2.3543 0.9754
-3.8146 4.3058 -2.3543 0.9754
-4.4559 3.6381 -2.3543 0.9754
-4.5979 3.4551 -2.3539 0.9754
-4.7323 3.2665 -2.3534 0.9755
-4.9776 2.8738 -2.3523 0.9755
-5.1903 2.4628 -2.3513 0.9755
-5.2840 2.2513 -2.3507 0.9755
-5.3690 2.0362 -2.3501 0.9755
-5.5285 1.6014 -2.3557 0.9754
-5.7761 1.4237 -2.4348 0.9746
-3.0070 0.6139 -1.2561 0.9868
-3.0246 0.4915 -1.2541 0.9868
-2.9323 0.3560 -1.2089 0.9873
-2.3650 0.0000 -1.0307 0.9897
-2.3670 -0.0954 -1.0324 0.9897
-5.5728 -1.3736 -2.5014 0.9753
-5.5130 -1.5968 -2.5014 0.9753
-5.4442 -1.8175 -2.5014 0.9753
-5.3666 -2.0353 -2.5014 0.9753
-5.2803 -2.2497 -2.5014 0.9753
-5.1854 -2.4605 -2.5014 0.9753
-4.9706 -2.8698 -2.5014 0.9753
-4.8510 -3.0676 -2.5014 0.9753
-4.7236 -3.2604 -2.5014 0.9753
-4.2961 -3.8060 -2.5014 0.9753
-4.1394 -3.9759 -2.5014 0.9753
-3.9759 -4.1394 -2.5014 0.9753
-3.4480 -4.5884 -2.5014 0.9753
-2.6673 -5.0821 -2.5014 0.9753
-2.4605 -5.1854 -2.5014 0.9753
-2.2497 -5.2803 -2.5014 0.9753
-1.8175 -5.4442 -2.5014 0.9753
-1.5968 -5.5129 -2.5014 0.9753
-1.1481 -5.6236 -2.5014 0.9753
-0.9207 -5.6652 -2.5014 0.9753
0.0000 -5.7396 -2.5014 0.9753
0.9207 -5.6652 -2.5014 0.9753
1.1481 -5.6236 -2.5014 0.9753
1.3736 -5.5728 -2.5014 0.9753
2.0353 -5.3666 -2.5014 0.9753
2.2497 -5.2803 -2.5014 0.9753
2.6673 -5.0821 -2.5014 0.9753
3.0676 -4.8510 -2.5014 0.9753
3.4480 -4.5884 -2.5014 0.9753
3.8060 -4.2961 -2.5014 0.9753
3.9759 -4.1394 -2.501-20.9753
4.4459 -3.6300 -2.5014 0.9753
4.7236 -3.2604 -2.5014 0.9753
4.8510 -3.0676 -2.5014 0.9753
4.9706 -2.8698 -2.5014 0.9753
5.0821 -2.6673 -2.5014 0.9753
5.1854 -2.4605 -2.5014 0.9753
5.3666 -2.0353 -2.5014 0.9753
5.4442 -1.8175 -2.5014 0.9753
5.5129 -1.5969 -2.5014 0.9753
5.5728 -1.3736 -2.5014 0.9753
5.6236 -1.1481 -2.5014 0.9753
5.7349 0.2311 -2.5014 0.9753
5.7209 0.4618 -2.5014 0.9753
5.6652 0.9207 -2.5014 0.9753
5.6236 1.1481 -2.5014 0.9753
5.5728 1.3736 -2.5014 0.9753
4.9594 2.1130 -2.3494 0.9768
4.7755 2.5064 -2.3505 0.9767
4.5603 2.8838 -2.3515 0.9767
4.4415 3.0657 -2.3520 0.9767
4.1821 3.4146 -2.3530 0.9767
2.7767 2.8908 -1.7469 0.9827
2.6876 3.0337 -1.7663 0.9825
3.4165 4.1845 -2.3543 0.9767
3.2453 4.3187 -2.3543 0.9767
3.0687 4.4458 -2.3543 0.9767
2.8872 4.5658 -2.3543 0.9767
2.5105 4.7833 -2.3543 0.9767
1.7107 5.1241 -2.3543 0.9767
1.2928 5.2451 -2.3543 0.9767
0.6512 5.3627 -2.3543 0.9767
0.4347 5.3846 -2.3543 0.9767
0.2175 5.3977 -2.3543 0.9767
-0.2175 5.3977 -2.3543 0.9767
-0.4347 5.3846 -2.3543 0.9767
-0.6511 5.3627 -2.3543 0.9767
