ply
format ascii 1.0
element vertex 1574
property float32 x
property float32 y
property float32 z
property float32 I
end_header
-3.0056 -14.7222 0.5925 0.9416
-1.7771 -14.6359 0.5813 0.9427
-1.1781 -14.5939 0.5773 0.9431
-0.5864 -14.5523 0.5743 0.9434
0.0000 -14.5112 0.5722 0.9436
0.5831 -14.4702 0.5710 0.9437
1.1649 -14.4294 0.5708 0.9437
4.1195 -14.2220 0.5838 0.9425
15.8116 -30.1265 1.3416 0.8727
16.0354 -27.7742 1.2646 0.8795
15.2873 -22.1475 1.0611 0.8979
14.9143 -16.8348 0.8868 0.9139
13.0405 -13.5766 0.7423 0.9274
15.4680 -14.8572 0.8457 0.9177
19.6625 -14.7754 0.9698 0.9062
25.4731 -14.7069 1.1598 0.8889
26.1111 -13.7042 1.1628 0.8887
37.2755 -12.4444 1.5496 0.8544
38.1821 -11.0596 1.5674 0.8529
29.8309 -7.3527 1.2115 0.8843
46.0055 -9.3921 1.8515 0.8286
32.7637 -3.9783 1.3014 0.8762
20.8710 5.1442 0.8476 0.9175
21.2333 6.1503 0.8717 0.9153
43.9658 18.7321 1.8844 0.8259
34.6724 20.0181 1.5787 0.8519
33.2971 21.0557 1.5534 0.8541
32.7453 22.6024 1.5689 0.8528
21.7950 17.7951 1.1095 0.8935
18.2670 17.5457 0.9987 0.9036
16.5103 18.6363 0.9817 0.9051
2.3328 3.1044 0.1531 0.9846
13.1326 20.7675 0.9689 0.9063
6.2769 10.8717 0.4950 0.9510
5.0063 9.5387 0.4248 0.9578
4.4666 10.4835 0.4493 0.9554
4.0573 10.6980 0.4512 0.9552
2.5228 10.2352 0.4157 0.9587
2.6736 16.4510 0.6572 0.9355
1.9917 16.4031 0.6515 0.9360
1.4426 17.8693 0.7069 0.9307
0.0000 17.7715 0.7007 0.9313
-0.3297 8.1824 0.3229 0.9678
-0.6562 8.1291 0.3216 0.9679
-1.7153 8.4023 0.3381 0.9663
-2.0814 8.4448 0.3430 0.9658
-34.8363 28.4430 1.7733 0.8352
-41.4040 21.7305 1.8438 0.8293
-39.8834 16.9927 1.7094 0.8407
-40.5096 15.3633 1.7083 0.8408
-40.0430 8.1748 1.6115 0.8491
-39.0248 4.7385 1.5501 0.8544
-37.8334 1.5247 1.4930 0.8594
-41.7290 -6.7817 0.7141 0.8444
-41.0390 -8.3782 0.7075 0.8457
-31.7958 -7.8370 0.5532 0.8772
-30.0280 -24.5171 0.6548 0.8563
-32.0870 -28.4266 0.7241 0.8424
-1.7771 -14.6359 0.2490 0.9427
-1.1781 -14.5939 0.2473 0.9431
0.0000 -14.5112 0.2451 0.9436
1.1649 -14.4294 0.2445 0.9437
1.7471 -14.3885 0.2448 0.9437
3.5159 -14.2643 0.2482 0.9429
4.1195 -14.2220 0.2501 0.9425
15.3265 -26.5463 0.5178 0.8846
14.8536 -19.7666 0.4177 0.9058
13.0577 -13.5945 0.3184 0.9274
16.3658 -13.3622 0.3569 0.9189
17.6609 -13.2713 0.3732 0.9154
20.6546 -13.0611 0.4128 0.9069
25.4731 -14.7069 0.4969 0.8890
33.5572 -12.7265 0.6062 0.8663
41.8637 -12.1260 0.7362 0.8400
29.8207 -7.3502 0.5188 0.8844
24.0850 1.9444 0.4082 0.9079
23.0125 5.6721 0.4004 0.9095
21.3502 8.0971 0.3857 0.9127
37.4343 23.6720 0.7482 0.8376
32.8876 22.7007 0.6750 0.8523
23.6559 17.7763 0.4998 0.8884
16.7506 17.4392 0.4085 0.9078
16.5070 18.6326 0.4205 0.9052
2.5312 3.1001 0.0676 0.9841
6.4916 10.2656 0.2052 0.9526
3.8464 10.1421 0.1832 0.9575
3.4635 10.3744 0.1848 0.9572
2.9083 10.0403 0.1766 0.9590
2.2856 11.1954 0.1930 0.9553
1.9917 16.4031 0.2791 0.9360
0.0001 8.3712 0.1414 0.9671
-1.6914 8.2852 0.1428 0.9667
-2.4864 8.5843 0.1510 0.9649
-33.3597 29.5541 0.7528 0.8367
-3.1703 2.3823 0.0670 0.9843
-39.1411 20.5429 0.7467 0.8379
-39.3216 18.6583 0.7352 0.8402
-39.2713 16.7319 0.7211 0.8430
-47.1903 11.6314 0.8210 0.8233
-40.8584 6.6401 0.6992 0.8474
-32.6388 -8.0448 -0.1893 0.8742
-31.7088 -9.1846 -0.1859 0.8763
-31.9795 -28.3313 -0.2405 0.8429
-6.4153 -15.0572 -0.0921 0.9366
-3.0056 -14.7222 -0.0846 0.9417
-1.8234 -11.2197 -0.0640 0.9556
-1.1781 -14.5939 -0.0824 0.9431
0.0000 -14.5112 -0.0817 0.9436
1.1649 -14.4294 -0.0815 0.9437
1.7471 -14.3885 -0.0816 0.9437
2.9206 -14.3061 -0.0822 0.9433
3.5159 -14.2643 -0.0827 0.9429
4.1195 -14.2220 -0.0834 0.9425
15.9756 -30.4390 -0.1935 0.8715
15.5651 -26.9595 -0.1753 0.8829
15.5669 -24.6171 -0.1640 0.8900
15.4055 -22.3188 -0.1527 0.8972
15.0297 -16.9650 -0.1276 0.9133
14.0787 -13.5228 -0.1099 0.9249
16.3658 -13.3622 -0.1190 0.9190
17.6609 -13.2713 -0.1244 0.9154
19.0823 -13.1715 -0.1305 0.9114
26.1111 -13.7042 -0.1660 0.8887
30.3826 -14.4167 -0.1893 0.8741
33.5572 -12.7265 -0.2021 0.8663
37.4306 -12.4962 -0.2222 0.8540
41.8370 -12.1182 -0.2452 0.8401
29.8107 -7.3477 -0.1729 0.8844
46.3504 -9.4625 -0.2663 0.8276
42.6936 18.1900 -0.2613 0.8306
42.7951 20.3065 -0.2667 0.8274
22.7166 18.5475 -0.1651 0.8893
16.5053 18.6306 -0.1401 0.9052
2.5304 3.0992 -0.0225 0.9841
2.3317 3.1029 -0.0219 0.9846
6.1370 9.7048 -0.0646 0.9551
5.7738 10.0005 -0.0650 0.9549
5.3842 10.2586 -0.0652 0.9547
4.9144 10.3567 -0.0645 0.9552
2.7266 9.4133 -0.0552 0.9616
2.5503 10.3468 -0.0600 0.9583
2.1510 10.5363 -0.0605 0.9579
1.5057 12.4001 -0.0703 0.9513
1.4418 17.8593 -0.1009 0.9308
-0.9440 7.7754 -0.0441 0.9692
-2.0356 8.2590 -0.0479 0.9665
-39.5019 20.7322 -0.2512 0.8366
-40.0316 18.9952 -0.2495 0.8376
-40.0029 17.0436 -0.2448 0.8404
-41.2834 10.1755 -0.2394 0.8436
-40.3002 6.5494 -0.2299 0.8493
-35.9801 -7.3454 -1.0340 0.8633
-32.4655 -8.0021 -0.9415 0.8748
-32.8503 -10.9671 -0.9752 0.8706
-33.9299 -23.4201 -1.1609 0.8479
-6.4145 -15.0554 -0.4608 0.9366
-1.8230 -11.2171 -0.3200 0.9555
-1.7771 -14.6359 -0.4151 0.9427
0.0000 -14.5112 -0.4086 0.9436
0.5831 -14.4702 -0.4078 0.9437
1.1649 -14.4294 -0.4076 0.9437
1.7471 -14.3885 -0.4081 0.9437
4.1195 -14.2220 -0.4169 0.9425
11.3683 -34.0523 -1.0109 0.8662
12.8742 -33.9466 -1.0223 0.8648
14.4171 -33.8383 -1.0357 0.8631
16.0057 -33.7314 -1.0513 0.8612
15.9756 -30.4390 -0.9680 0.8715
15.5669 -24.6170 -0.8201 0.8900
15.4055 -22.3187 -0.7636 0.8972
15.1309 -20.1356 -0.7092 0.9041
15.1405 -18.5437 -0.6741 0.9086
15.0297 -16.9650 -0.6382 0.9133
13.0577 -13.5945 -0.5308 0.9273
14.0787 -13.5228 -0.5497 0.9249
16.3658 -13.3622 -0.5949 0.9189
17.6609 -13.2713 -0.6220 0.9154
19.0823 -13.1715 -0.6529 0.9114
25.4731 -14.7069 -0.8282 0.8890
26.1111 -13.7042 -0.8303 0.8887
28.9725 -13.7476 -0.9030 0.8796
33.5598 -12.7275 -1.0106 0.8662
37.3354 -12.4644 -1.1083 0.8543
40.7519 -11.8039 -1.1946 0.8439
24.7286 8.2556 -0.7341 0.9009
20.3429 7.7150 -0.6126 0.9166
15.0325 7.1330 -0.4685 0.9356
13.5575 7.1155 -0.4311 0.9406
18.6749 17.9375 -0.7291 0.9016
17.5662 18.2883 -0.7140 0.9035
2.5296 3.0982 -0.1126 0.9841
2.3311 3.1022 -0.1093 0.9846
2.2373 3.2412 -0.1109 0.9844
5.6109 8.8729 -0.2956 0.9589
5.2976 9.1757 -0.2983 0.9585
4.9582 10.4491 -0.3257 0.9548
4.5676 10.7204 -0.3281 0.9544
4.1531 10.9508 -0.3298 0.9542
3.3442 11.5452 -0.3385 0.9530
3.5325 17.3032 -0.4973 0.9318
1.4532 18.0009 -0.5085 0.9303
0.7460 18.5104 -0.5216 0.9285
-0.9429 7.7659 -0.2203 0.9692
-2.8815 8.6312 -0.2562 0.9642
-6.9806 16.3839 -0.5015 0.9312
-7.0853 13.5000 -0.4293 0.9408
-3.1703 2.3824 -0.1117 0.9843
-4.8060 3.3173 -0.1644 0.9769
-42.3507 20.0956 -1.3199 0.8290
-39.7499 6.4600 -1.1340 0.8512
-48.3446 -3.9028 -2.4597 0.8234
-48.1476 -5.8462 -2.4597 0.8234
-47.8666 -7.7791 -2.4594 0.8235
-28.3178 -5.7811 -1.4657 0.8907
-28.1204 -8.1452 -1.4847 0.8894
-45.2248 -17.1515 -2.4529 0.8239
-27.8175 -11.8519 -1.5335 0.8859
-27.7198 -14.5485 -1.5876 0.8822
-27.5605 -22.5025 -1.8044 0.8672
-27.4723 -26.3875 -1.9318 0.8585
-32.9113 -34.2643 -2.4094 0.8267
-29.7752 -36.4680 -2.3876 0.8282
-26.7442 -38.7456 -2.3876 0.8282
-6.4137 -15.0536 -0.8298 0.9366
-3.6397 -14.7667 -0.7713 0.9409
-1.8225 -11.2145 -0.5762 0.9555
-1.7771 -14.6359 -0.7477 0.9427
-0.5864 -14.5523 -0.7386 0.9433
0.5831 -14.4702 -0.7344 0.9436
1.1649 -14.4294 -0.7342 0.9437
2.3317 -14.3475 -0.7372 0.9434
2.9206 -14.3061 -0.7405 0.9432
11.3683 -34.0523 -1.8206 0.8661
12.8742 -33.9466 -1.8412 0.8647
14.4171 -33.8383 -1.8653 0.8630
15.9756 -30.4390 -1.7434 0.8714
15.5651 -26.9595 -1.5787 0.8828
15.5669 -24.6171 -1.4771 0.8899
15.4055 -22.3188 -1.3753 0.8971
15.1309 -20.1356 -1.2774 0.9040
15.1405 -18.5437 -1.2141 0.9086
13.0577 -13.5945 -0.9560 0.9273
16.3658 -13.3622 -1.0715 0.9189
17.6609 -13.2713 -1.1204 0.9153
25.4731 -14.7069 -1.4917 0.8889
28.9723 -13.7475 -1.6263 0.8795
28.6941 -12.2254 -1.5818 0.8826
37.4306 -12.4961 -2.0013 0.8538
40.7518 -11.8039 -2.1516 0.8437
45.8849 -7.4570 -2.3575 0.8301
46.1832 -3.7283 -2.3498 0.8306
49.2833 -1.9860 -2.5014 0.8207
49.3233 -0.0000 -2.5014 0.8207
49.2833 1.9861 -2.5014 0.8207
49.1634 3.9689 -2.5014 0.8207
48.9637 5.9453 -2.5014 0.8207
43.3274 8.8454 -2.2426 0.8377
22.9813 5.6644 -1.2004 0.9096
34.9500 10.1234 -1.8453 0.8644
24.8446 8.2943 -1.3283 0.9004
19.4010 7.3578 -1.0523 0.9203
15.9372 6.7902 -0.8785 0.9330
13.8324 6.5636 -0.7765 0.9405
12.6189 6.6229 -0.7228 0.9445
11.1370 6.4300 -0.6522 0.9498
9.1159 6.2922 -0.5617 0.9566
8.3594 6.2817 -0.5303 0.9590
7.8765 6.4310 -0.5157 0.9601
5.7442 6.4837 -0.4393 0.9659
2.5288 3.0973 -0.2028 0.9841
2.3306 3.1014 -0.1967 0.9846
2.2367 3.2404 -0.1997 0.9844
6.7462 10.6681 -0.6401 0.9507
4.0023 10.5531 -0.5724 0.9558
3.5658 10.6808 -0.5711 0.9559
3.0394 10.4933 -0.5540 0.9572
1.9897 9.7462 -0.5045 0.9609
2.1936 13.4978 -0.6935 0.9467
1.6865 13.8890 -0.7095 0.9455
0.0001 8.1897 -0.4153 0.9677
-0.6315 7.8237 -0.3981 0.9691
-0.9459 7.7911 -0.3980 0.9691
-1.6544 8.1042 -0.4195 0.9674
-2.0353 8.2580 -0.4313 0.9665
-2.4477 8.4508 -0.4462 0.9654
-2.9013 8.6905 -0.4646 0.9640
-6.8624 16.1065 -0.8879 0.9323
-6.6922 11.5912 -0.6788 0.9478
-6.4156 10.1455 -0.6088 0.9531
-6.6518 8.8520 -0.5615 0.9566
-6.6256 7.4787 -0.5067 0.9608
-3.1703 2.3824 -0.2011 0.9842
-41.2697 23.8271 -2.4167 0.8262
-24.3133 11.5368 -1.3648 0.8978
-24.7543 10.5468 -1.3646 0.8978
-29.8897 11.3356 -1.6212 0.8798
-45.5146 15.1950 -2.4335 0.8252
-46.1568 13.3695 -2.4370 0.8249
-29.1119 3.5348 -1.4872 0.8892
-28.8453 -2.3286 -2.1219 0.8904
-28.4150 -4.6179 -2.1108 0.8910
-30.5713 -11.5942 -2.3973 0.8771
-27.0432 -12.8322 -2.1948 0.8869
-27.7180 -14.5475 -2.2953 0.8820
-27.5307 -17.4094 -2.3884 0.8775
-26.8066 -18.5033 -2.3883 0.8775
-24.4454 -21.6568 -2.3946 0.8772
-24.2650 -23.3069 -2.4669 0.8738
-23.9970 -24.9834 -2.5400 0.8703
-21.9088 -26.8334 -2.5400 0.8703
-18.5147 -29.2786 -2.5400 0.8703
-16.0987 -30.6735 -2.5400 0.8703
-14.8505 -31.2968 -2.5400 0.8703
-6.4129 -15.0517 -1.1996 0.9365
-10.9698 -32.8587 -2.5400 0.8703
-3.6397 -14.7667 -1.1151 0.9408
-1.8221 -11.2119 -0.8329 0.9555
-1.1781 -14.5939 -1.0735 0.9430
-0.5864 -14.5523 -1.0679 0.9433
0.0000 -14.5112 -1.0640 0.9435
0.5831 -14.4702 -1.0618 0.9436
1.7471 -14.3885 -1.0627 0.9435
4.1195 -14.2220 -1.0856 0.9423
10.2811 -30.7957 -2.3805 0.8779
12.7208 -29.8567 -2.3796 0.8780
15.5669 -24.6170 -2.1356 0.8897
15.4055 -22.3187 -1.9884 0.8969
13.0577 -13.5945 -1.3821 0.9272
15.1770 -13.4457 -1.4867 0.9219
16.3658 -13.3622 -1.5491 0.9188
17.6609 -13.2713 -1.6198 0.9152
25.4731 -14.7069 -2.1567 0.8887
26.1111 -13.7042 -2.1622 0.8885
28.9721 -13.7474 -2.3513 0.8793
30.0850 -11.4097 -2.3592 0.8789
30.4953 -10.1808 -2.3573 0.8790
33.6733 -5.4725 -2.5014 0.8721
34.0045 -2.7451 -2.5014 0.8721
34.0875 -1.3737 -2.5014 0.8721
34.1152 -0.0000 -2.5014 0.8721
33.8664 4.1121 -2.5014 0.8721
31.4023 6.4108 -2.3500 0.8794
30.8416 8.9334 -2.3543 0.8792
25.3046 8.4479 -1.9561 0.8985
13.8139 6.5548 -1.1211 0.9405
11.0716 6.3922 -0.9374 0.9500
8.2008 6.1625 -0.7521 0.9597
7.7011 6.2877 -0.7290 0.9609
6.4445 6.1900 -0.6552 0.9648
5.4358 6.1357 -0.6010 0.9677
2.5281 3.0963 -0.2931 0.9841
2.2362 3.2397 -0.2886 0.9843
3.8169 6.0359 -0.5236 0.9718
3.5150 6.0881 -0.5154 0.9722
3.2888 6.2662 -0.5189 0.9720
2.9714 6.2620 -0.5082 0.9726
2.2823 6.0178 -0.4719 0.9745
3.4158 10.2314 -0.7909 0.9577
1.2400 6.0738 -0.4545 0.9754
0.9991 6.1477 -0.4567 0.9753
2.0887 17.2018 -1.2705 0.9329
0.0000 6.1092 -0.4479 0.9758
-0.2423 6.0127 -0.4412 0.9762
-0.7568 6.2329 -0.4604 0.9751
-0.9594 5.9035 -0.4385 0.9763
-1.2312 6.0310 -0.4513 0.9756
-1.7873 6.1707 -0.4710 0.9746
-2.1281 5.6114 -0.4400 0.9762
-2.6907 6.3152 -0.5033 0.9728
-3.6187 5.7225 -0.4964 0.9732
-3.9319 5.6963 -0.5075 0.9726
-4.0359 5.3708 -0.4926 0.9734
-4.5233 5.5400 -0.5244 0.9717
-5.0264 5.6736 -0.5558 0.9701
-5.4781 5.2617 -0.5569 0.9700
-6.3364 5.6135 -0.6207 0.9666
-6.4655 5.2789 -0.6120 0.9671
-3.1703 2.3824 -0.2908 0.9842
-4.8060 3.3173 -0.4282 0.9769
-24.1747 10.2999 -1.9267 0.9000
-30.9442 10.3307 -2.3920 0.8774
-31.3604 9.0837 -2.3939 0.8773
-29.3766 5.9973 -2.1983 0.8867
-29.2331 4.7509 -2.1716 0.8880
-28.8980 1.1646 -2.1206 0.8905
-26.4568 -0.0000 -2.5400 0.8991
-26.4123 -1.0644 -2.5378 0.8992
-26.1034 -4.2422 -2.5389 0.8992
-24.7375 -9.3817 -2.5400 0.8991
-24.3397 -10.3702 -2.5400 0.8991
-23.9024 -11.3418 -2.5400 0.8991
-23.4263 -12.2951 -2.5400 0.8991
-21.7735 -15.0292 -2.5400 0.8991
-21.1507 -15.8938 -2.5400 0.8991
-19.0807 -18.3273 -2.5400 0.8991
-17.5441 -19.8032 -2.5400 0.8991
-15.0292 -21.7735 -2.5400 0.8991
-13.2284 -22.9122 -2.5400 0.8991
-9.3817 -24.7375 -2.5400 0.8991
-1.8217 -11.2093 -1.0903 0.9554
-1.7771 -14.6359 -1.4154 0.9425
-1.1781 -14.5939 -1.4056 0.9429
0.0000 -14.5112 -1.3931 0.9434
1.1649 -14.4294 -1.3898 0.9435
1.7471 -14.3885 -1.3915 0.9434
2.3317 -14.3475 -1.3955 0.9433
3.5159 -14.2643 -1.4104 0.9427
4.1195 -14.2220 -1.4215 0.9422
9.6788 -22.7163 -2.3706 0.9055
11.4710 -21.8562 -2.3698 0.9056
12.3392 -21.3720 -2.3692 0.9056
14.0120 -20.2998 -2.3681 0.9056
14.8140 -19.7137 -2.3674 0.9057
13.0577 -13.5945 -1.8097 0.9271
21.7403 -11.4102 -2.3572 0.9060
22.5487 -9.6071 -2.3531 0.9062
23.2082 -7.7480 -2.3490 0.9064
25.5283 -5.2116 -2.5014 0.9006
25.7174 -4.1795 -2.5014 0.9006
10.7877 -0.8709 -1.0390 0.9574
26.0548 0.0000 -2.5014 0.9006
25.9703 2.0965 -2.5014 0.9006
25.7174 4.1795 -2.5014 0.9006
23.9774 4.8950 -2.3494 0.9063
23.2609 7.7657 -2.3543 0.9062
16.3400 6.9618 -1.7052 0.9311
13.8341 6.5643 -1.4701 0.9403
12.5524 6.5880 -1.3610 0.9446
11.0897 6.4026 -1.2294 0.9498
9.6223 6.0848 -1.0930 0.9553
7.7448 6.3234 -0.9599 0.9606
6.6329 5.8763 -0.8507 0.9650
6.3903 6.1380 -0.8507 0.9650
5.5813 5.8107 -0.7735 0.9681
5.3285 6.0146 -0.7714 0.9682
2.5273 3.0954 -0.3836 0.9841
2.2356 3.2389 -0.3778 0.9843
3.7378 5.9108 -0.6714 0.9723
3.4533 5.9813 -0.6631 0.9726
3.1758 6.0509 -0.6561 0.9729
2.8485 6.0029 -0.6379 0.9737
2.1580 5.6900 -0.5842 0.9758
1.9809 5.9334 -0.6005 0.9752
0.7222 5.9477 -0.5752 0.9762
0.4774 5.9126 -0.5695 0.9764
0.2388 5.9233 -0.5691 0.9765
0.0000 5.5814 -0.5358 0.9778
-0.4843 5.9998 -0.5779 0.9761
-0.9229 5.6792 -0.5524 0.9771
-1.1436 5.6019 -0.5489 0.9773
-1.3662 5.5429 -0.5481 0.9773
-1.6665 5.7537 -0.5751 0.9762
-2.0696 5.4572 -0.5603 0.9768
-2.7510 5.7977 -0.6161 0.9745
-3.0905 5.3529 -0.5934 0.9755
-3.8285 5.5465 -0.6470 0.9733
-3.9710 5.2845 -0.6346 0.9738
-5.2055 5.4194 -0.7214 0.9703
-5.3901 5.1772 -0.7175 0.9704
-6.1934 5.4869 -0.7944 0.9673
-6.4088 5.2326 -0.7943 0.9673
-4.7575 3.0084 -0.5404 0.9776
-22.9123 13.2284 -2.5400 0.8991
-23.4263 12.2951 -2.5400 0.8991
-23.9024 11.3418 -2.5400 0.8991
-25.6880 6.3316 -2.5400 0.8991
-26.1142 4.2440 -2.5400 0.8991
-26.4353 1.0653 -2.5400 0.8991
-21.3655 -0.8610 -2.5400 0.9175
-21.2270 -2.5774 -2.5400 0.9175
-21.1060 -3.4301 -2.5400 0.9175
-20.7615 -5.1173 -2.5400 0.9175
-20.5386 -5.9491 -2.5400 0.9175
-20.2824 -6.7713 -2.5400 0.9175
-19.6718 -8.3814 -2.5400 0.9175
-19.3184 -9.1667 -2.5400 0.9175
-18.9336 -9.9371 -2.5400 0.9175
-17.0944 -12.8456 -2.5400 0.9175
-16.5633 -13.5235 -2.5400 0.9175
-15.4214 -14.8124 -2.5400 0.9175
-14.8124 -15.4214 -2.5400 0.9175
-12.8456 -17.0944 -2.5400 0.9175
-10.6914 -18.5181 -2.5400 0.9175
-8.6167 -18.1593 -2.3876 0.9222
-6.3359 -14.8708 -1.9201 0.9370
-6.3672 -19.0721 -2.3884 0.9222
-5.5938 -19.3120 -2.3883 0.9222
-3.6397 -14.7667 -1.8066 0.9406
-1.7771 -14.6359 -1.7513 0.9423
0.0000 -14.5112 -1.7237 0.9432
0.5831 -14.4702 -1.7203 0.9433
1.1649 -14.4294 -1.7196 0.9434
2.3317 -14.3475 -1.7266 0.9431
4.1194 -14.2220 -1.7588 0.9421
6.3076 -18.8936 -2.3661 0.9229
7.8054 -18.3200 -2.3654 0.9229
8.5354 -17.9880 -2.3651 0.9229
9.2512 -17.6267 -2.3647 0.9229
10.6354 -16.8185 -2.3637 0.9230
11.3015 -16.3730 -2.3632 0.9230
11.9487 -15.9009 -2.3626 0.9230
12.5761 -15.4029 -2.3620 0.9230
13.1826 -14.8800 -2.3614 0.9230
13.1178 -13.6571 -2.2494 0.9266
14.8666 -13.1707 -2.3593 0.9231
15.3772 -12.5551 -2.3581 0.9231
15.8605 -11.9184 -2.3566 0.9232
16.7465 -10.5899 -2.3536 0.9233
19.9743 -6.6684 -2.5014 0.9187
20.4461 -5.0395 -2.5014 0.9187
20.6324 -4.2121 -2.5014 0.9187
10.0225 -1.6288 -1.2062 0.9599
10.0487 -0.8112 -1.1975 0.9602
11.3111 -0.4558 -1.3447 0.9554
21.0580 0.0000 -2.5014 0.9187
21.0409 0.8479 -2.5014 0.9187
20.9045 2.5383 -2.5014 0.9187
19.2162 4.7364 -2.3509 0.9234
19.0270 5.5113 -2.3530 0.9233
16.9465 7.2202 -2.1881 0.9285
13.9837 6.6353 -1.8386 0.9396
12.5892 6.6073 -1.6889 0.9443
11.1403 6.4318 -1.5280 0.9495
10.0551 6.3584 -1.4132 0.9532
9.0781 6.2662 -1.3103 0.9565
7.7502 6.3279 -1.1885 0.9605
6.8496 6.0683 -1.0870 0.9638
2.5265 3.0944 -0.4745 0.9840
2.2351 3.2381 -0.4674 0.9843
3.7307 5.8995 -0.8291 0.9723
3.4408 5.9596 -0.8174 0.9727
3.2051 6.1067 -0.8192 0.9726
1.6837 5.8125 -0.7188 0.9759
1.3931 5.6520 -0.6915 0.9768
1.1512 5.6388 -0.6836 0.9771
0.9245 5.6883 -0.6846 0.9771
0.0000 5.5507 -0.6593 0.9779
-0.2189 5.4339 -0.6460 0.9783
-0.4696 5.8177 -0.6933 0.9768
-0.6945 5.7202 -0.6845 0.9771
-0.9278 5.7092 -0.6871 0.9770
-1.1194 5.4832 -0.6648 0.9777
-1.3671 5.5467 -0.6786 0.9773
-2.0624 5.4381 -0.6909 0.9768
-2.8389 5.4091 -0.7256 0.9757
-3.0476 5.2786 -0.7240 0.9757
-3.4310 5.4257 -0.7625 0.9745
-3.9050 5.1967 -0.7722 0.9742
-5.4517 5.2364 -0.8979 0.9700
-6.1862 5.4804 -0.9817 0.9673
-3.1703 2.3823 -0.4711 0.9842
-4.8060 3.3173 -0.6937 0.9768
-18.0726 11.4284 -2.5400 0.9175
-19.6718 8.3814 -2.5400 0.9175
-19.9933 7.5825 -2.5400 0.9175
-20.2825 6.7713 -2.5400 0.9175
-20.5386 5.9491 -2.5400 0.9175
-20.9507 4.2771 -2.5400 0.9175
-21.2270 2.5774 -2.5400 0.9175
-21.3135 1.7206 -2.5400 0.9175
-17.9264 0.0000 -2.5400 0.9301
-17.7957 -2.1608 -2.5400 0.9301
-17.6943 -2.8756 -2.5400 0.9301
-17.5642 -3.5857 -2.5400 0.9301
-17.4055 -4.2901 -2.5400 0.9301
-16.7615 -6.3568 -2.5400 0.9301
-15.8731 -8.3308 -2.5400 0.9301
-15.5247 -8.9632 -2.5400 0.9301
-13.4181 -11.8874 -2.5400 0.9301
-12.4181 -12.9286 -2.5400 0.9301
-10.7692 -14.3312 -2.5400 0.9301
-10.1834 -14.7532 -2.5400 0.9301
-7.2238 -15.2239 -2.3876 0.9342
-6.3183 -14.8297 -2.2840 0.9370
-5.9762 -15.7579 -2.3879 0.9342
-1.8208 -11.2040 -1.6083 0.9552
-0.5864 -14.5523 -2.0636 0.9429
0.5831 -14.4702 -2.0519 0.9432
1.7471 -14.3885 -2.0537 0.9431
3.5159 -14.2643 -2.0816 0.9424
4.1195 -14.2220 -2.0979 0.9419
5.9102 -15.5838 -2.3615 0.9349
7.1432 -15.0539 -2.3609 0.9349
8.3288 -14.4259 -2.3602 0.9349
9.4592 -13.7039 -2.3593 0.9349
11.0296 -12.4498 -2.3567 0.9350
11.5169 -11.9903 -2.3557 0.9350
13.2651 -9.9681 -2.3510 0.9352
14.0561 -8.8885 -2.3564 0.9350
15.1244 -8.7321 -2.4745 0.9319
15.9496 -7.5682 -2.5014 0.9312
16.2414 -6.9198 -2.5014 0.9312
9.5733 -1.9544 -1.3844 0.9613
10.4127 -0.4196 -1.4766 0.9588
17.5254 2.1280 -2.5014 0.9312
15.7560 5.2601 -2.3536 0.9351
15.2865 6.5130 -2.3543 0.9351
14.0375 6.6609 -2.2015 0.9392
12.6603 6.6446 -2.0259 0.9439
9.7225 6.1482 -1.6299 0.9546
9.1398 6.3088 -1.5736 0.9561
5.6901 5.9239 -1.1638 0.9674
5.3110 5.9948 -1.1348 0.9682
2.2345 3.2373 -0.5573 0.9842
3.4306 5.9419 -0.9721 0.9727
3.1737 6.0469 -0.9676 0.9728
2.9142 6.1415 -0.9632 0.9729
1.6901 5.8348 -0.8607 0.9758
0.9042 5.5639 -0.7987 0.9775
0.7160 5.8965 -0.8416 0.9763
0.4663 5.7761 -0.8211 0.9769
0.0000 5.5777 -0.7903 0.9777
-0.6963 5.7351 -0.8186 0.9769
-1.1286 5.5286 -0.7995 0.9775
-1.3607 5.5206 -0.8056 0.9773
-1.8638 5.5827 -0.8339 0.9765
-2.0748 5.4708 -0.8290 0.9766
-2.3467 5.5079 -0.8483 0.9761
-2.7303 5.7540 -0.9024 0.9746
-2.8504 5.4309 -0.8690 0.9755
-3.0731 5.3229 -0.8709 0.9755
-3.4211 5.4101 -0.9070 0.9745
-3.7812 5.4779 -0.9431 0.9735
-5.1802 5.3931 -1.0596 0.9702
-5.4321 5.2176 -1.0672 0.9700
-6.2481 5.5353 -1.1827 0.9668
-6.4375 5.2560 -1.1775 0.9670
-14.7532 10.1834 -2.5400 0.9301
-15.1512 9.5811 -2.5400 0.9301
-15.5247 8.9632 -2.5400 0.9301
-17.2187 4.9875 -2.5400 0.9301
-17.5641 3.5858 -2.5400 0.9301
-17.6943 2.8756 -2.5400 0.9301
-17.8683 1.4425 -2.5400 0.9301
-15.4182 0.0000 -2.5400 0.9394
-15.4057 -0.6208 -2.5400 0.9394
-15.3682 -1.2406 -2.5400 0.9394
-14.8095 -4.2896 -2.5400 0.9394
-14.6247 -4.8825 -2.5400 0.9394
-14.4163 -5.4674 -2.5400 0.9394
-14.1844 -6.0434 -2.5400 0.9394
-13.9296 -6.6097 -2.5400 0.9394
-13.6521 -7.1652 -2.5400 0.9394
-10.6806 -11.1196 -2.5400 0.9394
-10.2242 -11.5407 -2.5400 0.9394
-9.7512 -11.9430 -2.5400 0.9394
-9.2530 -12.3135 -2.5374 0.9395
-7.6485 -12.0951 -2.3575 0.9436
-7.1501 -12.3843 -2.3558 0.9437
-6.1183 -12.8940 -2.3512 0.9438
-5.5894 -13.1189 -2.3492 0.9438
-4.5299 -13.5689 -2.3566 0.9437
-2.8631 -14.0244 -2.3580 0.9436
-1.8204 -11.2014 -1.8695 0.9550
-1.7258 -14.2133 -2.3587 0.9436
1.1524 -14.2750 -2.3593 0.9436
1.7262 -14.2167 -2.3592 0.9436
4.5329 -13.5775 -2.3581 0.9436
5.6087 -13.1640 -2.3573 0.9436
6.1329 -12.9248 -2.3568 0.9437
6.6468 -12.6644 -2.3562 0.9437
7.6402 -12.0820 -2.3549 0.9437
8.1181 -11.7610 -2.3542 0.9437
8.5823 -11.4209 -2.3535 0.9437
9.4668 -10.6858 -2.3518 0.9438
10.2880 -9.8818 -2.3500 0.9438
10.6731 -9.4556 -2.3490 0.9438
12.8333 -8.1153 -2.5014 0.9403
13.1497 -7.5920 -2.5014 0.9403
13.7180 -6.5092 -2.5014 0.9403
13.9689 -5.9516 -2.5014 0.9403
14.1973 -5.3843 -2.5014 0.9403
9.2048 -1.8792 -1.5477 0.9626
9.1132 -1.4810 -1.5210 0.9633
9.1066 -1.1058 -1.5112 0.9635
9.1703 -0.7403 -1.5156 0.9634
9.5619 -0.3853 -1.5765 0.9619
15.0733 1.8302 -2.5014 0.9403
14.9873 2.4357 -2.5014 0.9403
14.8771 3.0372 -2.5014 0.9403
12.8496 3.7219 -2.2038 0.9472
13.5445 4.5218 -2.3524 0.9438
13.1477 5.6017 -2.3543 0.9437
12.9114 6.1266 -2.3543 0.9437
11.1168 6.4183 -2.1147 0.9493
10.0493 6.3548 -1.9587 0.9529
7.7689 6.3431 -1.6523 0.9602
6.4618 6.2066 -1.4760 0.9643
5.6186 5.8495 -1.3362 0.9677
2.5249 3.0925 -0.6577 0.9839
3.7091 5.8655 -1.1433 0.9723
2.8297 5.9634 -1.0874 0.9736
2.1804 5.7491 -1.0129 0.9754
1.9671 5.8919 -1.0233 0.9751
1.6888 5.8305 -1.0000 0.9757
0.4647 5.7560 -0.9513 0.9769
0.2287 5.6749 -0.9356 0.9772
-0.2180 5.4094 -0.8919 0.9783
-0.4610 5.7104 -0.9438 0.9770
-0.6938 5.7139 -0.9482 0.9769
-1.3660 5.5420 -0.9403 0.9771
-1.6466 5.6848 -0.9750 0.9763
-1.8522 5.5481 -0.9636 0.9766
-2.0266 5.3436 -0.9415 0.9771
-2.8539 5.4376 -1.0117 0.9754
-3.0264 5.2419 -0.9971 0.9758
-3.4038 5.3827 -1.0492 0.9745
-3.7835 5.4813 -1.0972 0.9734
-3.9427 5.2467 -1.0812 0.9737
-4.8738 5.5014 -1.2108 0.9706
-5.1530 5.3648 -1.2255 0.9703
-5.4066 5.1931 -1.2350 0.9701
-3.1703 2.3824 -0.6533 0.9841
-12.6889 8.7586 -2.5400 0.9394
-13.0313 8.2405 -2.5400 0.9394
-13.9296 6.6097 -2.5400 0.9394
-14.1844 6.0434 -2.5400 0.9394
-14.4163 5.4674 -2.5400 0.9394
-14.6247 4.8825 -2.5400 0.9394
-14.8095 4.2896 -2.5400 0.9394
-14.9702 3.6898 -2.5400 0.9394
-15.4057 0.6208 -2.5400 0.9394
-13.5134 0.0000 -2.5400 0.9465
-13.5024 -0.5441 -2.5400 0.9465
-13.3384 -2.1677 -2.5400 0.9465
-13.1207 -3.2340 -2.5400 0.9465
-12.9798 -3.7597 -2.5400 0.9465
-12.6352 -4.7919 -2.5400 0.9465
-12.2087 -5.7931 -2.5400 0.9465
-11.9655 -6.2800 -2.5400 0.9465
-11.7029 -6.7567 -2.5400 0.9465
-10.8032 -8.1180 -2.5400 0.9465
-10.1149 -8.9610 -2.5400 0.9465
-8.9064 -10.0531 -2.5245 0.9468
-8.4627 -10.3650 -2.5151 0.9470
-8.0160 -10.6674 -2.5081 0.9471
-5.8078 -11.0658 -2.3490 0.9504
-5.3575 -11.2907 -2.3490 0.9504
-4.8985 -11.4972 -2.3490 0.9504
-3.4824 -12.0228 -2.3527 0.9503
-1.8200 -11.1987 -2.1325 0.9549
-1.0079 -12.4848 -2.3543 0.9503
0.0000 -12.5269 -2.3546 0.9503
0.5044 -12.5170 -2.3546 0.9503
1.0080 -12.4866 -2.3546 0.9503
1.5100 -12.4357 -2.3546 0.9503
3.4843 -12.0290 -2.3539 0.9503
3.9653 -11.8775 -2.3536 0.9503
4.4397 -11.7064 -2.3533 0.9503
5.3654 -11.3073 -2.3525 0.9503
5.8151 -11.0798 -2.3520 0.9503
6.2551 -10.8342 -2.3514 0.9504
6.6847 -10.5710 -2.3509 0.9504
7.1031 -10.2905 -2.3502 0.9504
7.9038 -9.6804 -2.3490 0.9504
8.4139 -9.4973 -2.3849 0.9497
9.0475 -9.4194 -2.4549 0.9482
9.5978 -9.2188 -2.5014 0.9473
10.3085 -8.4166 -2.5014 0.9473
10.6390 -7.9947 -2.5014 0.9473
11.2478 -7.1127 -2.5014 0.9473
11.5251 -6.6540 -2.5014 0.9473
12.0232 -5.7051 -2.5014 0.9473
12.2431 -5.2163 -2.5014 0.9473
12.4433 -4.7191 -2.5014 0.9473
12.9214 -3.1848 -2.5014 0.9473
9.0760 -1.8529 -1.7411 0.9630
9.0089 -1.4641 -1.7155 0.9635
9.0031 -1.0932 -1.7047 0.9638
9.0569 -0.7311 -1.7079 0.9637
13.3081 0.0000 -2.5014 0.9473
13.2973 0.5359 -2.5014 0.9473
13.2649 1.0709 -2.5014 0.9473
13.1357 2.1348 -2.5014 0.9473
13.0391 2.6620 -2.5014 0.9473
12.1341 2.9908 -2.3490 0.9504
11.5219 4.9090 -2.3540 0.9503
11.0909 5.8210 -2.3543 0.9503
10.8475 6.2628 -2.3543 0.9503
9.1360 6.3062 -2.0866 0.9558
8.1887 6.1534 -1.9253 0.9592
6.8204 6.0424 -1.7127 0.9636
6.3831 6.1311 -1.6636 0.9646
2.3272 3.0969 -0.7281 0.9844
3.4279 5.9372 -1.2886 0.9725
2.1745 5.7335 -1.1526 0.9754
1.9612 5.8742 -1.1640 0.9751
1.4082 5.7133 -1.1060 0.9763
0.7094 5.8426 -1.1062 0.9763
-0.4635 5.7414 -1.0827 0.9768
-0.6884 5.6699 -1.0735 0.9770
-0.9099 5.5989 -1.0662 0.9772
-1.1319 5.5447 -1.0637 0.9772
-1.3521 5.4856 -1.0619 0.9773
-2.0602 5.4323 -1.0920 0.9766
-2.8738 5.4755 -1.1623 0.9751
-3.0451 5.2743 -1.1447 0.9755
-3.3525 5.3016 -1.1790 0.9748
-3.8036 5.5104 -1.2585 0.9731
-4.8836 5.5125 -1.3843 0.9705
-5.1454 5.3569 -1.3961 0.9702
-5.4553 5.2399 -1.4218 0.9697
-6.0842 5.3901 -1.5278 0.9675
-3.1703 2.3823 -0.7454 0.9840
-10.4540 7.2159 -2.3876 0.9496
-10.7361 6.7891 -2.3876 0.9496
-11.0007 6.3513 -2.3876 0.9496
-11.9655 6.2800 -2.5400 0.9465
-12.4320 5.2968 -2.5400 0.9465
-12.8179 4.2793 -2.5400 0.9465
-12.9798 3.7596 -2.5400 0.9465
-13.1207 3.2340 -2.5400 0.9465
-13.2403 2.7030 -2.5400 0.9465
-13.3384 2.1677 -2.5400 0.9465
-13.4695 1.0874 -2.5400 0.9465
-12.0162 0.0000 -2.5400 0.9521
-11.9286 -1.4487 -2.5400 0.9521
-11.8606 -1.9275 -2.5400 0.9521
-11.6670 -2.8757 -2.5400 0.9521
-11.0547 -4.7100 -2.5400 0.9521
-10.8560 -5.1512 -2.5400 0.9521
-10.1560 -6.4222 -2.5400 0.9521
-9.8880 -6.8252 -2.5397 0.9521
-8.9338 -7.9146 -2.5229 0.9524
-7.8616 -8.8739 -2.5060 0.9527
-7.4898 -9.1733 -2.5033 0.9527
-7.1116 -9.4638 -2.5023 0.9528
-6.7238 -9.7412 -2.5020 0.9528
-6.3247 -10.0017 -2.5014 0.9528
-5.9168 -10.2482 -2.5014 0.9528
-4.4682 -10.4873 -2.4096 0.9545
-2.6601 -10.7925 -2.3496 0.9556
-2.2237 -10.8924 -2.3499 0.9556
-1.3403 -11.0385 -2.3505 0.9556
-0.4478 -11.1122 -2.3508 0.9556
0.0000 -11.1217 -2.3509 0.9555
0.4478 -11.1130 -2.3510 0.9555
1.3406 -11.0408 -2.3509 0.9555
3.9420 -10.3941 -2.3498 0.9556
4.3567 -10.2254 -2.3495 0.9556
5.6350 -9.7601 -2.3823 0.9550
6.1384 -9.7071 -2.4277 0.9541
6.6602 -9.6490 -2.4783 0.9532
7.1090 -9.4603 -2.5014 0.9528
7.8472 -8.8576 -2.5014 0.9528
8.1975 -8.5345 -2.5014 0.9528
9.7389 -6.7223 -2.5014 0.9528
10.2482 -5.9168 -2.5014 0.9528
11.3664 -3.2923 -2.5014 0.9528
11.4898 -2.8320 -2.5014 0.9528
9.0132 -1.8401 -1.9445 0.9631
8.9360 -1.0850 -1.9028 0.9639
8.9906 -0.7258 -1.9066 0.9638
11.7953 0.9522 -2.5014 0.9528
11.7474 1.4264 -2.5014 0.9528
11.6804 1.8983 -2.5014 0.9528
11.5945 2.3670 -2.5014 0.9528
11.3493 2.7974 -2.4708 0.9533
10.6761 3.0924 -2.3495 0.9556
9.8621 5.1760 -2.3543 0.9555
9.6457 5.5690 -2.3543 0.9555
9.4137 5.9528 -2.3543 0.9555
9.1625 6.3244 -2.3533 0.9555
8.2759 6.2189 -2.1882 0.9586
6.4603 6.2052 -1.8935 0.9640
5.3639 6.0545 -1.7098 0.9675
2.5233 3.0905 -0.8434 0.9838
2.3266 3.0962 -0.8187 0.9843
3.7111 5.8686 -1.4677 0.9720
3.4539 5.9822 -1.4602 0.9722
2.4185 5.6764 -1.3042 0.9751
2.1618 5.7000 -1.2886 0.9754
1.9544 5.8541 -1.3046 0.9751
1.4268 5.7886 -1.2602 0.9759
0.7151 5.8893 -1.2540 0.9760
0.2282 5.6615 -1.1977 0.9771
0.0000 5.5662 -1.1766 0.9775
-0.2234 5.5458 -1.1732 0.9776
-0.4640 5.7479 -1.2189 0.9767
-0.6902 5.6844 -1.2104 0.9769
-1.6553 5.7149 -1.2577 0.9760
-2.8460 5.4227 -1.2945 0.9753
-3.2873 5.1985 -1.3001 0.9752
-5.1618 5.3740 -1.5751 0.9700
-5.4030 5.1896 -1.5836 0.9698
-6.4369 5.2555 -1.7565 0.9666
-3.1703 2.3823 -0.8383 0.9839
-9.2958 6.4164 -2.3876 0.9549
-9.5466 6.0369 -2.3876 0.9549
-9.7819 5.6476 -2.3876 0.9549
-10.0014 5.2492 -2.3876 0.9549
-10.2047 4.8422 -2.3876 0.9549
-10.3914 4.4273 -2.3876 0.9549
-10.5612 4.0053 -2.3876 0.9549
-11.3978 3.8051 -2.5400 0.9521
-11.5418 3.3431 -2.5400 0.9521
-11.6670 2.8757 -2.5400 0.9521
-11.7734 2.4036 -2.5400 0.9521
-11.8606 1.9276 -2.5400 0.9521
-11.9286 1.4484 -2.5400 0.9521
-12.0065 0.4838 -2.5400 0.9521
-10.7286 -1.3027 -2.5400 0.9566
-10.5890 -2.1617 -2.5400 0.9566
-10.4933 -2.5864 -2.5400 0.9566
-10.3807 -3.0068 -2.5400 0.9566
-10.1029 -3.8315 -2.5394 0.9566
-9.9345 -4.2327 -2.5379 0.9566
-9.5401 -5.0072 -2.5322 0.9567
-7.9834 -7.0727 -2.5067 0.9571
-7.6856 -7.3821 -2.5046 0.9572
-7.3778 -7.6811 -2.5031 0.9572
-6.3959 -8.5113 -2.5022 0.9572
-5.3216 -9.2173 -2.5014 0.9572
-4.9461 -9.4241 -2.5014 0.9572
-4.1718 -9.7915 -2.5014 0.9572
-3.7741 -9.9516 -2.5014 0.9572
-3.3704 -10.0955 -2.5014 0.9572
-2.9611 -10.2230 -2.5014 0.9572
0.4103 -10.1805 -2.3946 0.9590
0.8195 -10.1508 -2.3934 0.9590
1.2288 -10.1204 -2.3960 0.9590
1.6397 -10.0892 -2.4023 0.9589
2.0529 -10.0560 -2.4121 0.9587
2.8915 -9.9825 -2.4426 0.9582
3.7561 -9.9039 -2.4894 0.9574
4.5627 -9.6156 -2.5014 0.9572
6.0460 -8.7592 -2.5014 0.9572
6.3938 -8.5086 -2.5014 0.9572
7.9665 -7.0578 -2.5014 0.9572
8.5086 -6.3938 -2.5014 0.9572
8.7592 -6.0460 -2.5014 0.9572
9.4241 -4.9461 -2.5014 0.9572
9.7915 -4.1718 -2.5014 0.9572
10.0955 -3.3703 -2.5014 0.9572
10.2230 -2.9611 -2.5014 0.9572
10.3339 -2.5471 -2.5014 0.9572
8.9369 -1.0851 -2.1158 0.9637
9.1754 -0.3698 -2.1582 0.9630
10.6432 0.0000 -2.5014 0.9572
10.6346 0.4286 -2.5014 0.9572
10.6087 0.8564 -2.5014 0.9572
10.5054 1.7073 -2.5014 0.9572
10.3339 2.5471 -2.5014 0.9572
9.6220 2.7871 -2.3544 0.9597
9.4846 3.1664 -2.3500 0.9597
9.2072 3.9228 -2.3521 0.9597
8.8693 4.6550 -2.3541 0.9597
8.6754 5.0087 -2.3543 0.9597
8.4666 5.3540 -2.3543 0.9597
7.7596 6.3355 -2.3543 0.9597
6.6765 5.9148 -2.0963 0.9640
5.3429 6.0308 -1.8936 0.9674
2.5225 3.0895 -0.9374 0.9837
2.2323 3.2341 -0.9236 0.9840
3.7027 5.8554 -1.6282 0.9719
3.4097 5.9058 -1.6027 0.9724
2.8458 5.9974 -1.5602 0.9731
2.1727 5.7290 -1.4400 0.9751
1.6774 5.7910 -1.4170 0.9755
1.4130 5.7325 -1.3876 0.9760
0.7170 5.9046 -1.3979 0.9759
-0.2219 5.5075 -1.2954 0.9776
-0.9104 5.6024 -1.3340 0.9769
-1.8417 5.5165 -1.3668 0.9764
-2.3039 5.4075 -1.3814 0.9761
-2.6742 5.6357 -1.4661 0.9747
-2.8450 5.4208 -1.4388 0.9752
-3.0655 5.3097 -1.4409 0.9751
-3.9700 5.2830 -1.5531 0.9732
-6.3154 5.5949 -1.9830 0.9659
-8.3606 5.7709 -2.3876 0.9591
-8.5862 5.4296 -2.3876 0.9591
-8.9953 4.7211 -2.3876 0.9591
-9.3460 3.9820 -2.3876 0.9591
-9.6292 3.2147 -2.3859 0.9591
-9.7432 2.8222 -2.3840 0.9592
-10.7986 0.4352 -2.5400 0.9566
-9.7821 0.0000 -2.5327 0.9604
-9.7744 -0.3939 -2.5328 0.9604
-9.7500 -0.7871 -2.5327 0.9604
-9.4848 -2.3378 -2.5293 0.9604
-9.3759 -2.7158 -2.5274 0.9605
-9.1089 -3.4545 -2.5224 0.9605
-8.9522 -3.8142 -2.5195 0.9606
-8.7824 -4.1673 -2.5169 0.9606
-8.3979 -4.8485 -2.5107 0.9607
-8.1885 -5.1781 -2.5085 0.9608
-7.9664 -5.4988 -2.5063 0.9608
-7.7313 -5.8098 -2.5040 0.9608
-7.4904 -6.1157 -2.5037 0.9608
-7.2373 -6.4117 -2.5034 0.9608
-6.9725 -6.6972 -2.5032 0.9608
-6.6964 -6.9717 -2.5029 0.9608
-6.4096 -7.2349 -2.5026 0.9608
-5.4890 -7.9521 -2.5018 0.9609
-5.1637 -8.1658 -2.5015 0.9609
-4.8305 -8.3666 -2.5014 0.9609
-4.4897 -8.5544 -2.5014 0.9609
-3.7868 -8.8879 -2.5014 0.9609
-3.0593 -9.1638 -2.5014 0.9609
-2.6878 -9.2795 -2.5014 0.9609
-2.3120 -9.3802 -2.5014 0.9609
-1.9324 -9.4657 -2.5014 0.9609
-0.3890 -9.6531 -2.5014 0.9609
0.3890 -9.6531 -2.5014 0.9609
0.7774 -9.6296 -2.5014 0.9609
1.9324 -9.4657 -2.5014 0.9609
2.3120 -9.3802 -2.5014 0.9609
2.6878 -9.2795 -2.5014 0.9609
3.0593 -9.1638 -2.5014 0.9609
4.1416 -8.7282 -2.5014 0.9609
4.4897 -8.5544 -2.5014 0.9609
4.8305 -8.3666 -2.5014 0.9609
6.4064 -7.2313 -2.5014 0.9609
6.6924 -6.9675 -2.5014 0.9609
6.9675 -6.6924 -2.5014 0.9609
8.1654 -5.1634 -2.5014 0.9609
8.3666 -4.8305 -2.5014 0.9609
8.5544 -4.4897 -2.5014 0.9609
8.8879 -3.7868 -2.5014 0.9609
9.1638 -3.0593 -2.5014 0.9609
9.2795 -2.6878 -2.5014 0.9609
9.3802 -2.3120 -2.5014 0.9609
9.4657 -1.9324 -2.5014 0.9609
9.6296 -0.7774 -2.5014 0.9609
9.5606 -0.3853 -2.4774 0.9612
9.6296 0.7774 -2.5014 0.9609
9.5905 1.1645 -2.5014 0.9609
9.5359 1.5497 -2.5014 0.9609
9.3802 2.3120 -2.5014 0.9609
8.7568 2.5364 -2.3605 0.9630
8.6073 2.8735 -2.3495 0.9632
8.3549 3.5597 -2.3514 0.9632
8.2080 3.8947 -2.3523 0.9632
7.8741 4.5461 -2.3541 0.9631
7.2693 5.4625 -2.3543 0.9631
6.8062 6.0297 -2.3543 0.9631
6.4869 6.2307 -2.3288 0.9635
5.3881 6.0818 -2.1038 0.9670
2.5217 3.0885 -1.0323 0.9837
2.2317 3.2332 -1.0172 0.9839
3.6851 5.8274 -1.7852 0.9719
3.4458 5.9683 -1.7844 0.9719
3.1861 6.0706 -1.7751 0.9721
2.8614 6.0302 -1.7282 0.9728
2.4872 5.8375 -1.6429 0.9741
2.1616 5.6995 -1.5783 0.9751
1.1498 5.6319 -1.4883 0.9765
-0.9226 5.6770 -1.4892 0.9765
-1.1289 5.5298 -1.4613 0.9770
-1.3630 5.5301 -1.4747 0.9767
-1.6394 5.6597 -1.5256 0.9759
-1.8335 5.4921 -1.4992 0.9764
-2.0211 5.3292 -1.4757 0.9767
-2.7071 5.7051 -1.6350 0.9742
-2.8345 5.4008 -1.5792 0.9751
-3.3975 5.3728 -1.6459 0.9741
-3.9897 5.3093 -1.7195 0.9729
-5.1772 5.3900 -1.9351 0.9696
-5.5283 5.3100 -1.9847 0.9688
-7.7815 4.9207 -2.3838 0.9627
-7.9685 4.6006 -2.3824 0.9627
-8.1418 4.2732 -2.3808 0.9627
-8.3027 3.9397 -2.3795 0.9627
-8.4490 3.5998 -2.3779 0.9628
-8.5800 3.2540 -2.3759 0.9628
-8.6949 2.9028 -2.3734 0.9628
-8.8862 0.0000 -2.5156 0.9637
-8.8796 -0.3578 -2.5158 0.9637
-8.8576 -0.7151 -2.5157 0.9637
-8.8202 -1.0710 -2.5153 0.9637
-8.6997 -1.7761 -2.5136 0.9638
-8.6176 -2.1241 -2.5126 0.9638
-8.5222 -2.4685 -2.5117 0.9638
-8.4105 -2.8078 -2.5101 0.9638
-7.8339 -4.1115 -2.5046 0.9639
-7.6613 -4.4233 -2.5044 0.9639
-7.4764 -4.7278 -2.5042 0.9639
-7.0704 -5.3131 -2.5037 0.9639
-6.8501 -5.5929 -2.5035 0.9639
-6.6187 -5.8636 -2.5032 0.9639
-6.3766 -6.1248 -2.5030 0.9639
-5.8619 -6.6167 -2.5025 0.9639
-5.5902 -6.8467 -2.5022 0.9639
-4.7225 -7.4680 -2.5014 0.9639
-4.4180 -7.6522 -2.5014 0.9639
-4.1063 -7.8238 -2.5014 0.9639
-3.7879 -7.9829 -2.5014 0.9639
-3.4634 -8.1289 -2.5014 0.9639
-2.4583 -8.4871 -2.5014 0.9639
-1.4174 -8.7215 -2.5014 0.9639
-1.0651 -8.7715 -2.5014 0.9639
-0.7110 -8.8073 -2.5014 0.9639
0.0000 -8.8359 -2.5014 0.9639
1.4174 -8.7215 -2.5014 0.9639
2.1146 -8.5792 -2.5014 0.9639
2.4583 -8.4871 -2.5014 0.9639
2.7981 -8.3812 -2.5014 0.9639
3.4634 -8.1289 -2.5014 0.9639
3.7879 -7.9828 -2.5014 0.9639
4.1063 -7.8238 -2.5014 0.9639
4.4180 -7.6522 -2.5014 0.9639
4.7225 -7.4681 -2.5014 0.9639
5.0194 -7.2718 -2.5014 0.9639
5.5883 -6.8444 -2.5014 0.9639
6.3725 -6.1209 -2.5014 0.9639
6.6138 -5.8593 -2.5014 0.9639
7.4681 -4.7225 -2.5014 0.9639
7.6522 -4.4180 -2.5014 0.9639
7.9828 -3.7879 -2.5014 0.9639
8.5792 -2.1146 -2.5014 0.9639
8.6574 -1.7674 -2.5014 0.9639
8.7715 -1.0651 -2.5014 0.9639
8.8073 0.7110 -2.5014 0.9639
8.7215 1.4174 -2.5014 0.9639
8.5792 2.1146 -2.5014 0.9639
8.4871 2.4583 -2.5014 0.9639
7.7614 2.9435 -2.3499 0.9661
7.6394 3.2548 -2.3508 0.9661
7.3580 3.8618 -2.3525 0.9660
7.0283 4.4444 -2.3541 0.9660
6.4420 5.2597 -2.3543 0.9660
5.9979 5.7610 -2.3543 0.9660
5.7555 5.9921 -2.3521 0.9660
5.4396 6.1400 -2.3222 0.9665
2.5208 3.0875 -1.1284 0.9836
2.3249 3.0938 -1.0956 0.9840
2.2312 3.2324 -1.1119 0.9838
3.7485 5.9277 -1.9855 0.9713
2.8280 5.9597 -1.8675 0.9729
2.4886 5.8408 -1.7973 0.9740
1.9618 5.8762 -1.7538 0.9746
1.6770 5.7896 -1.7064 0.9753
1.4019 5.6876 -1.6583 0.9759
1.1702 5.7317 -1.6561 0.9760
0.7169 5.9043 -1.6838 0.9756
0.0000 5.5302 -1.5656 0.9773
-0.2231 5.5363 -1.5686 0.9772
-0.6968 5.7387 -1.6365 0.9763
-0.9019 5.5496 -1.5917 0.9769
-1.6562 5.7179 -1.6852 0.9756
-2.0328 5.3600 -1.6228 0.9765
-2.2982 5.3941 -1.6598 0.9759
-2.6946 5.6789 -1.7795 0.9742
-3.0541 5.2899 -1.7292 0.9749
-3.3969 5.3718 -1.7993 0.9739
-3.8015 5.5075 -1.8945 0.9726
-4.9181 5.5514 -2.0996 0.9696
-5.1740 5.3867 -2.1145 0.9694
-5.4883 5.2716 -2.1543 0.9689
-6.4420 5.2597 -2.3543 0.9660
-3.1703 2.3823 -1.1227 0.9836
-6.8314 4.7154 -2.3499 0.9661
-7.6612 3.2642 -2.3575 0.9660
-7.7850 2.9524 -2.3570 0.9660
-7.8952 2.6358 -2.3563 0.9660
-7.9917 2.3148 -2.3554 0.9660
-8.0739 1.9901 -2.3541 0.9660
-8.7007 1.7763 -2.5139 0.9638
-8.8142 1.0702 -2.5136 0.9638
-8.8538 0.7147 -2.5146 0.9637
-8.8774 0.3578 -2.5152 0.9637
-8.1482 -0.0000 -2.5062 0.9665
-8.1210 -0.6556 -2.5060 0.9665
-8.0411 -1.3068 -2.5057 0.9665
-7.9815 -1.6294 -2.5056 0.9665
-7.8235 -2.2661 -2.5052 0.9665
-7.7254 -2.5791 -2.5051 0.9665
-7.0507 -4.0707 -2.5041 0.9665
-6.6992 -4.6241 -2.5037 0.9665
-6.5070 -4.8897 -2.5035 0.9665
-6.3043 -5.1473 -2.5033 0.9665
-6.0914 -5.3965 -2.5031 0.9665
-5.8686 -5.6369 -2.5028 0.9665
-5.6344 -5.8662 -2.5018 0.9665
-5.1434 -6.2995 -2.5014 0.9665
-4.8856 -6.5015 -2.5014 0.9665
-4.0663 -7.0430 -2.5014 0.9665
-1.9462 -7.8962 -2.5014 0.9665
-1.6267 -7.9682 -2.5014 0.9665
-0.3275 -8.1259 -2.5014 0.9665
0.0000 -8.1325 -2.5014 0.9665
0.6544 -8.1062 -2.5014 0.9665
0.9803 -8.0733 -2.5014 0.9665
1.3045 -8.0272 -2.5014 0.9665
1.9462 -7.8962 -2.5014 0.9665
2.2626 -7.8115 -2.5014 0.9665
5.1434 -6.2995 -2.5014 0.9665
5.8652 -5.6336 -2.5014 0.9665
6.0873 -5.3929 -2.5014 0.9665
6.6929 -4.6198 -2.5014 0.9665
7.6041 -2.8838 -2.5014 0.9665
7.8962 -1.9462 -2.5014 0.9665
8.1062 -0.6544 -2.5014 0.9665
8.1260 -0.3275 -2.5014 0.9665
8.1325 -0.0000 -2.5014 0.9665
8.1259 0.3275 -2.5014 0.9665
8.0732 0.9803 -2.5014 0.9665
7.8962 1.9462 -2.5014 0.9665
7.8115 2.2626 -2.5014 0.9665
7.2440 2.4184 -2.3490 0.9685
7.1422 2.7087 -2.3495 0.9685
7.0297 2.9951 -2.3502 0.9685
6.6239 3.8243 -2.3526 0.9685
6.4666 4.0892 -2.3533 0.9685
6.1193 4.5983 -2.3543 0.9685
5.9291 4.8410 -2.3543 0.9685
5.7294 5.0758 -2.3543 0.9685
5.5204 5.3024 -2.3543 0.9685
5.0758 5.7294 -2.3543 0.9685
2.5200 3.0864 -1.2255 0.9835
2.2306 3.2315 -1.2077 0.9837
3.4474 5.9710 -2.1207 0.9716
3.1793 6.0575 -2.1042 0.9718
2.8715 6.0514 -2.0602 0.9724
2.4725 5.8032 -1.9402 0.9739
1.9476 5.8337 -1.8917 0.9746
1.6930 5.8449 -1.8717 0.9749
1.4223 5.7703 -1.8280 0.9754
0.9288 5.7152 -1.7809 0.9761
0.7031 5.7904 -1.7941 0.9759
0.2266 5.6214 -1.7304 0.9767
-0.2224 5.5198 -1.6991 0.9771
-0.4664 5.7777 -1.7829 0.9760
-0.6892 5.6761 -1.7587 0.9764
-0.9194 5.6577 -1.7630 0.9763
-1.3613 5.5231 -1.7496 0.9765
-1.8230 5.4605 -1.7707 0.9762
-3.4265 5.4185 -1.9719 0.9735
-3.8206 5.5352 -2.0687 0.9722
-4.0419 5.3789 -2.0695 0.9722
-4.3532 5.3317 -2.1171 0.9716
-5.5092 5.2916 -2.3496 0.9685
-5.9291 4.8410 -2.3543 0.9685
-6.6139 3.8185 -2.3490 0.9685
-6.7623 3.5491 -2.3490 0.9685
-6.8997 3.2740 -2.3490 0.9685
-7.0259 2.9935 -2.3490 0.9685
-7.1408 2.7081 -2.3490 0.9685
-7.2443 2.4185 -2.3491 0.9685
-7.3360 2.1249 -2.3492 0.9685
-7.4833 1.5277 -2.3492 0.9685
-8.0346 1.3058 -2.5037 0.9665
-8.1205 0.6556 -2.5058 0.9665
-7.5236 -0.3032 -2.5029 0.9688
-7.4789 -0.9081 -2.5043 0.9687
-7.3843 -1.5075 -2.5052 0.9687
-7.2382 -2.0966 -2.5049 0.9687
-6.9314 -2.9532 -2.5044 0.9687
-6.8064 -3.2296 -2.5043 0.9687
-6.6703 -3.5008 -2.5041 0.9687
-6.5235 -3.7663 -2.5039 0.9687
-5.4271 -5.2129 -2.5014 0.9688
-5.2128 -5.4271 -2.5014 0.9688
-4.0219 -6.3602 -2.5014 0.9688
-3.7626 -6.5169 -2.5014 0.9688
-3.4971 -6.6632 -2.5014 0.9688
-3.2260 -6.7986 -2.5014 0.9688
-2.9496 -6.9230 -2.5014 0.9688
-2.3830 -7.1379 -2.5014 0.9688
-1.8009 -7.3065 -2.5014 0.9688
-1.5052 -7.3731 -2.5014 0.9688
-1.2071 -7.4277 -2.5014 0.9688
-0.9071 -7.4703 -2.5014 0.9688
-0.6055 -7.5007 -2.5014 0.9688
2.3830 -7.1379 -2.5014 0.9688
2.6684 -7.0361 -2.5014 0.9688
3.7626 -6.5170 -2.5014 0.9688
4.0219 -6.3602 -2.5014 0.9688
4.2748 -6.1931 -2.5014 0.9688
5.2128 -5.4271 -2.5014 0.9688
5.4271 -5.2128 -2.5014 0.9688
6.5170 -3.7626 -2.5014 0.9688
6.6632 -3.4971 -2.5014 0.9688
6.9230 -2.9496 -2.5014 0.9688
7.2280 -2.0936 -2.5014 0.9688
7.3730 -1.5052 -2.5014 0.9688
7.4703 -0.9071 -2.5014 0.9688
7.5007 -0.6055 -2.5014 0.9688
7.5190 -0.3030 -2.5014 0.9688
7.5190 0.3030 -2.5014 0.9688
7.5007 0.6055 -2.5014 0.9688
7.4703 0.9071 -2.5014 0.9688
7.4277 1.2071 -2.5014 0.9688
7.3065 1.8009 -2.5014 0.9688
7.2280 2.0936 -2.5014 0.9688
6.5034 2.7708 -2.3498 0.9706
6.3885 3.0314 -2.3505 0.9706
6.2631 3.2871 -2.3512 0.9706
6.1275 3.5377 -2.3519 0.9706
5.9819 3.7827 -2.3526 0.9706
5.8264 4.0216 -2.3533 0.9706
5.6613 4.2542 -2.3539 0.9706
5.4863 4.4794 -2.3543 0.9706
5.3015 4.6967 -2.3543 0.9706
4.6967 5.3015 -2.3543 0.9706
2.5191 3.0854 -1.3240 0.9834
2.3237 3.0922 -1.2857 0.9838
3.4560 5.9859 -2.2976 0.9713
3.2107 6.1174 -2.2965 0.9713
2.9261 6.1666 -2.2689 0.9716
2.1259 5.6054 -1.9928 0.9750
1.4412 5.8469 -2.0017 0.9749
1.1681 5.7215 -1.9411 0.9757
0.9244 5.6880 -1.9156 0.9760
0.7192 5.9226 -1.9832 0.9752
0.0000 5.5999 -1.8614 0.9767
-0.4634 5.7411 -1.9146 0.9760
-2.0765 5.4753 -1.9465 0.9756
-2.3724 5.5682 -2.0119 0.9748
-2.8745 5.4770 -2.0561 0.9743
-3.8330 5.5530 -2.2429 0.9720
-4.0582 5.4005 -2.2455 0.9719
-4.4448 5.4439 -2.3361 0.9708
-5.1081 4.9064 -2.3543 0.9706
-5.3015 4.6967 -2.3543 0.9706
-5.4863 4.4794 -2.3543 0.9706
-3.1703 2.3823 -1.3182 0.9834
-5.8289 4.0234 -2.3543 0.9706
-5.9862 3.7855 -2.3543 0.9706
-6.1338 3.5414 -2.3543 0.9706
-6.3953 3.0346 -2.3530 0.9706
-6.5012 2.7699 -2.3490 0.9707
-6.6074 2.5059 -2.3490 0.9707
-6.7030 2.2378 -2.3490 0.9707
-6.7877 1.9661 -2.3490 0.9707
-6.9238 1.4135 -2.3490 0.9707
-7.4277 1.2071 -2.5014 0.9688
-7.4703 0.9071 -2.5014 0.9688
-7.5014 0.6056 -2.5016 0.9688
-7.5204 0.3031 -2.5018 0.9688
-6.9948 0.0000 -2.5014 0.9707
-6.9891 -0.2817 -2.5014 0.9707
-6.9721 -0.5629 -2.5014 0.9707
-6.8537 -1.3992 -2.5015 0.9707
-6.7919 -1.6741 -2.5015 0.9707
-6.7190 -1.9462 -2.5015 0.9707
-6.6351 -2.2151 -2.5015 0.9707
-6.5405 -2.4805 -2.5015 0.9707
-6.4351 -2.7417 -2.5014 0.9707
-6.3195 -2.9986 -2.5014 0.9707
-5.7566 -3.9735 -2.5014 0.9707
-5.4182 -4.4238 -2.5014 0.9707
-4.6384 -5.2357 -2.5014 0.9707
-4.4238 -5.4182 -2.5014 0.9707
-4.2021 -5.5920 -2.5014 0.9707
-3.9735 -5.7566 -2.5014 0.9707
-3.7385 -5.9119 -2.5014 0.9707
-3.4974 -6.0577 -2.5014 0.9707
-2.4804 -6.5403 -2.5014 0.9707
-2.2150 -6.6348 -2.5014 0.9707
-1.9461 -6.7186 -2.5014 0.9707
-1.6740 -6.7916 -2.5014 0.9707
-1.1221 -6.9042 -2.5014 0.9707
-0.5629 -6.9721 -2.5014 0.9707
-0.2817 -6.9891 -2.5014 0.9707
0.8431 -6.9438 -2.5014 0.9707
1.6740 -6.7915 -2.5014 0.9707
2.4804 -6.5402 -2.5014 0.9707
2.7417 -6.4351 -2.5014 0.9707
2.9986 -6.3195 -2.5014 0.9707
3.2506 -6.1936 -2.5014 0.9707
3.7385 -5.9120 -2.5014 0.9707
4.4238 -5.4182 -2.5014 0.9707
4.8455 -5.0447 -2.5014 0.9707
5.4182 -4.4238 -2.5014 0.9707
5.9119 -3.7385 -2.5014 0.9707
6.0577 -3.4974 -2.5014 0.9707
6.1936 -3.2507 -2.5014 0.9707
6.3195 -2.9986 -2.5014 0.9707
6.4351 -2.7417 -2.5014 0.9707
6.5403 -2.4804 -2.5014 0.9707
6.7186 -1.9461 -2.5014 0.9707
6.7916 -1.6740 -2.5014 0.9707
6.9438 -0.8431 -2.5014 0.9707
6.9891 0.2817 -2.5014 0.9707
6.7916 1.6740 -2.5014 0.9707
6.7186 1.9461 -2.5014 0.9707
6.6348 2.2150 -2.5014 0.9707
5.9371 2.8172 -2.3501 0.9725
5.8205 3.0548 -2.3507 0.9725
5.5589 3.5152 -2.3520 0.9724
5.2608 3.9532 -2.3532 0.9724
5.0986 4.1629 -2.3538 0.9724
4.7481 4.5606 -2.3543 0.9724
4.5606 4.7481 -2.3543 0.9724
4.3657 4.9279 -2.3543 0.9724
2.2294 3.2298 -1.4034 0.9835
3.2918 5.7015 -2.3543 0.9724
3.0595 5.8295 -2.3543 0.9724
2.8223 5.9479 -2.3543 0.9724
2.1339 5.6264 -2.1519 0.9748
1.9802 5.9313 -2.2362 0.9738
1.7430 6.0175 -2.2404 0.9737
0.7144 5.8833 -2.1194 0.9751
0.0000 5.5914 -1.9995 0.9765
-0.6938 5.7144 -2.0585 0.9758
-0.9130 5.6183 -2.0355 0.9761
-1.1335 5.5524 -2.0265 0.9762
-1.3616 5.5243 -2.0347 0.9761
-1.6360 5.6481 -2.1028 0.9753
-2.3509 5.5177 -2.1448 0.9748
-2.6711 5.6293 -2.2282 0.9739
-3.1442 5.4459 -2.2488 0.9736
-4.1637 5.0997 -2.3543 0.9724
-4.5606 4.7481 -2.3543 0.9724
-4.7481 4.5606 -2.3543 0.9724
-5.0997 4.1638 -2.3543 0.9724
-3.1703 2.3823 -1.4182 0.9833
-5.4182 3.7399 -2.3543 0.9724
-5.5641 3.5185 -2.3542 0.9724
-5.8262 3.0578 -2.3530 0.9724
-6.2345 2.0814 -2.3505 0.9725
-6.3115 1.8281 -2.3498 0.9725
-6.3778 1.5720 -2.3490 0.9725
-6.9721 0.5629 -2.5014 0.9707
-3.5504 0.0000 -1.3606 0.9849
-3.5687 -0.2881 -1.3720 0.9848
-3.5921 -0.4362 -1.3867 0.9846
-6.3954 -1.3056 -2.5014 0.9724
-6.3377 -1.5621 -2.5014 0.9724
-6.2696 -1.8160 -2.5014 0.9724
-6.1032 -2.3146 -2.5014 0.9724
-5.3719 -3.7079 -2.5014 0.9724
-5.2182 -3.9212 -2.5014 0.9724
-4.8858 -4.3284 -2.5014 0.9724
-4.7075 -4.5217 -2.5014 0.9724
-4.5217 -4.7075 -2.5014 0.9724
-4.3284 -4.8858 -2.5014 0.9724
-4.1282 -5.0561 -2.5014 0.9724
-3.2637 -5.6528 -2.5014 0.9724
-3.0334 -5.7797 -2.5014 0.9724
-2.5585 -6.0050 -2.5014 0.9724
-2.0670 -6.1914 -2.5014 0.9724
-1.5621 -6.3377 -2.5014 0.9724
-1.3056 -6.3954 -2.5014 0.9724
-1.0471 -6.4428 -2.5014 0.9724
-0.7868 -6.4797 -2.5014 0.9724
-0.5252 -6.5062 -2.5014 0.9724
0.7868 -6.4797 -2.5014 0.9724
1.3056 -6.3954 -2.5014 0.9724
1.5621 -6.3377 -2.5014 0.9724
2.0670 -6.1914 -2.5014 0.9724
2.3146 -6.1032 -2.5014 0.9724
2.5585 -6.0050 -2.5014 0.9724
3.2637 -5.6528 -2.5014 0.9724
3.4886 -5.5168 -2.5014 0.9724
3.9212 -5.2182 -2.5014 0.9724
4.3284 -4.8858 -2.5014 0.9724
4.5216 -4.7075 -2.5014 0.9724
4.8858 -4.3284 -2.5014 0.9724
5.0561 -4.1282 -2.5014 0.9724
5.2182 -3.9213 -2.5014 0.9724
5.5168 -3.4886 -2.5014 0.9724
5.8971 -2.7982 -2.5014 0.9724
6.1032 -2.3146 -2.5014 0.9724
6.3377 -1.5621 -2.5014 0.9724
6.3954 -1.3056 -2.5014 0.9724
6.4428 -1.0471 -2.5014 0.9724
6.5220 -0.2628 -2.5014 0.9724
6.5273 0.0000 -2.5014 0.9724
6.5221 0.2628 -2.5014 0.9724
6.5062 0.5252 -2.5014 0.9724
6.4798 0.7868 -2.5014 0.9724
6.4428 1.0471 -2.5014 0.9724
6.3954 1.3056 -2.5014 0.9724
6.2696 1.8160 -2.5014 0.9724
6.1914 2.0670 -2.5014 0.9724
5.8969 2.2364 -2.4168 0.9733
5.5394 2.6285 -2.3497 0.9741
5.3127 3.0673 -2.3509 0.9741
5.1862 3.2796 -2.3515 0.9741
4.9079 3.6880 -2.3526 0.9740
4.7565 3.8836 -2.3532 0.9740
4.5973 4.0729 -2.3537 0.9740
4.4306 4.2557 -2.3542 0.9740
2.5174 3.0832 -1.5254 0.9831
2.2288 3.2289 -1.5035 0.9833
2.4081 5.6520 -2.3543 0.9740
2.1741 5.7324 -2.3495 0.9741
1.9455 5.8274 -2.3543 0.9740
1.4309 5.8054 -2.2913 0.9747
0.7162 5.8981 -2.2769 0.9749
0.4703 5.8251 -2.2395 0.9753
-0.2214 5.4961 -2.1079 0.9767
-0.7059 5.8142 -2.2445 0.9752
-1.1255 5.5132 -2.1564 0.9762
-1.3502 5.4780 -2.1621 0.9761
-1.8416 5.5163 -2.2286 0.9754
-2.6337 5.5504 -2.3543 0.9740
-2.8551 5.4399 -2.3543 0.9740
-3.2835 5.1925 -2.3543 0.9740
-3.4899 5.0561 -2.3543 0.9740
-4.0739 4.5985 -2.3543 0.9740
-4.2558 4.4308 -2.3543 0.9740
-4.4308 4.2558 -2.3543 0.9740
-4.5985 4.0740 -2.3543 0.9740
-5.3174 3.0700 -2.3530 0.9740
-5.4354 2.8527 -2.3524 0.9740
-5.5445 2.6309 -2.3518 0.9741
-5.6446 2.4049 -2.3512 0.9741
-5.7354 2.1751 -2.3506 0.9741
-5.8887 1.7057 -2.3494 0.9741
-5.9515 1.4669 -2.3490 0.9741
-6.3954 1.3056 -2.5014 0.9724
-6.4428 1.0471 -2.5014 0.9724
-3.5687 0.2881 -1.3720 0.9848
-2.8160 0.0000 -1.1525 0.9879
-2.8203 -0.1137 -1.1552 0.9879
-3.0070 -0.6139 -1.2561 0.9868
-5.8705 -1.7004 -2.5014 0.9739
-5.7146 -2.1673 -2.5014 0.9739
-5.6227 -2.3956 -2.5014 0.9739
-5.5217 -2.6201 -2.5014 0.9739
-5.4117 -2.8403 -2.5014 0.9739
-5.2930 -3.0559 -2.5014 0.9739
-5.0299 -3.4719 -2.5014 0.9739
-4.8860 -3.6716 -2.5014 0.9739
-4.7342 -3.8654 -2.5014 0.9739
-4.5747 -4.0529 -2.5014 0.9739
-4.4078 -4.2338 -2.5014 0.9739
-4.2338 -4.4078 -2.5014 0.9739
-3.2665 -5.1656 -2.5014 0.9739
-2.8403 -5.4117 -2.5014 0.9739
-2.6201 -5.5217 -2.5014 0.9739
-2.1673 -5.7146 -2.5014 0.9739
-1.2225 -5.9883 -2.5014 0.9739
-0.7367 -6.0672 -2.5014 0.9739
0.2461 -6.1068 -2.5014 0.9739
2.3956 -5.6227 -2.5014 0.9739
2.6201 -5.5217 -2.5014 0.9739
3.0559 -5.2929 -2.5014 0.9739
3.2665 -5.1656 -2.5014 0.9739
3.6716 -4.8860 -2.5014 0.9739
3.8654 -4.7342 -2.5014 0.9739
4.0529 -4.5747 -2.5014 0.9739
4.2338 -4.4078 -2.5014 0.9739
4.4078 -4.2338 -2.5014 0.9739
4.5747 -4.0529 -2.5014 0.9739
4.7342 -3.8653 -2.5014 0.9739
5.0299 -3.4719 -2.5014 0.9739
5.1656 -3.2665 -2.5014 0.9739
5.7972 -1.9354 -2.5014 0.9739
5.9342 -1.4626 -2.5014 0.9739
5.9883 -1.2225 -2.5014 0.9739
6.0672 -0.7367 -2.5014 0.9739
6.1068 -0.2461 -2.5014 0.9739
6.1118 0.0000 -2.5014 0.9739
6.0920 0.4918 -2.5014 0.9739
6.0672 0.7367 -2.5014 0.9739
5.9882 1.2225 -2.5014 0.9739
5.7146 2.1673 -2.5014 0.9739
5.2801 2.2497 -2.3490 0.9755
5.1859 2.4608 -2.3493 0.9755
4.8550 3.0701 -2.3510 0.9755
4.7286 3.2639 -2.3515 0.9755
4.5943 3.4524 -2.3521 0.9755
4.4526 3.6354 -2.3526 0.9755
4.3035 3.8126 -2.3531 0.9755
3.9844 4.1482 -2.3541 0.9754
3.8146 4.3058 -2.3543 0.9754
2.5165 3.0821 -1.6285 0.9829
2.3218 3.0897 -1.5818 0.9834
2.8762 4.9818 -2.3543 0.9754
2.2548 5.2921 -2.3543 0.9754
2.0398 5.3786 -2.3543 0.9754
1.8216 5.4564 -2.3543 0.9754
1.3767 5.5853 -2.3543 0.9754
1.1506 5.6362 -2.3543 0.9754
0.6934 5.7105 -2.3543 0.9754
0.2299 5.7026 -2.3358 0.9756
0.0000 5.6136 -2.2975 0.9760
-0.9228 5.6780 -2.3543 0.9754
-1.6004 5.5253 -2.3543 0.9754
