ply
format ascii 1.0
element vertex 1570
property float32 x
property float32 y
property float32 z
property float32 I
end_header
0.3549 8.8077 0.5466 0.9653
-0.0000 9.5937 0.5949 0.9623
-0.3879 9.6248 0.5973 0.9621
-1.1755 9.6811 0.6047 0.9617
-1.9764 9.6811 0.6127 0.9612
-3.2321 9.6811 0.6329 0.9599
-4.8987 9.3338 0.6537 0.9586
-6.6941 8.1988 0.6563 0.9585
-24.1574 25.1505 2.1625 0.8696
-26.3102 23.3088 2.1797 0.8686
-35.0939 26.3713 2.7221 0.8387
-25.0333 15.8302 1.8367 0.8881
-23.3207 12.2396 1.6332 0.8998
-26.6105 12.6268 1.8265 0.8887
-35.9097 13.6187 2.3815 0.8573
-25.3600 8.4664 1.6579 0.8984
-33.9434 8.3663 2.1678 0.8693
-24.2806 -16.7597 1.1633 0.8886
-21.2491 -18.8250 1.1194 0.8926
-21.3640 -20.5204 1.1681 0.8882
-22.3106 -23.2277 1.2700 0.8790
-18.0408 -20.3638 1.0728 0.8968
-17.3009 -21.1897 1.0787 0.8963
-18.6339 -29.4672 1.3747 0.8697
-15.5082 -26.8609 1.2230 0.8832
-14.9818 -28.5454 1.2712 0.8789
-17.9621 -37.8544 1.6522 0.8456
-4.4172 -21.6367 0.8708 0.9154
-1.8086 -22.4034 0.8863 0.9140
-0.9780 -24.2685 0.9577 0.9073
0.0000 -23.4443 0.9244 0.9104
4.3626 -26.8441 1.0724 0.8968
4.1982 -20.5639 0.8276 0.9194
4.9495 -20.0809 0.8155 0.9205
5.4339 -18.7599 0.7701 0.9248
6.2301 -16.4275 0.6928 0.9321
9.3422 -16.1811 0.7367 0.9279
13.8615 -20.0818 0.9622 0.9069
15.6419 -20.8156 1.0267 0.9010
16.3667 -20.0456 1.0204 0.9016
43.6740 -16.5633 1.8419 0.8295
16.9078 3.4518 0.6804 0.9333
17.6662 8.3827 0.7710 0.9247
16.6705 9.6247 0.7590 0.9258
15.3315 9.6951 0.7153 0.9300
10.9624 8.2377 0.5407 0.9466
10.1011 8.2473 0.5142 0.9491
9.6950 8.5891 0.5107 0.9495
9.1248 10.2997 0.5426 0.9464
9.2299 11.3046 0.5755 0.9433
9.2299 12.2828 0.6058 0.9403
9.1248 13.2195 0.6334 0.9377
9.1059 14.3998 0.6718 0.9341
9.1613 15.8677 0.7225 0.9293
4.7750 10.0631 0.4392 0.9564
4.4860 10.5292 0.4513 0.9552
12.1711 32.0924 1.3534 0.8716
2.4437 8.4369 0.3463 0.9654
2.0369 8.2640 0.3356 0.9665
1.6893 8.2749 0.3330 0.9668
1.3448 8.2749 0.3306 0.9670
0.9995 8.2318 0.3270 0.9674
0.3549 8.8077 0.3476 0.9653
-0.0000 9.5937 0.3783 0.9623
-0.3879 9.6248 0.3798 0.9622
-1.1755 9.6811 0.3845 0.9617
-1.5734 9.6811 0.3867 0.9615
-2.3723 9.6247 0.3909 0.9611
-3.2321 9.6811 0.4024 0.9600
-4.1007 9.6247 0.4125 0.9590
-5.3553 8.4686 0.3951 0.9607
-5.7276 8.2978 0.3976 0.9604
-6.1980 8.2481 0.4068 0.9595
-6.6941 8.1988 0.4174 0.9585
-23.6518 26.6973 1.4064 0.8669
-24.9081 25.9320 1.4178 0.8659
-32.9486 26.9016 1.6772 0.8434
-23.6715 17.7880 1.1676 0.8882
-24.6610 15.5946 1.1505 0.8898
-24.5225 14.1581 1.1165 0.8928
-33.4038 17.5317 1.4875 0.8598
-31.8641 15.1196 1.3907 0.8683
-32.7748 13.9640 1.4048 0.8671
-28.7162 10.8906 1.2110 0.8843
-40.4838 13.5155 1.6829 0.8429
-33.4140 8.2358 1.3570 0.8713
-33.4843 6.8359 1.3476 0.8721
-35.2953 5.7360 1.4100 0.8666
-43.3499 5.2636 1.7219 0.8396
-45.0817 -21.3916 0.8429 0.8190
-23.8878 -16.4886 0.4903 0.8904
-23.6867 -17.7994 0.5005 0.8882
-22.1503 -18.0851 0.4830 0.8919
-18.1391 -20.4747 0.4621 0.8963
-16.6572 -20.4013 0.4449 0.9000
-16.7101 -22.2371 0.4699 0.8947
-18.8690 -27.3365 0.5611 0.8756
-23.6197 -40.9105 0.7980 0.8278
-14.0020 -29.5085 0.5517 0.8775
-10.7442 -25.2176 0.4630 0.8961
-10.0784 -26.5745 0.4801 0.8925
-2.4995 -20.5850 0.3503 0.9204
-1.9154 -23.7261 0.4021 0.9092
1.9989 -24.7614 0.4196 0.9054
2.9927 -24.6473 0.4194 0.9054
4.3691 -17.7262 0.3084 0.9296
5.2809 -18.2317 0.3206 0.9269
8.7211 -15.1055 0.2946 0.9326
9.4320 -14.9155 0.2981 0.9318
14.0656 -20.3775 0.4182 0.9057
43.6740 -16.5634 0.7890 0.8296
17.6662 8.3827 0.3303 0.9248
16.6705 9.6247 0.3252 0.9259
10.1011 8.2473 0.2203 0.9492
9.1248 13.2195 0.2713 0.9378
4.2591 9.9965 0.1835 0.9575
3.8582 10.1733 0.1838 0.9574
3.4291 10.2714 0.1829 0.9576
2.4437 8.4369 0.1484 0.9655
2.0369 8.2640 0.1438 0.9665
1.6893 8.2749 0.1427 0.9668
0.6778 8.3957 0.1423 0.9669
-1.5734 9.6811 0.1657 0.9615
-1.9764 9.6811 0.1669 0.9612
-2.3723 9.6247 0.1674 0.9611
-3.2321 9.6811 0.1724 0.9600
-3.6716 9.6811 0.1749 0.9594
-4.1007 9.6247 0.1767 0.9590
-5.7276 8.2978 0.1703 0.9605
-24.2952 27.4236 0.6189 0.8637
-33.2624 34.6297 0.8111 0.8252
-34.1533 32.8046 0.7999 0.8274
-34.0829 30.1948 0.7692 0.8335
-32.3925 22.3589 0.6649 0.8543
-13.3339 7.6983 0.2601 0.9403
-32.9008 14.0177 0.6041 0.8667
-44.5738 12.9110 0.7839 0.8306
-33.4081 6.8203 0.5760 0.8725
-43.1772 7.0170 0.7389 0.8395
-43.2803 5.2551 0.7365 0.8399
-43.7689 -22.9717 -0.2783 0.8206
-21.8267 -17.8210 -0.1586 0.8934
-16.5404 -20.2582 -0.1472 0.9007
-18.8846 -27.3590 -0.1872 0.8755
-13.0301 -24.8268 -0.1579 0.8939
-10.7585 -22.6729 -0.1413 0.9045
-9.6634 -22.6808 -0.1388 0.9061
-7.4442 -25.7004 -0.1506 0.8985
-6.4204 -26.0484 -0.1510 0.8982
-5.5621 -27.2450 -0.1566 0.8947
0.8035 -19.9399 -0.1124 0.9233
6.3064 -38.8050 -0.2213 0.8545
7.4782 -36.6306 -0.2105 0.8611
10.7241 -43.5093 -0.2523 0.8359
6.2699 -16.5323 -0.0995 0.9317
7.2026 -16.9052 -0.1035 0.9291
9.3669 -17.8471 -0.1135 0.9225
12.2789 -21.2677 -0.1383 0.9064
14.6472 -21.2202 -0.1452 0.9020
15.1639 -20.1795 -0.1421 0.9040
15.9431 -19.5267 -0.1419 0.9041
16.9078 3.4518 -0.0972 0.9333
16.6705 9.6247 -0.1084 0.9259
10.9624 8.2377 -0.0772 0.9466
8.5181 9.6149 -0.0723 0.9499
6.6627 9.6526 -0.0660 0.9542
6.1039 9.6526 -0.0643 0.9553
4.5802 9.6526 -0.0602 0.9582
3.1952 9.5708 -0.0568 0.9604
2.0369 8.2640 -0.0479 0.9665
1.6893 8.2749 -0.0476 0.9668
0.9995 8.2318 -0.0467 0.9674
0.6778 8.3957 -0.0474 0.9669
-0.7770 9.6248 -0.0544 0.9621
-1.1755 9.6811 -0.0549 0.9617
-1.5734 9.6811 -0.0552 0.9615
-1.9764 9.6811 -0.0556 0.9612
-2.3723 9.6247 -0.0558 0.9611
-2.7757 9.5829 -0.0562 0.9609
-3.2321 9.6811 -0.0575 0.9600
-3.6716 9.6811 -0.0583 0.9594
-4.1007 9.6247 -0.0589 0.9590
-4.5670 9.6248 -0.0600 0.9583
-5.3553 8.4686 -0.0564 0.9607
-5.7276 8.2978 -0.0568 0.9605
-6.2182 8.2749 -0.0583 0.9594
-6.6941 8.1988 -0.0596 0.9585
-34.1416 32.7934 -0.2665 0.8275
-34.0829 30.1948 -0.2564 0.8335
-33.0616 26.9939 -0.2403 0.8430
-32.3925 22.3589 -0.2216 0.8543
-13.3339 7.6983 -0.0867 0.9403
-33.7443 17.7104 -0.2146 0.8586
-32.9009 14.0177 -0.2013 0.8667
-32.1467 10.7322 -0.1908 0.8732
-32.1467 9.3114 -0.1884 0.8747
-32.1467 7.9235 -0.1864 0.8760
-49.5268 6.0136 -0.2809 0.8191
-44.5284 -16.8874 -1.3410 0.8265
-39.3192 -16.7524 -1.2034 0.8428
-40.5420 -23.4070 -1.3182 0.8292
-23.6901 -16.3521 -0.8105 0.8912
-20.2572 -19.4573 -0.7909 0.8937
-21.0158 -21.8797 -0.8542 0.8857
-12.6771 -24.1543 -0.7681 0.8966
-10.6633 -22.4725 -0.7004 0.9053
-6.0406 -15.9276 -0.4797 0.9341
-7.4561 -25.7413 -0.7546 0.8983
-6.6443 -26.9567 -0.7818 0.8949
-6.0478 -29.6238 -0.8513 0.8860
-4.4065 -27.1144 -0.7735 0.8959
-2.0370 -25.2330 -0.7128 0.9037
-0.0000 -15.7879 -0.4446 0.9388
3.2354 -19.9080 -0.5679 0.9225
6.8702 -27.8733 -0.8083 0.8915
7.6422 -26.3838 -0.7734 0.8959
10.0890 -26.6023 -0.8011 0.8924
23.2635 -40.2935 -1.3101 0.8301
13.1112 -20.7337 -0.6907 0.9065
13.6786 -19.8168 -0.6780 0.9081
17.0671 -20.9034 -0.7599 0.8976
43.6740 -16.5633 -1.3150 0.8295
16.9078 3.4518 -0.4859 0.9333
17.6662 8.3827 -0.5506 0.9247
16.1347 8.4681 -0.5131 0.9297
14.3202 9.0555 -0.4771 0.9344
12.8010 8.8359 -0.4380 0.9397
10.8106 8.1237 -0.3808 0.9473
10.1011 8.2473 -0.3672 0.9492
9.2763 8.9100 -0.3622 0.9498
9.1438 9.5197 -0.3717 0.9486
7.8811 9.6526 -0.3509 0.9514
6.6627 9.6526 -0.3303 0.9542
5.5729 9.6526 -0.3138 0.9564
5.0661 9.6526 -0.3070 0.9573
4.5802 9.6526 -0.3008 0.9581
3.6607 9.6526 -0.2907 0.9595
3.1952 9.5708 -0.2841 0.9604
2.4437 8.4369 -0.2473 0.9655
2.0369 8.2640 -0.2397 0.9665
1.6893 8.2749 -0.2378 0.9668
1.3448 8.2749 -0.2361 0.9670
0.9995 8.2318 -0.2335 0.9674
0.6778 8.3957 -0.2372 0.9669
-0.0000 9.5938 -0.2701 0.9623
-0.7770 9.6248 -0.2719 0.9621
-1.5734 9.6811 -0.2762 0.9615
-2.3349 9.4728 -0.2747 0.9617
-2.7757 9.5829 -0.2809 0.9609
-3.2321 9.6811 -0.2874 0.9600
-3.6716 9.6811 -0.2915 0.9594
-4.0139 9.4210 -0.2883 0.9599
-4.5670 9.6247 -0.3000 0.9583
-5.0686 8.7790 -0.2854 0.9602
-5.3553 8.4686 -0.2821 0.9607
-6.1096 8.1304 -0.2864 0.9601
-6.6472 8.1413 -0.2959 0.9588
-32.1150 33.4352 -1.3054 0.8307
-32.9289 31.6287 -1.2856 0.8330
-33.9861 30.1090 -1.2785 0.8339
-32.9572 26.9087 -1.1980 0.8434
-32.4151 20.4981 -1.0799 0.8577
-32.8760 17.2547 -1.0455 0.8619
-32.7874 13.9694 -1.0035 0.8671
-32.0649 12.1606 -0.9656 0.8718
-32.1467 10.7322 -0.9543 0.8732
-32.1467 9.3114 -0.9424 0.8747
-32.1467 7.9235 -0.9323 0.8759
-32.0649 6.5462 -0.9215 0.8773
-37.5261 6.0986 -1.0705 0.8589
-49.5268 6.0136 -1.4048 0.8190
-49.1356 -3.9666 -2.5000 0.8208
-48.6571 -7.9076 -2.5000 0.8208
-45.6549 -13.2241 -2.4105 0.8267
-43.9220 -14.6633 -2.3483 0.8307
-41.9802 -17.8861 -2.3142 0.8330
-35.1001 -16.6552 -1.9703 0.8559
-31.5793 -16.5741 -1.8087 0.8669
-28.7754 -16.6135 -1.6851 0.8754
-19.9721 -16.3067 -1.3076 0.9019
-18.3647 -16.2697 -1.2443 0.9064
-16.9035 -16.2360 -1.1886 0.9104
-15.4898 -16.1266 -1.1340 0.9143
-26.0893 -37.7969 -2.3291 0.8320
-24.5358 -38.8002 -2.3281 0.8320
-22.9445 -39.7410 -2.3272 0.8321
-12.4534 -23.7280 -1.3590 0.8982
-10.5408 -22.2142 -1.2470 0.9062
-10.9609 -44.4701 -2.3228 0.8324
-7.3451 -45.1962 -2.3222 0.8324
-1.0107 -25.0798 -1.2729 0.9044
-0.0000 -15.7907 -0.8008 0.9387
3.3117 -41.0228 -2.0872 0.8480
5.3280 -43.8800 -2.2417 0.8377
17.9810 -42.2033 -2.3265 0.8322
9.9398 -15.7186 -0.9432 0.9282
12.6995 -15.5541 -1.0183 0.9227
13.7581 -15.5297 -1.0522 0.9203
17.6091 -15.6004 -1.1931 0.9101
18.9215 -15.4490 -1.2388 0.9068
40.5696 -28.0032 -2.5000 0.8208
41.6663 -24.0561 -2.4400 0.8247
41.8214 -19.8445 -2.3476 0.8308
43.2826 -16.4149 -2.3476 0.8308
47.8630 -11.7972 -2.5000 0.8208
48.2992 -9.8604 -2.5000 0.8208
48.9361 -5.9419 -2.5000 0.8208
49.2955 0.0000 -2.5000 0.8208
49.2555 1.9849 -2.5000 0.8208
46.1403 3.7248 -2.3476 0.8308
45.9529 5.5797 -2.3476 0.8308
45.6979 7.4267 -2.3479 0.8307
16.9078 3.4518 -0.8752 0.9332
43.3410 16.4371 -2.3508 0.8306
42.6217 18.1594 -2.3495 0.8306
17.6662 8.3827 -0.9917 0.9247
16.0446 8.4209 -0.9190 0.9300
13.0087 8.2262 -0.7806 0.9402
12.8011 8.8360 -0.7888 0.9396
10.1011 8.2473 -0.6613 0.9491
9.6950 8.5891 -0.6569 0.9494
9.3856 9.0150 -0.6600 0.9492
9.1438 9.5197 -0.6694 0.9485
7.8811 9.6526 -0.6320 0.9513
7.2534 9.6526 -0.6123 0.9528
6.1039 9.6526 -0.5792 0.9553
5.0661 9.6526 -0.5528 0.9573
2.0052 8.1354 -0.4249 0.9670
0.3447 8.5531 -0.4341 0.9663
-0.3879 9.6238 -0.4885 0.9622
-1.1755 9.6811 -0.4946 0.9617
-1.5734 9.6811 -0.4974 0.9615
-3.6716 9.6811 -0.5251 0.9594
-3.9408 9.2494 -0.5099 0.9605
-5.3553 8.4686 -0.5081 0.9607
-5.7276 8.2978 -0.5113 0.9604
-6.1096 8.1304 -0.5158 0.9601
-31.6900 32.9927 -2.3200 0.8326
-31.5479 30.3022 -2.2184 0.8393
-33.9864 30.1094 -2.3027 0.8337
-32.9572 26.9087 -2.1577 0.8433
-32.1501 20.3305 -1.9291 0.8587
-13.1856 7.6127 -0.7721 0.9408
-32.8760 17.2547 -1.8830 0.8618
-32.4065 15.3770 -1.8191 0.8662
-32.1467 7.9235 -1.6791 0.8758
-32.0649 6.5462 -1.6597 0.8772
-45.9860 5.5837 -2.3493 0.8307
-46.1475 3.7254 -2.3480 0.8307
-49.2555 1.9849 -2.5000 0.8208
-34.0683 -1.3729 -2.5000 0.8722
-33.9853 -2.7436 -2.5000 0.8722
-33.8473 -4.1098 -2.5000 0.8722
-33.6544 -5.4694 -2.5000 0.8722
-30.9983 -13.2071 -2.4706 0.8736
-28.9268 -13.7259 -2.3476 0.8795
-28.3528 -14.8807 -2.3478 0.8795
-27.7390 -16.0152 -2.3485 0.8794
-27.0814 -17.1253 -2.3494 0.8794
-21.7550 -16.3478 -1.9953 0.8966
-15.7413 -16.3885 -1.6662 0.9129
-14.4755 -16.3394 -1.6006 0.9162
-13.2128 -16.1828 -1.5318 0.9196
-17.0641 -26.9847 -2.3410 0.8798
-8.4589 -16.1171 -1.3346 0.9296
-6.8185 -16.0037 -1.2755 0.9326
-6.0448 -15.9388 -1.2499 0.9339
-3.9282 -15.9371 -1.2035 0.9363
-3.2504 -15.9215 -1.1915 0.9369
-2.5850 -15.9062 -1.1816 0.9374
-1.9295 -15.8911 -1.1737 0.9378
-1.2817 -15.8762 -1.1679 0.9381
-0.0000 -15.7569 -1.1553 0.9388
0.6380 -15.8320 -1.1618 0.9384
1.2769 -15.8173 -1.1635 0.9383
1.9187 -15.8025 -1.1672 0.9382
2.5657 -15.7876 -1.1728 0.9379
3.8838 -15.7572 -1.1899 0.9370
8.2176 -15.6574 -1.2965 0.9315
9.0290 -15.6387 -1.3241 0.9301
10.8375 -15.7008 -1.3988 0.9263
17.6128 -15.6036 -1.7253 0.9099
18.8761 -15.4119 -1.7868 0.9069
30.1905 -15.8452 -2.5000 0.8722
32.7498 -9.4861 -2.5000 0.8722
33.1052 -8.1597 -2.5000 0.8722
33.8474 -4.1098 -2.5000 0.8722
34.0683 -1.3729 -2.5000 0.8722
33.9854 2.7436 -2.5000 0.8722
33.8473 4.1098 -2.5000 0.8722
33.6545 5.4694 -2.5000 0.8722
31.8804 12.0906 -2.5000 0.8722
31.3677 13.3645 -2.5000 0.8722
16.1276 7.6527 -1.3089 0.9309
14.7607 7.7470 -1.2223 0.9353
14.3191 8.2671 -1.2123 0.9358
12.8010 8.8359 -1.1405 0.9395
10.8991 8.1901 -0.9996 0.9468
9.6354 8.5362 -0.9439 0.9497
8.2198 8.5578 -0.8700 0.9535
7.6523 8.6377 -0.8461 0.9548
7.1975 8.8154 -0.8344 0.9554
7.2534 9.6526 -0.8853 0.9527
6.6627 9.6526 -0.8600 0.9540
6.1039 9.6526 -0.8374 0.9552
5.5729 9.6526 -0.8172 0.9563
4.6170 8.7970 -0.7285 0.9609
3.1952 9.5708 -0.7398 0.9603
1.6893 8.2749 -0.6192 0.9667
1.3448 8.2749 -0.6147 0.9669
0.9995 8.2318 -0.6080 0.9673
0.6778 8.3957 -0.6176 0.9668
0.3549 8.8077 -0.6463 0.9653
-0.3879 9.6238 -0.7062 0.9621
-1.1755 9.6811 -0.7151 0.9616
-1.5734 9.6811 -0.7192 0.9614
-2.2146 8.9851 -0.6785 0.9636
-3.9406 9.2488 -0.7371 0.9605
-3.9569 8.3389 -0.6768 0.9637
-5.1633 8.9431 -0.7572 0.9594
-5.3553 8.4686 -0.7347 0.9606
-6.2182 8.2749 -0.7589 0.9593
-6.6941 8.1988 -0.7761 0.9584
-22.2608 25.1272 -2.4614 0.8740
-24.2105 23.2545 -2.4614 0.8740
-26.0032 21.2309 -2.4614 0.8740
-26.1279 19.6339 -2.3964 0.8771
-26.6285 16.8389 -2.3101 0.8813
-27.9415 14.6648 -2.3138 0.8811
-29.5647 11.2124 -2.3184 0.8809
-30.3090 10.1186 -2.3429 0.8797
-31.0733 7.6589 -2.3465 0.8795
-25.8503 -3.1388 -2.5000 0.9006
-25.7030 -4.1771 -2.5000 0.9006
-25.2835 -6.2318 -2.5000 0.9006
-25.0120 -7.2448 -2.5000 0.9006
-24.3479 -9.2340 -2.5000 0.9006
-22.5515 -13.0201 -2.5000 0.9006
-20.9071 -13.2208 -2.3748 0.9054
-18.9422 -15.4658 -2.3477 0.9064
-17.6453 -16.9487 -2.3489 0.9064
-16.9626 -17.6600 -2.3509 0.9063
-14.3314 -16.1768 -2.0749 0.9168
-13.1864 -16.1504 -2.0017 0.9196
-11.1149 -16.1027 -1.8785 0.9244
-10.4122 -21.9433 -2.3318 0.9070
-6.8185 -16.0037 -1.6701 0.9325
-5.3314 -15.9695 -1.6163 0.9346
-4.6209 -15.9531 -1.5945 0.9354
-3.9282 -15.9371 -1.5758 0.9362
-3.2504 -15.9215 -1.5601 0.9368
-2.5850 -15.9062 -1.5471 0.9373
-1.2817 -15.8762 -1.5292 0.9380
-0.6392 -15.8614 -1.5240 0.9382
-0.0000 -15.7570 -1.5127 0.9386
3.9182 -24.1094 -2.3450 0.9065
6.7980 -23.4694 -2.3458 0.9065
8.6672 -22.8534 -2.3465 0.9065
6.6952 -15.7142 -1.6399 0.9337
10.4820 -22.0903 -2.3474 0.9064
10.7670 -15.5987 -1.8197 0.9267
12.6995 -15.5541 -1.9278 0.9225
18.9412 -15.4650 -2.3476 0.9064
19.5485 -14.6898 -2.3476 0.9064
20.1242 -13.8907 -2.3476 0.9064
22.5514 -13.0201 -2.5000 0.9006
24.3480 -9.2340 -2.5000 0.9006
24.7001 -8.2461 -2.5000 0.9006
25.5139 -5.2087 -2.5000 0.9006
25.8503 -3.1388 -2.5000 0.9006
25.9557 -2.0954 -2.5000 0.9006
26.0190 -1.0485 -2.5000 0.9006
25.9557 2.0954 -2.5000 0.9006
25.7029 4.1771 -2.5000 0.9006
16.9078 3.4518 -1.6567 0.9330
23.7423 5.8520 -2.3476 0.9064
23.2429 7.7596 -2.3525 0.9062
22.9199 8.6924 -2.3534 0.9062
22.5603 9.6121 -2.3543 0.9062
16.0435 7.6127 -1.7049 0.9311
14.2793 7.4943 -1.5482 0.9373
10.1011 8.2473 -1.2519 0.9489
9.5966 8.5018 -1.2309 0.9498
7.1434 8.7491 -1.0844 0.9556
6.6627 9.6526 -1.1260 0.9540
6.1039 9.6526 -1.0964 0.9551
4.7598 8.2442 -0.9139 0.9625
4.3308 8.2517 -0.8947 0.9632
3.9329 8.2884 -0.8808 0.9638
3.2424 8.5496 -0.8778 0.9639
3.1952 9.5708 -0.9687 0.9603
2.4437 8.4369 -0.8433 0.9653
2.0369 8.2640 -0.8171 0.9664
1.3448 8.2749 -0.8049 0.9669
0.6778 8.3957 -0.8087 0.9667
0.3473 8.6190 -0.8281 0.9659
-0.0000 9.5938 -0.9210 0.9622
-0.3879 9.6238 -0.9247 0.9620
-1.5734 9.6811 -0.9416 0.9614
-1.9764 9.6811 -0.9486 0.9611
-3.2321 9.6811 -0.9799 0.9598
-4.8988 9.3338 -1.0120 0.9585
-5.7276 8.2978 -0.9680 0.9603
-6.6963 8.2015 -1.0165 0.9583
-17.0013 19.1905 -2.4614 0.9021
-17.7602 18.4903 -2.4614 0.9021
-19.8595 16.2147 -2.4614 0.9021
-21.0998 14.5641 -2.4614 0.9021
-21.6692 13.7028 -2.4614 0.9021
-23.1629 10.9909 -2.4614 0.9021
-24.6260 7.1330 -2.4614 0.9021
-21.0462 0.0000 -2.5000 0.9187
-21.0291 -0.8475 -2.5000 0.9187
-20.9779 -1.6935 -2.5000 0.9187
-20.8927 -2.5368 -2.5000 0.9187
-20.7736 -3.3760 -2.5000 0.9187
-20.6208 -4.2098 -2.5000 0.9187
-20.4346 -5.0367 -2.5000 0.9187
-20.2152 -5.8554 -2.5000 0.9187
-19.9630 -6.6646 -2.5000 0.9187
-19.3620 -8.2494 -2.5000 0.9187
-19.0142 -9.0223 -2.5000 0.9187
-18.2265 -10.5231 -2.5000 0.9187
-14.9219 -13.2197 -2.3681 0.9228
-14.2533 -13.6904 -2.3476 0.9235
-13.6904 -14.2532 -2.3476 0.9235
-12.4991 -15.3087 -2.3476 0.9235
-11.2300 -16.2694 -2.3483 0.9235
-9.1992 -17.5275 -2.3514 0.9234
-7.6024 -16.0218 -2.1065 0.9311
-6.0448 -15.9388 -2.0249 0.9336
-5.3314 -15.9695 -1.9999 0.9344
-3.9282 -15.9371 -1.9498 0.9360
-1.2817 -15.8762 -1.8920 0.9379
-0.6392 -15.8614 -1.8856 0.9381
0.6380 -15.8320 -1.8821 0.9382
1.2769 -15.8173 -1.8850 0.9381
1.9187 -15.8025 -1.8909 0.9379
2.5657 -15.7876 -1.8999 0.9376
3.2200 -15.7725 -1.9122 0.9372
3.8838 -15.7572 -1.9277 0.9367
4.5596 -15.7416 -1.9467 0.9361
9.8835 -17.1187 -2.3480 0.9235
11.2269 -16.2648 -2.3476 0.9235
11.8726 -15.7996 -2.3476 0.9235
12.4991 -15.3086 -2.3476 0.9235
13.1054 -14.7929 -2.3476 0.9235
16.1513 -13.1871 -2.4768 0.9194
17.3206 -11.9556 -2.5000 0.9187
17.7880 -11.2485 -2.5000 0.9187
18.2265 -10.5231 -2.5000 0.9187
19.3620 -8.2494 -2.5000 0.9187
19.6785 -7.4631 -2.5000 0.9187
20.2152 -5.8554 -2.5000 0.9187
20.6208 -4.2098 -2.5000 0.9187
20.8927 -2.5368 -2.5000 0.9187
21.0461 -0.0000 -2.5000 0.9187
21.0291 0.8474 -2.5000 0.9187
20.9779 1.6935 -2.5000 0.9187
20.8927 2.5368 -2.5000 0.9187
19.5072 3.1702 -2.3476 0.9235
19.1889 4.7296 -2.3476 0.9235
18.7461 6.2583 -2.3476 0.9235
18.1676 7.7405 -2.3458 0.9235
14.3181 7.5147 -1.9208 0.9369
12.8029 7.3917 -1.7561 0.9422
10.9624 8.2377 -1.6289 0.9463
8.1129 8.4465 -1.3912 0.9539
6.7896 8.3158 -1.2752 0.9577
4.7416 8.2128 -1.1265 0.9625
3.4991 8.2128 -1.0604 0.9647
3.2237 8.5004 -1.0799 0.9640
2.4736 8.5400 -1.0561 0.9648
2.0369 8.2640 -1.0110 0.9663
1.6688 8.1746 -0.9911 0.9670
0.9995 8.2318 -0.9850 0.9671
0.6778 8.3957 -1.0005 0.9666
-0.3879 9.6238 -1.1441 0.9619
-0.6959 8.6204 -1.0273 0.9658
-1.1588 9.5432 -1.1419 0.9620
-1.5412 9.4830 -1.1412 0.9620
-3.4074 8.9845 -1.1414 0.9620
-3.8042 8.9287 -1.1529 0.9617
-3.9393 8.3018 -1.0915 0.9637
-4.1565 7.9196 -1.0624 0.9646
-5.0686 8.7790 -1.2041 0.9600
-6.6472 8.1413 -1.2485 0.9585
-14.9442 14.3541 -2.4614 0.9199
-15.5101 13.7407 -2.4614 0.9199
-16.0508 13.1051 -2.4614 0.9199
-19.0632 8.1220 -2.4614 0.9199
-19.3777 7.3490 -2.4618 0.9199
-20.5495 4.1952 -2.4913 0.9190
-20.7603 3.3739 -2.4984 0.9188
-20.9735 1.6932 -2.4995 0.9187
-17.6442 0.0000 -2.5000 0.9312
-17.5155 -2.1268 -2.5000 0.9312
-17.1314 -4.2225 -2.5000 0.9312
-16.4976 -6.2567 -2.5000 0.9312
-16.2322 -6.9159 -2.5000 0.9312
-15.2803 -8.8221 -2.5000 0.9312
-14.9127 -9.4302 -2.5000 0.9312
-14.5209 -10.0230 -2.5000 0.9312
-13.6672 -11.1589 -2.5000 0.9312
-12.7250 -12.2225 -2.5000 0.9312
-12.2225 -12.7250 -2.5000 0.9312
-9.9534 -13.2456 -2.3476 0.9353
-9.4120 -13.6356 -2.3476 0.9353
-8.2843 -14.3488 -2.3476 0.9353
-6.4943 -15.2427 -2.3476 0.9353
-5.8752 -15.4919 -2.3476 0.9353
-4.6101 -15.9158 -2.3478 0.9352
-2.6583 -16.3572 -2.3480 0.9352
-1.9975 -16.4512 -2.3481 0.9352
-1.3335 -16.5185 -2.3481 0.9352
0.6673 -16.5585 -2.3481 0.9352
1.9974 -16.4504 -2.3480 0.9352
2.6581 -16.3560 -2.3479 0.9352
3.9652 -16.0875 -2.3476 0.9353
4.6097 -15.9144 -2.3476 0.9353
5.2467 -15.7159 -2.3476 0.9353
7.1028 -14.9689 -2.3476 0.9353
8.2843 -14.3488 -2.3476 0.9353
9.4120 -13.6356 -2.3476 0.9353
9.9534 -13.2456 -2.3476 0.9353
11.6812 -13.1854 -2.4959 0.9313
13.2068 -11.7002 -2.5000 0.9312
14.5208 -10.0230 -2.5000 0.9312
15.2802 -8.8221 -2.5000 0.9312
15.6231 -8.1996 -2.5000 0.9312
15.9406 -7.5639 -2.5000 0.9312
16.9475 -4.9089 -2.5000 0.9312
17.1314 -4.2225 -2.5000 0.9312
17.2875 -3.5293 -2.5000 0.9312
17.4156 -2.8303 -2.5000 0.9312
17.5155 -2.1268 -2.5000 0.9312
17.5869 -1.4198 -2.5000 0.9312
17.6298 -0.7104 -2.5000 0.9312
17.6441 0.0000 -2.5000 0.9312
17.6298 0.7104 -2.5000 0.9312
17.5869 1.4198 -2.5000 0.9312
16.0871 3.9651 -2.3476 0.9353
15.9144 4.6097 -2.3476 0.9353
15.7158 5.2467 -2.3476 0.9353
14.2621 7.4853 -2.2822 0.9370
12.8009 8.8358 -2.2039 0.9391
10.9624 8.2377 -1.9429 0.9461
10.1011 8.2473 -1.8477 0.9487
9.6950 8.5891 -1.8352 0.9490
8.7937 8.4465 -1.7276 0.9519
7.4829 8.4464 -1.5989 0.9554
6.4385 7.8858 -1.4425 0.9597
7.2534 9.6526 -1.7108 0.9524
6.1039 9.6526 -1.6182 0.9549
4.3104 8.2128 -1.3142 0.9632
3.8970 8.2128 -1.2880 0.9639
3.4991 8.2128 -1.2649 0.9646
3.2080 8.4587 -1.2818 0.9641
2.4437 8.4369 -1.2446 0.9651
1.6578 8.1204 -1.1743 0.9671
0.9995 8.2318 -1.1749 0.9671
0.6778 8.3957 -1.1935 0.9665
0.3473 8.6190 -1.2222 0.9658
-0.0000 9.5938 -1.3593 0.9620
-0.3879 9.6239 -1.3647 0.9618
-1.4312 8.8062 -1.2641 0.9646
-2.1598 8.7627 -1.2787 0.9642
-2.2655 7.8212 -1.1537 0.9676
-2.5563 7.6571 -1.1438 0.9679
-3.7317 8.7585 -1.3489 0.9623
-3.9393 8.3019 -1.3020 0.9636
-4.0573 7.7305 -1.2370 0.9653
-5.3553 8.4686 -1.4197 0.9603
-6.6941 8.1988 -1.4997 0.9581
-11.3149 11.7800 -2.3143 0.9361
-12.2185 10.8246 -2.3129 0.9362
-12.6381 10.3187 -2.3117 0.9362
-13.4148 9.2595 -2.3096 0.9363
-14.6825 9.2846 -2.4614 0.9322
-13.1873 7.6137 -2.1576 0.9403
-15.6973 7.4484 -2.4618 0.9322
-16.3167 6.1881 -2.4726 0.9319
-16.8502 4.8807 -2.4856 0.9316
-17.0906 4.2125 -2.4940 0.9314
-17.5869 1.4198 -2.5000 0.9312
-17.6299 0.7104 -2.5000 0.9312
-15.1262 -1.2211 -2.5000 0.9403
-15.0648 -1.8292 -2.5000 0.9403
-14.9789 -2.4343 -2.5000 0.9403
-14.7344 -3.6317 -2.5000 0.9403
-14.5763 -4.2221 -2.5000 0.9403
-14.3945 -4.8056 -2.5000 0.9403
-13.9611 -5.9483 -2.5000 0.9403
-13.7103 -6.5056 -2.5000 0.9403
-12.8261 -8.1107 -2.5000 0.9403
-12.4891 -8.6206 -2.5000 0.9403
-12.1319 -9.1165 -2.5000 0.9403
-10.9445 -10.5124 -2.5000 0.9403
-10.5124 -10.9445 -2.5000 0.9403
-9.1165 -12.1319 -2.5000 0.9403
-8.6206 -12.4891 -2.5000 0.9403
-8.1108 -12.8261 -2.5000 0.9403
-7.5877 -13.1423 -2.5000 0.9403
-6.9280 -13.2002 -2.4559 0.9414
-4.5126 -13.5169 -2.3476 0.9439
-1.7177 -14.1464 -2.3476 0.9439
-1.1467 -14.2041 -2.3476 0.9439
-0.5738 -14.2388 -2.3476 0.9439
-0.0000 -14.2503 -2.3476 0.9439
0.5738 -14.2388 -2.3476 0.9439
1.1467 -14.2041 -2.3476 0.9439
2.2859 -14.0658 -2.3476 0.9439
2.8504 -13.9623 -2.3476 0.9439
4.5126 -13.5169 -2.3476 0.9439
6.2653 -13.2039 -2.4077 0.9425
6.9252 -13.1949 -2.4549 0.9414
7.5876 -13.1423 -2.5000 0.9403
8.1107 -12.8261 -2.5000 0.9403
9.5976 -11.7550 -2.5000 0.9403
10.0632 -11.3589 -2.5000 0.9403
10.5124 -10.9445 -2.5000 0.9403
11.3589 -10.0632 -2.5000 0.9403
11.7550 -9.5976 -2.5000 0.9403
12.1319 -9.1165 -2.5000 0.9403
12.4891 -8.6206 -2.5000 0.9403
12.8261 -8.1107 -2.5000 0.9403
13.1423 -7.5877 -2.5000 0.9403
13.9610 -5.9482 -2.5000 0.9403
14.3944 -4.8056 -2.5000 0.9403
14.5762 -4.2221 -2.5000 0.9403
14.7344 -3.6317 -2.5000 0.9403
14.8687 -3.0355 -2.5000 0.9403
15.0647 -1.8292 -2.5000 0.9403
15.1262 -1.2211 -2.5000 0.9403
15.1262 1.2211 -2.5000 0.9403
15.0647 1.8292 -2.5000 0.9403
14.9789 2.4343 -2.5000 0.9403
13.9624 2.8504 -2.3476 0.9439
13.8362 3.4103 -2.3476 0.9439
13.6877 3.9647 -2.3476 0.9439
13.5169 4.5126 -2.3476 0.9439
12.8744 6.1090 -2.3476 0.9439
12.2955 7.0988 -2.3389 0.9441
11.9956 7.5856 -2.3381 0.9441
7.4829 8.4464 -1.8590 0.9553
6.0115 8.7091 -1.7433 0.9580
5.5322 8.7485 -1.7052 0.9589
4.7416 8.2128 -1.5623 0.9623
4.3104 8.2128 -1.5280 0.9631
2.0369 8.2640 -1.4022 0.9661
1.6893 8.2749 -1.3913 0.9663
0.6778 8.3957 -1.3876 0.9664
-0.0000 9.5938 -1.5805 0.9619
-0.3879 9.6241 -1.5867 0.9617
-0.6960 8.6209 -1.4248 0.9655
-0.9336 7.6888 -1.2759 0.9691
-2.1158 8.5840 -1.4564 0.9648
-2.2158 7.6496 -1.3120 0.9682
-3.2547 8.5819 -1.5120 0.9635
-3.6557 8.5803 -1.5365 0.9629
-6.6941 8.1988 -1.7437 0.9580
-9.3178 10.5176 -2.3148 0.9446
-10.8820 8.8848 -2.3143 0.9446
-11.2309 8.4395 -2.3143 0.9446
-11.8693 7.5057 -2.3135 0.9447
-12.4513 6.5349 -2.3166 0.9446
-12.7514 6.0506 -2.3251 0.9444
-13.0258 5.5498 -2.3325 0.9442
-14.0944 5.3453 -2.4833 0.9407
-14.9789 2.4343 -2.5000 0.9403
-15.0648 1.8292 -2.5000 0.9403
-15.1262 1.2211 -2.5000 0.9403
-15.1631 0.6110 -2.5000 0.9403
-13.2898 -0.5356 -2.5000 0.9473
-13.2575 -1.0703 -2.5000 0.9473
-13.1283 -2.1336 -2.5000 0.9473
-12.9141 -3.1830 -2.5000 0.9473
-12.7754 -3.7004 -2.5000 0.9473
-12.6161 -4.2119 -2.5000 0.9473
-12.0164 -5.7018 -2.5000 0.9473
-11.5186 -6.6503 -2.5000 0.9473
-11.2415 -7.1087 -2.5000 0.9473
-10.9462 -7.5556 -2.5000 0.9473
-10.6331 -7.9902 -2.5000 0.9473
-10.3027 -8.4119 -2.5000 0.9473
-9.2137 -9.5924 -2.5000 0.9473
-8.8199 -9.9556 -2.5000 0.9473
-8.4119 -10.3027 -2.5000 0.9473
-7.1087 -11.2415 -2.5000 0.9473
-6.6503 -11.5186 -2.5000 0.9473
-6.1811 -11.7771 -2.5000 0.9473
-5.7019 -12.0164 -2.5000 0.9473
-5.2133 -12.2362 -2.5000 0.9473
-4.2119 -12.6161 -2.5000 0.9473
-3.7005 -12.7754 -2.5000 0.9473
-2.6605 -13.0318 -2.5000 0.9473
-2.1335 -13.1283 -2.5000 0.9473
-0.5317 -13.1929 -2.4818 0.9477
1.0649 -13.1912 -2.4875 0.9476
1.6015 -13.1891 -2.4973 0.9474
2.1336 -13.1283 -2.5000 0.9473
2.6604 -13.0318 -2.5000 0.9473
3.1830 -12.9141 -2.5000 0.9473
3.7004 -12.7754 -2.5000 0.9473
4.7164 -12.4362 -2.5000 0.9473
6.1811 -11.7771 -2.5000 0.9473
7.1087 -11.2415 -2.5000 0.9473
8.4119 -10.3027 -2.5000 0.9473
9.5923 -9.2137 -2.5000 0.9473
10.6330 -7.9902 -2.5000 0.9473
11.2415 -7.1087 -2.5000 0.9473
11.5186 -6.6503 -2.5000 0.9473
12.2362 -5.2134 -2.5000 0.9473
12.4362 -4.7164 -2.5000 0.9473
12.6161 -4.2119 -2.5000 0.9473
12.7754 -3.7005 -2.5000 0.9473
12.9141 -3.1830 -2.5000 0.9473
13.0317 -2.6605 -2.5000 0.9473
13.1283 -2.1336 -2.5000 0.9473
13.2036 -1.6032 -2.5000 0.9473
13.2036 1.6032 -2.5000 0.9473
13.0317 2.6604 -2.5000 0.9473
11.8470 3.9551 -2.3476 0.9504
11.4903 4.8956 -2.3476 0.9504
10.2537 7.0776 -2.3418 0.9506
8.6178 8.9721 -2.3383 0.9506
6.4577 7.9093 -1.9192 0.9593
6.5701 8.7432 -2.0557 0.9565
5.6492 8.1844 -1.8692 0.9603
4.7416 8.2128 -1.7825 0.9621
4.3104 8.2128 -1.7434 0.9630
3.8970 8.2128 -1.7087 0.9637
3.2237 8.5004 -1.7088 0.9637
2.4437 8.4369 -1.6510 0.9649
1.6893 8.2749 -1.5874 0.9662
-0.3879 9.6243 -1.8105 0.9616
-0.6960 8.6213 -1.6257 0.9654
-0.9139 7.5268 -1.4251 0.9696
-2.1740 7.5055 -1.4687 0.9687
-2.4929 7.4670 -1.4797 0.9685
-3.1610 8.3348 -1.6755 0.9644
-3.4962 8.2057 -1.6765 0.9643
-3.8994 7.4295 -1.5771 0.9664
-4.0546 7.0228 -1.5242 0.9675
-5.3553 8.4686 -1.8833 0.9600
-8.5349 8.8857 -2.3158 0.9511
-8.8838 8.5330 -2.3153 0.9511
-9.2183 8.1667 -2.3148 0.9511
-9.5381 7.7876 -2.3145 0.9511
-9.8434 7.3968 -2.3143 0.9511
-10.1587 7.0120 -2.3201 0.9510
-10.7985 6.2345 -2.3437 0.9505
-11.0503 5.7996 -2.3457 0.9505
-11.2810 5.3529 -2.3470 0.9504
-11.6781 4.4290 -2.3476 0.9504
-12.7747 3.7002 -2.4998 0.9473
-13.2574 1.0703 -2.5000 0.9473
-11.7408 -1.4256 -2.5000 0.9528
-10.4723 -5.4963 -2.5000 0.9528
-10.2425 -5.9135 -2.5000 0.9528
-9.9961 -6.3211 -2.5000 0.9528
-9.7334 -6.7185 -2.5000 0.9528
-9.4550 -7.1050 -2.5000 0.9528
-9.1613 -7.4799 -2.5000 0.9528
-8.5296 -8.1928 -2.5000 0.9528
-8.1929 -8.5296 -2.5000 0.9528
-7.8427 -8.8526 -2.5000 0.9528
-7.1050 -9.4550 -2.5000 0.9528
-6.7185 -9.7334 -2.5000 0.9528
-5.4963 -10.4723 -2.5000 0.9528
-5.0702 -10.6851 -2.5000 0.9528
-4.6358 -10.8806 -2.5000 0.9528
-3.2905 -11.3600 -2.5000 0.9528
-2.3657 -11.5880 -2.5000 0.9528
-1.4256 -11.7408 -2.5000 0.9528
-0.9517 -11.7886 -2.5000 0.9528
-0.4762 -11.8174 -2.5000 0.9528
-0.0000 -11.8270 -2.5000 0.9528
1.8972 -11.6738 -2.5000 0.9528
3.7452 -11.2183 -2.5000 0.9528
5.4966 -10.4722 -2.5000 0.9528
5.9137 -10.2424 -2.5000 0.9528
6.7184 -9.7334 -2.5000 0.9528
7.8427 -8.8526 -2.5000 0.9528
8.1928 -8.5296 -2.5000 0.9528
8.8526 -7.8427 -2.5000 0.9528
9.7334 -6.7185 -2.5000 0.9528
10.2425 -5.9135 -2.5000 0.9528
10.4722 -5.4963 -2.5000 0.9528
10.6851 -5.0701 -2.5000 0.9528
11.0584 -4.1939 -2.5000 0.9528
11.3600 -3.2905 -2.5000 0.9528
11.4833 -2.8304 -2.5000 0.9528
11.8270 0.0000 -2.5000 0.9528
11.8173 0.4762 -2.5000 0.9528
11.7886 0.9517 -2.5000 0.9528
11.5879 2.3657 -2.5000 0.9528
10.6675 3.0899 -2.3476 0.9556
10.5344 3.5169 -2.3476 0.9556
10.2173 4.3532 -2.3476 0.9556
9.8338 5.1612 -2.3476 0.9556
9.1400 6.3089 -2.3476 0.9556
7.9619 7.6475 -2.3336 0.9559
6.4675 7.9213 -2.1616 0.9591
5.5947 8.1054 -2.0818 0.9605
3.4991 8.2128 -1.8870 0.9642
3.1952 9.5708 -2.1328 0.9596
2.0369 8.2640 -1.7991 0.9658
1.6893 8.2749 -1.7852 0.9661
1.3448 8.2749 -1.7721 0.9663
0.6778 8.3957 -1.7805 0.9661
-0.6960 8.6216 -1.8284 0.9653
-0.8644 7.1190 -1.5159 0.9711
-2.2129 7.6398 -1.6813 0.9680
-3.8048 8.0184 -1.8761 0.9644
-3.9381 7.5034 -1.7912 0.9659
-4.0801 7.0668 -1.7249 0.9672
-6.6472 8.1413 -2.2216 0.9579
-7.5916 7.9036 -2.3165 0.9562
-8.8786 6.6718 -2.3476 0.9556
-9.1401 6.3089 -2.3476 0.9556
-10.2173 4.3532 -2.3476 0.9556
-10.3843 3.9382 -2.3476 0.9556
-11.4833 2.8304 -2.5000 0.9528
-11.6738 1.8972 -2.5000 0.9528
-11.7886 0.9517 -2.5000 0.9528
-10.6372 -0.0000 -2.5000 0.9572
-10.6286 -0.4283 -2.5000 0.9572
-10.6027 -0.8559 -2.5000 0.9572
-10.4995 -1.7063 -2.5000 0.9572
-10.3281 -2.5457 -2.5000 0.9572
-10.2172 -2.9595 -2.5000 0.9572
-10.0898 -3.3685 -2.5000 0.9572
-9.7860 -4.1694 -2.5000 0.9572
-9.6102 -4.5601 -2.5000 0.9572
-9.4188 -4.9433 -2.5000 0.9572
-9.2121 -5.3186 -2.5000 0.9572
-8.7542 -6.0426 -2.5000 0.9572
-7.9621 -7.0538 -2.5000 0.9572
-6.3902 -8.5038 -2.5000 0.9572
-6.0426 -8.7542 -2.5000 0.9572
-5.3186 -9.2121 -2.5000 0.9572
-4.9434 -9.4188 -2.5000 0.9572
-2.9595 -10.2172 -2.5000 0.9572
-2.1277 -10.4222 -2.5000 0.9572
-1.7064 -10.4995 -2.5000 0.9572
-1.2823 -10.5597 -2.5000 0.9572
0.0000 -10.6372 -2.5000 0.9572
2.1276 -10.4222 -2.5000 0.9572
2.9594 -10.2172 -2.5000 0.9572
3.3684 -10.0898 -2.5000 0.9572
4.1694 -9.7860 -2.5000 0.9572
4.5601 -9.6102 -2.5000 0.9572
4.9434 -9.4188 -2.5000 0.9572
6.3902 -8.5038 -2.5000 0.9572
7.0538 -7.9621 -2.5000 0.9572
7.3686 -7.6716 -2.5000 0.9572
7.6716 -7.3686 -2.5000 0.9572
7.9620 -7.0538 -2.5000 0.9572
8.2396 -6.7275 -2.5000 0.9572
8.5038 -6.3902 -2.5000 0.9572
8.7542 -6.0426 -2.5000 0.9572
8.9904 -5.6852 -2.5000 0.9572
9.4188 -4.9433 -2.5000 0.9572
9.6102 -4.5601 -2.5000 0.9572
9.7860 -4.1694 -2.5000 0.9572
10.2172 -2.9595 -2.5000 0.9572
10.4222 -2.1277 -2.5000 0.9572
10.5596 -1.2822 -2.5000 0.9572
10.6027 -0.8559 -2.5000 0.9572
10.6285 -0.4283 -2.5000 0.9572
10.6372 -0.0000 -2.5000 0.9572
10.6027 0.8559 -2.5000 0.9572
10.5596 1.2822 -2.5000 0.9572
10.4994 1.7063 -2.5000 0.9572
10.3281 2.5456 -2.5000 0.9572
9.5944 2.7790 -2.3476 0.9598
9.4747 3.1631 -2.3476 0.9598
9.3396 3.5421 -2.3476 0.9598
9.0243 4.2821 -2.3476 0.9598
8.6505 4.9944 -2.3476 0.9598
8.4424 5.3386 -2.3476 0.9598
8.2206 5.6743 -2.3476 0.9598
7.9854 6.0007 -2.3476 0.9598
7.7373 6.3173 -2.3476 0.9598
7.4767 6.6238 -2.3476 0.9598
6.5795 7.4268 -2.3319 0.9601
6.2747 7.6851 -2.3317 0.9601
5.9611 7.9328 -2.3321 0.9600
5.6376 8.1675 -2.3324 0.9600
4.2559 8.9691 -2.3332 0.9600
3.5077 8.2328 -2.1032 0.9639
3.4290 9.0417 -2.2727 0.9610
0.3549 8.8077 -2.0717 0.9644
-0.0000 9.5938 -2.2548 0.9613
-0.3879 9.6247 -2.2639 0.9612
-0.8578 7.0648 -1.6726 0.9712
-1.9773 8.0222 -1.9418 0.9666
-2.2130 7.6403 -1.8694 0.9678
-2.3597 7.0680 -1.7513 0.9698
-3.7191 7.8378 -2.0389 0.9650
-4.0852 7.0757 -1.9202 0.9670
-5.2765 8.3440 -2.3202 0.9602
-5.6056 8.1211 -2.3192 0.9603
-5.9258 7.8858 -2.3183 0.9603
-6.8774 7.1601 -2.3333 0.9600
-7.2039 6.9194 -2.3476 0.9598
-7.4767 6.6238 -2.3476 0.9598
-7.7373 6.3173 -2.3476 0.9598
-7.9854 6.0007 -2.3476 0.9598
-8.8446 4.6420 -2.3476 0.9598
-9.0243 4.2821 -2.3476 0.9598
-9.3396 3.5421 -2.3476 0.9598
-9.5944 2.7790 -2.3476 0.9598
-10.4995 1.7063 -2.5000 0.9572
-10.6027 0.8559 -2.5000 0.9572
-10.6286 0.4283 -2.5000 0.9572
-9.6477 -0.3888 -2.5000 0.9609
-9.5851 -1.1638 -2.5000 0.9609
-9.3750 -2.3107 -2.5000 0.9609
-9.1586 -3.0576 -2.5000 0.9609
-9.0281 -3.4239 -2.5000 0.9609
-8.7233 -4.1393 -2.5000 0.9609
-8.5496 -4.4871 -2.5000 0.9609
-8.3619 -4.8278 -2.5000 0.9609
-7.2273 -6.4028 -2.5000 0.9609
-6.9636 -6.6886 -2.5000 0.9609
-6.6886 -6.9636 -2.5000 0.9609
-6.4028 -7.2272 -2.5000 0.9609
-6.1066 -7.4792 -2.5000 0.9609
-5.4850 -7.9463 -2.5000 0.9609
-5.1606 -8.1608 -2.5000 0.9609
-3.4239 -9.0281 -2.5000 0.9609
-1.9313 -9.4604 -2.5000 0.9609
-1.1638 -9.5851 -2.5000 0.9609
-0.7769 -9.6242 -2.5000 0.9609
-0.3888 -9.6477 -2.5000 0.9609
0.3888 -9.6477 -2.5000 0.9609
0.7770 -9.6242 -2.5000 0.9609
1.1638 -9.5851 -2.5000 0.9609
1.5488 -9.5305 -2.5000 0.9609
1.9313 -9.4604 -2.5000 0.9609
2.3107 -9.3749 -2.5000 0.9609
2.6863 -9.2743 -2.5000 0.9609
3.4239 -9.0281 -2.5000 0.9609
4.4871 -8.5495 -2.5000 0.9609
4.8278 -8.3619 -2.5000 0.9609
5.4849 -7.9463 -2.5000 0.9609
5.8005 -7.7190 -2.5000 0.9609
6.6886 -6.9636 -2.5000 0.9609
6.9636 -6.6886 -2.5000 0.9609
7.4792 -6.1066 -2.5000 0.9609
7.7190 -5.8005 -2.5000 0.9609
7.9463 -5.4850 -2.5000 0.9609
8.3619 -4.8278 -2.5000 0.9609
8.8829 -3.7846 -2.5000 0.9609
9.0281 -3.4239 -2.5000 0.9609
9.1586 -3.0576 -2.5000 0.9609
9.5305 -1.5489 -2.5000 0.9609
9.6242 -0.7770 -2.5000 0.9609
9.6477 -0.3888 -2.5000 0.9609
9.6555 0.0000 -2.5000 0.9609
9.6242 0.7769 -2.5000 0.9609
9.5851 1.1638 -2.5000 0.9609
9.5305 1.5488 -2.5000 0.9609
9.4604 1.9313 -2.5000 0.9609
8.4777 3.2152 -2.3476 0.9632
8.0283 4.2136 -2.3476 0.9632
7.8522 4.5334 -2.3476 0.9632
7.2485 5.4469 -2.3476 0.9632
7.0233 5.7343 -2.3476 0.9632
6.5391 6.2809 -2.3476 0.9632
6.0125 6.7867 -2.3476 0.9632
5.4077 7.1964 -2.3307 0.9635
5.1128 7.4071 -2.3303 0.9635
4.8096 7.6057 -2.3300 0.9635
4.4995 7.7933 -2.3300 0.9635
4.1823 7.9687 -2.3301 0.9635
3.8582 8.1310 -2.3303 0.9635
3.5278 8.2800 -2.3303 0.9635
2.4736 8.5400 -2.3021 0.9639
2.0369 8.2640 -2.2037 0.9654
1.3340 8.2084 -2.1532 0.9662
0.9995 8.2318 -2.1470 0.9663
-0.0000 8.9911 -2.3280 0.9635
-0.6959 8.6194 -2.2390 0.9649
-0.8588 7.0726 -1.8447 0.9710
-1.2739 7.8384 -2.0561 0.9677
-1.6005 7.8397 -2.0717 0.9675
-2.3624 7.0761 -1.9315 0.9696
-3.2609 7.6536 -2.1540 0.9662
-3.6310 7.6521 -2.1930 0.9656
-3.9383 7.5037 -2.1942 0.9656
-5.7336 7.0223 -2.3473 0.9632
-6.0125 6.7867 -2.3476 0.9632
-6.7867 6.0125 -2.3476 0.9632
-7.8522 4.5334 -2.3476 0.9632
-8.0284 4.2136 -2.3476 0.9632
-8.4777 3.2151 -2.3476 0.9632
-8.6218 2.8784 -2.3534 0.9631
-9.2743 2.6863 -2.5000 0.9609
-9.3750 2.3107 -2.5000 0.9609
-9.4604 1.9313 -2.5000 0.9609
-9.5305 1.5489 -2.5000 0.9609
-9.6477 0.3888 -2.5000 0.9609
-8.8310 0.0000 -2.5000 0.9640
-8.8023 -0.7106 -2.5000 0.9640
-8.7666 -1.0645 -2.5000 0.9640
-8.4823 -2.4569 -2.5000 0.9640
-8.3765 -2.7965 -2.5000 0.9640
-8.2571 -3.1315 -2.5000 0.9640
-7.9784 -3.7858 -2.5000 0.9640
-7.8194 -4.1040 -2.5000 0.9640
-7.6479 -4.4155 -2.5000 0.9640
-7.2678 -5.0166 -2.5000 0.9640
-6.8405 -5.5851 -2.5000 0.9640
-6.6101 -5.8560 -2.5000 0.9640
-6.3689 -6.1174 -2.5000 0.9640
-6.1174 -6.3689 -2.5000 0.9640
-5.8560 -6.6101 -2.5000 0.9640
-5.3052 -7.0599 -2.5000 0.9640
-4.7199 -7.4638 -2.5000 0.9640
-4.4155 -7.6478 -2.5000 0.9640
-3.7858 -7.9783 -2.5000 0.9640
-3.4614 -8.1243 -2.5000 0.9640
-3.1315 -8.2571 -2.5000 0.9640
-2.7965 -8.3765 -2.5000 0.9640
-1.7664 -8.6525 -2.5000 0.9640
-1.4166 -8.7166 -2.5000 0.9640
-1.0645 -8.7666 -2.5000 0.9640
-0.3556 -8.8238 -2.5000 0.9640
0.7106 -8.8023 -2.5000 0.9640
1.0645 -8.7666 -2.5000 0.9640
2.4569 -8.4823 -2.5000 0.9640
2.7965 -8.3765 -2.5000 0.9640
3.1315 -8.2571 -2.5000 0.9640
4.7198 -7.4639 -2.5000 0.9640
5.5851 -6.8405 -2.5000 0.9640
6.3689 -6.1174 -2.5000 0.9640
6.6101 -5.8560 -2.5000 0.9640
6.8405 -5.5851 -2.5000 0.9640
7.0598 -5.3051 -2.5000 0.9640
7.2677 -5.0166 -2.5000 0.9640
7.6478 -4.4155 -2.5000 0.9640
7.8194 -4.1040 -2.5000 0.9640
7.9783 -3.7858 -2.5000 0.9640
8.2571 -3.1315 -2.5000 0.9640
8.5744 -2.1134 -2.5000 0.9640
8.7166 -1.4166 -2.5000 0.9640
8.7666 -1.0645 -2.5000 0.9640
8.8023 -0.7106 -2.5000 0.9640
8.8238 0.3556 -2.5000 0.9640
8.7666 1.0645 -2.5000 0.9640
8.5744 2.1134 -2.5000 0.9640
8.4823 2.4569 -2.5000 0.9640
8.1231 2.7119 -2.4244 0.9650
7.7537 2.9406 -2.3476 0.9661
7.1816 4.1463 -2.3476 0.9661
7.0088 4.4321 -2.3476 0.9661
6.8247 4.7108 -2.3476 0.9661
6.4235 5.2446 -2.3476 0.9661
5.9807 5.7445 -2.3476 0.9661
5.7445 5.9807 -2.3476 0.9661
5.4990 6.2071 -2.3476 0.9661
5.2446 6.4235 -2.3476 0.9661
4.9817 6.6295 -2.3476 0.9661
4.7107 6.8247 -2.3476 0.9661
4.4269 7.0006 -2.3448 0.9662
4.1211 7.1379 -2.3333 0.9663
2.9159 7.6887 -2.3279 0.9664
2.2876 7.8978 -2.3277 0.9664
1.9677 7.9831 -2.3276 0.9664
1.6445 8.0553 -2.3274 0.9664
0.3309 8.2111 -2.3264 0.9664
-0.0000 8.2164 -2.3260 0.9664
-0.6609 8.1868 -2.3252 0.9664
-1.2436 7.6522 -2.1947 0.9683
-1.8847 7.6464 -2.2294 0.9678
-2.1912 7.5649 -2.2296 0.9678
-2.8386 7.4848 -2.2662 0.9673
-3.8098 7.2589 -2.3208 0.9665
-4.9818 6.6295 -2.3476 0.9661
-6.2071 5.4990 -2.3476 0.9661
-6.6295 4.9817 -2.3476 0.9661
-6.8247 4.7108 -2.3476 0.9661
-7.0088 4.4321 -2.3476 0.9661
-7.1816 4.1463 -2.3476 0.9661
-7.3428 3.8538 -2.3476 0.9661
-8.6525 1.7664 -2.5000 0.9640
-8.7166 1.4166 -2.5000 0.9640
-8.8024 0.7106 -2.5000 0.9640
-8.8238 0.3556 -2.5000 0.9640
-8.1280 0.0000 -2.5000 0.9666
-8.1214 -0.3273 -2.5000 0.9666
-8.0227 -1.3038 -2.5000 0.9666
-7.9635 -1.6258 -2.5000 0.9666
-7.8918 -1.9451 -2.5000 0.9666
-7.7097 -2.5739 -2.5000 0.9666
-7.5998 -2.8822 -2.5000 0.9666
-7.3432 -3.4844 -2.5000 0.9666
-7.1970 -3.7773 -2.5000 0.9666
-6.8697 -4.3441 -2.5000 0.9666
-6.6892 -4.6172 -2.5000 0.9666
-6.2960 -5.1405 -2.5000 0.9666
-6.0839 -5.3898 -2.5000 0.9666
-5.3899 -6.0839 -2.5000 0.9666
-4.8828 -6.4979 -2.5000 0.9666
-4.6172 -6.6892 -2.5000 0.9666
-3.7773 -7.1969 -2.5000 0.9666
-3.1859 -7.4775 -2.5000 0.9666
-2.5739 -7.7097 -2.5000 0.9666
-1.9452 -7.8918 -2.5000 0.9666
-1.6258 -7.9637 -2.5000 0.9666
-0.6540 -8.1016 -2.5000 0.9666
-0.3273 -8.1214 -2.5000 0.9666
0.3273 -8.1214 -2.5000 0.9666
1.6258 -7.9637 -2.5000 0.9666
1.9451 -7.8918 -2.5000 0.9666
2.5738 -7.7097 -2.5000 0.9666
2.8822 -7.5998 -2.5000 0.9666
3.1859 -7.4775 -2.5000 0.9666
3.4844 -7.3432 -2.5000 0.9666
3.7772 -7.1970 -2.5000 0.9666
4.0640 -7.0390 -2.5000 0.9666
4.3441 -6.8697 -2.5000 0.9666
5.3898 -6.0839 -2.5000 0.9666
6.0839 -5.3898 -2.5000 0.9666
6.2959 -5.1405 -2.5000 0.9666
6.4978 -4.8828 -2.5000 0.9666
7.0390 -4.0640 -2.5000 0.9666
7.3432 -3.4844 -2.5000 0.9666
7.5998 -2.8822 -2.5000 0.9666
7.8070 -2.2613 -2.5000 0.9666
7.8918 -1.9452 -2.5000 0.9666
8.0687 -0.9797 -2.5000 0.9666
8.1016 -0.6540 -2.5000 0.9666
8.1280 0.0000 -2.5000 0.9666
8.0227 1.3038 -2.5000 0.9666
7.8071 2.2613 -2.5000 0.9666
7.1811 2.7234 -2.3623 0.9684
6.8955 3.2720 -2.3476 0.9686
6.4509 4.0793 -2.3476 0.9686
6.1017 4.5852 -2.3476 0.9686
5.9121 4.8271 -2.3476 0.9686
5.5045 5.2872 -2.3476 0.9686
5.2872 5.5046 -2.3476 0.9686
5.0613 5.7130 -2.3476 0.9686
4.5851 6.1017 -2.3476 0.9686
4.3357 6.2814 -2.3476 0.9686
3.8162 6.6099 -2.3476 0.9686
3.5470 6.7582 -2.3476 0.9686
2.6952 7.1067 -2.3378 0.9687
2.1050 7.2673 -2.3272 0.9688
1.5129 7.4109 -2.3265 0.9688
1.2131 7.4648 -2.3261 0.9688
0.9114 7.5065 -2.3258 0.9689
0.3044 7.5533 -2.3251 0.9689
0.0000 7.5584 -2.3248 0.9689
-2.1009 7.2532 -2.3226 0.9689
-2.3680 7.0929 -2.3000 0.9692
-2.6945 7.1049 -2.3372 0.9687
-3.5470 6.7582 -2.3476 0.9686
-4.0793 6.4509 -2.3476 0.9686
-5.0613 5.7130 -2.3476 0.9686
-5.5046 5.2872 -2.3476 0.9686
-6.2814 4.3357 -2.3476 0.9686
-6.4509 4.0793 -2.3476 0.9686
-6.6099 3.8162 -2.3476 0.9686
-7.0217 2.9917 -2.3476 0.9686
-8.1214 0.3273 -2.5000 0.9666
-7.5209 -0.0000 -2.5000 0.9688
-7.4965 -0.6052 -2.5000 0.9688
-7.1339 -2.3816 -2.5000 0.9688
-6.6594 -3.4951 -2.5000 0.9688
-6.1896 -4.2724 -2.5000 0.9688
-5.6295 -4.9873 -2.5000 0.9688
-5.2099 -5.4241 -2.5000 0.9688
-4.5181 -6.0125 -2.5000 0.9688
-3.4951 -6.6594 -2.5000 0.9688
-2.9479 -6.9191 -2.5000 0.9688
-2.3816 -7.1338 -2.5000 0.9688
-2.0924 -7.2239 -2.5000 0.9688
-1.7999 -7.3023 -2.5000 0.9688
-1.5044 -7.3689 -2.5000 0.9688
-1.2065 -7.4235 -2.5000 0.9688
-0.9066 -7.4660 -2.5000 0.9688
-0.6052 -7.4965 -2.5000 0.9688
-0.0000 -7.5209 -2.5000 0.9688
0.3028 -7.5148 -2.5000 0.9688
0.9065 -7.4661 -2.5000 0.9688
1.5044 -7.3689 -2.5000 0.9688
1.7999 -7.3023 -2.5000 0.9688
2.0924 -7.2240 -2.5000 0.9688
2.3816 -7.1338 -2.5000 0.9688
2.6669 -7.0322 -2.5000 0.9688
2.9479 -6.9191 -2.5000 0.9688
3.2242 -6.7947 -2.5000 0.9688
3.4951 -6.6594 -2.5000 0.9688
4.0196 -6.3566 -2.5000 0.9688
4.2724 -6.1896 -2.5000 0.9688
4.5181 -6.0125 -2.5000 0.9688
4.9873 -5.6295 -2.5000 0.9688
5.2099 -5.4241 -2.5000 0.9688
5.8257 -4.7566 -2.5000 0.9688
6.3566 -4.0197 -2.5000 0.9688
6.5133 -3.7604 -2.5000 0.9688
6.7947 -3.2241 -2.5000 0.9688
6.9190 -2.9479 -2.5000 0.9688
7.0321 -2.6669 -2.5000 0.9688
7.2239 -2.0924 -2.5000 0.9688
7.3023 -1.7999 -2.5000 0.9688
7.3689 -1.5044 -2.5000 0.9688
7.4965 -0.6052 -2.5000 0.9688
7.5148 -0.3028 -2.5000 0.9688
7.5209 0.0000 -2.5000 0.9688
7.4965 0.6052 -2.5000 0.9688
7.3689 1.5044 -2.5000 0.9688
7.3023 1.7999 -2.5000 0.9688
7.1338 2.3816 -2.5000 0.9688
7.0321 2.6669 -2.5000 0.9688
6.4973 2.7682 -2.3476 0.9707
6.3805 3.0276 -2.3476 0.9707
6.2534 3.2821 -2.3476 0.9707
5.9691 3.7746 -2.3476 0.9707
5.8122 4.0119 -2.3476 0.9707
5.6460 4.2427 -2.3476 0.9707
5.4706 4.4666 -2.3476 0.9707
5.0934 4.8923 -2.3476 0.9707
4.8923 5.0934 -2.3476 0.9707
4.6832 5.2863 -2.3476 0.9707
4.4666 5.4706 -2.3476 0.9707
4.2427 5.6460 -2.3476 0.9707
3.2821 6.2535 -2.3476 0.9707
2.5044 6.6035 -2.3476 0.9707
1.9649 6.7836 -2.3476 0.9707
1.6901 6.8572 -2.3476 0.9707
1.4126 6.9197 -2.3476 0.9707
1.1325 6.9708 -2.3475 0.9707
0.8507 7.0060 -2.3459 0.9707
0.5674 7.0280 -2.3438 0.9707
0.2837 7.0413 -2.3425 0.9707
-0.2838 7.0419 -2.3427 0.9707
-0.8509 7.0078 -2.3465 0.9707
-1.1332 6.9709 -2.3475 0.9707
-1.4127 6.9197 -2.3476 0.9707
-2.5044 6.6035 -2.3476 0.9707
-2.7682 6.4973 -2.3476 0.9707
-3.0276 6.3805 -2.3476 0.9707
-3.2821 6.2535 -2.3476 0.9707
-3.7746 5.9691 -2.3476 0.9707
-4.4666 5.4706 -2.3476 0.9707
-4.8923 5.0934 -2.3476 0.9707
-5.0935 4.8923 -2.3476 0.9707
-5.2863 4.6832 -2.3476 0.9707
-5.4706 4.4666 -2.3476 0.9707
-4.7304 3.5547 -1.9669 0.9754
-5.8122 4.0119 -2.3476 0.9707
-5.9691 3.7746 -2.3476 0.9707
-6.1163 3.5312 -2.3476 0.9707
-6.3806 3.0276 -2.3476 0.9707
-7.0322 2.6669 -2.5000 0.9688
-7.1339 2.3816 -2.5000 0.9688
-7.3689 1.5044 -2.5000 0.9688
-7.4235 1.2064 -2.5000 0.9688
-7.4661 0.9065 -2.5000 0.9688
-7.4965 0.6052 -2.5000 0.9688
-7.5148 0.3028 -2.5000 0.9688
-6.9909 0.0000 -2.5000 0.9707
-6.9852 -0.2815 -2.5000 0.9707
-6.9682 -0.5625 -2.5000 0.9707
-6.9399 -0.8427 -2.5000 0.9707
-6.9004 -1.1214 -2.5000 0.9707
-6.8496 -1.3984 -2.5000 0.9707
-6.7878 -1.6730 -2.5000 0.9707
-6.4315 -2.7402 -2.5000 0.9707
-6.3159 -2.9969 -2.5000 0.9707
-5.7534 -3.9713 -2.5000 0.9707
-5.2328 -4.6358 -2.5000 0.9707
-4.4214 -5.4152 -2.5000 0.9707
-2.9970 -6.3159 -2.5000 0.9707
-2.4790 -6.5366 -2.5000 0.9707
-2.2138 -6.6311 -2.5000 0.9707
-1.6730 -6.7877 -2.5000 0.9707
-1.1214 -6.9003 -2.5000 0.9707
-0.5625 -6.9682 -2.5000 0.9707
-0.0000 -6.9909 -2.5000 0.9707
0.2815 -6.9852 -2.5000 0.9707
0.8426 -6.9399 -2.5000 0.9707
1.3983 -6.8496 -2.5000 0.9707
1.9450 -6.7149 -2.5000 0.9707
2.4790 -6.5366 -2.5000 0.9707
2.7402 -6.4315 -2.5000 0.9707
2.9969 -6.3159 -2.5000 0.9707
3.4954 -6.0543 -2.5000 0.9707
4.1997 -5.5888 -2.5000 0.9707
4.4213 -5.4152 -2.5000 0.9707
4.6358 -5.2327 -2.5000 0.9707
5.2327 -4.6358 -2.5000 0.9707
5.5888 -4.1997 -2.5000 0.9707
6.0542 -3.4954 -2.5000 0.9707
6.1901 -3.2488 -2.5000 0.9707
6.3159 -2.9969 -2.5000 0.9707
6.6311 -2.2138 -2.5000 0.9707
6.7148 -1.9450 -2.5000 0.9707
6.7877 -1.6730 -2.5000 0.9707
6.8496 -1.3983 -2.5000 0.9707
6.9399 -0.8427 -2.5000 0.9707
6.9682 -0.5625 -2.5000 0.9707
6.9852 -0.2815 -2.5000 0.9707
6.9909 0.0000 -2.5000 0.9707
6.7877 1.6730 -2.5000 0.9707
6.7148 1.9450 -2.5000 0.9707
6.6311 2.2138 -2.5000 0.9707
6.5366 2.4790 -2.5000 0.9707
5.8127 3.0508 -2.3476 0.9725
5.5484 3.5086 -2.3476 0.9725
5.4026 3.7292 -2.3476 0.9725
5.0850 4.1518 -2.3476 0.9725
4.7345 4.5475 -2.3476 0.9725
4.5475 4.7345 -2.3476 0.9725
4.3532 4.9137 -2.3476 0.9725
4.1518 5.0850 -2.3476 0.9725
3.9437 5.2481 -2.3476 0.9725
3.2823 5.6852 -2.3476 0.9725
2.5731 6.0394 -2.3476 0.9725
2.3279 6.1381 -2.3476 0.9725
2.0788 6.2268 -2.3476 0.9725
1.8264 6.3055 -2.3476 0.9725
0.2643 6.5594 -2.3476 0.9725
-0.0000 6.5647 -2.3476 0.9725
-0.7913 6.5168 -2.3476 0.9725
-1.5711 6.3739 -2.3476 0.9725
-1.8264 6.3055 -2.3476 0.9725
-2.0788 6.2269 -2.3476 0.9725
-2.3279 6.1381 -2.3476 0.9725
-2.5732 6.0394 -2.3476 0.9725
-3.2824 5.6852 -2.3476 0.9725
-4.3532 4.9138 -2.3476 0.9725
-4.7345 4.5475 -2.3476 0.9725
-5.0851 4.1518 -2.3476 0.9725
-5.4027 3.7292 -2.3476 0.9725
-5.5484 3.5086 -2.3476 0.9725
-5.6852 3.2823 -2.3476 0.9725
-5.8128 3.0508 -2.3476 0.9725
-5.9309 2.8142 -2.3476 0.9725
-6.6311 2.2138 -2.5000 0.9707
-6.8496 1.3983 -2.5000 0.9707
-6.9004 1.1214 -2.5000 0.9707
-6.9399 0.8426 -2.5000 0.9707
-6.9682 0.5625 -2.5000 0.9707
-6.9852 0.2815 -2.5000 0.9707
-3.5504 -0.0000 -1.3606 0.9849
-3.5589 -0.1434 -1.3649 0.9849
-3.5921 -0.4362 -1.3867 0.9846
-6.3341 -1.5612 -2.5000 0.9724
-6.1879 -2.0658 -2.5000 0.9724
-6.0997 -2.3133 -2.5000 0.9724
-5.7764 -3.0317 -2.5000 0.9724
-5.3689 -3.7059 -2.5000 0.9724
-5.2153 -3.9190 -2.5000 0.9724
-4.8830 -4.3260 -2.5000 0.9724
-4.7049 -4.5191 -2.5000 0.9724
-4.1259 -5.0533 -2.5000 0.9724
-3.9190 -5.2153 -2.5000 0.9724
-3.7059 -5.3689 -2.5000 0.9724
-3.2618 -5.6497 -2.5000 0.9724
-3.0317 -5.7764 -2.5000 0.9724
-2.7967 -5.8938 -2.5000 0.9724
-2.3133 -6.0997 -2.5000 0.9724
-1.0465 -6.4392 -2.5000 0.9724
-0.5250 -6.5025 -2.5000 0.9724
-0.0000 -6.5237 -2.5000 0.9724
0.2627 -6.5184 -2.5000 0.9724
0.5249 -6.5025 -2.5000 0.9724
0.7863 -6.4761 -2.5000 0.9724
2.0658 -6.1879 -2.5000 0.9724
2.7966 -5.8938 -2.5000 0.9724
3.0317 -5.7764 -2.5000 0.9724
3.4867 -5.5137 -2.5000 0.9724
3.9190 -5.2153 -2.5000 0.9724
4.1259 -5.0533 -2.5000 0.9724
4.3260 -4.8830 -2.5000 0.9724
4.5191 -4.7049 -2.5000 0.9724
5.0533 -4.1259 -2.5000 0.9724
5.3688 -3.7059 -2.5000 0.9724
5.6496 -3.2618 -2.5000 0.9724
5.8938 -2.7966 -2.5000 0.9724
6.0016 -2.5571 -2.5000 0.9724
6.0997 -2.3133 -2.5000 0.9724
6.2661 -1.8150 -2.5000 0.9724
6.4392 -1.0465 -2.5000 0.9724
6.4761 -0.7864 -2.5000 0.9724
6.5025 -0.5249 -2.5000 0.9724
6.5236 -0.0000 -2.5000 0.9724
6.5184 0.2627 -2.5000 0.9724
6.5025 0.5249 -2.5000 0.9724
6.4392 1.0465 -2.5000 0.9724
6.3918 1.3049 -2.5000 0.9724
6.3341 1.5612 -2.5000 0.9724
6.0997 2.3133 -2.5000 0.9724
6.0016 2.5570 -2.5000 0.9724
5.7135 2.7111 -2.4235 0.9733
5.4243 2.8469 -2.3476 0.9741
5.1776 3.2741 -2.3476 0.9741
4.7452 3.8743 -2.3476 0.9741
4.5853 4.0623 -2.3476 0.9741
4.4181 4.2436 -2.3476 0.9741
4.2436 4.4181 -2.3476 0.9741
4.0623 4.5854 -2.3476 0.9741
3.6801 4.8974 -2.3476 0.9741
3.4800 5.0416 -2.3476 0.9741
3.2741 5.1776 -2.3476 0.9741
2.4012 5.6358 -2.3476 0.9741
1.7043 5.8841 -2.3476 0.9741
1.2253 6.0022 -2.3476 0.9741
0.7384 6.0813 -2.3476 0.9741
0.2467 6.1210 -2.3476 0.9741
-0.0000 6.1260 -2.3476 0.9741
-0.2467 6.1210 -2.3476 0.9741
-0.7384 6.0813 -2.3476 0.9741
-1.4661 5.9479 -2.3476 0.9741
-1.7044 5.8841 -2.3476 0.9741
-1.9399 5.8107 -2.3476 0.9741
-2.8469 5.4243 -2.3476 0.9741
-3.0630 5.3052 -2.3476 0.9741
-3.4800 5.0416 -2.3476 0.9741
-3.6801 4.8974 -2.3476 0.9741
-4.2436 4.4181 -2.3476 0.9741
-4.4181 4.2436 -2.3476 0.9741
-4.5838 3.4445 -2.1973 0.9757
-4.8035 3.3156 -2.2367 0.9753
-5.3053 3.0630 -2.3476 0.9741
-5.4243 2.8469 -2.3476 0.9741
-6.2661 1.8150 -2.5000 0.9724
-6.3341 1.5612 -2.5000 0.9724
-6.3918 1.3049 -2.5000 0.9724
-3.5687 0.2881 -1.3720 0.9848
-3.5589 0.1434 -1.3649 0.9849
-2.9323 -0.3560 -1.2089 0.9873
-3.0070 -0.6139 -1.2561 0.9868
-5.9308 -1.4618 -2.5000 0.9739
-5.8672 -1.6994 -2.5000 0.9739
-5.7940 -1.9343 -2.5000 0.9739
-5.7114 -2.1660 -2.5000 0.9739
-5.5186 -2.6186 -2.5000 0.9739
-5.4087 -2.8387 -2.5000 0.9739
-5.2900 -3.0542 -2.5000 0.9739
-5.0271 -3.4699 -2.5000 0.9739
-4.8833 -3.6695 -2.5000 0.9739
-4.7316 -3.8632 -2.5000 0.9739
-4.5721 -4.0506 -2.5000 0.9739
-4.4054 -4.2314 -2.5000 0.9739
-3.8632 -4.7315 -2.5000 0.9739
-3.6696 -4.8833 -2.5000 0.9739
-3.4699 -5.0271 -2.5000 0.9739
-3.0542 -5.2900 -2.5000 0.9739
-2.8387 -5.4087 -2.5000 0.9739
-2.6186 -5.5186 -2.5000 0.9739
-2.1661 -5.7114 -2.5000 0.9739
-1.6995 -5.8672 -2.5000 0.9739
-1.2218 -5.9849 -2.5000 0.9739
-0.9799 -6.0292 -2.5000 0.9739
-0.4915 -6.0885 -2.5000 0.9739
0.4915 -6.0885 -2.5000 0.9739
1.4618 -5.9308 -2.5000 0.9739
1.6994 -5.8672 -2.5000 0.9739
2.1660 -5.7114 -2.5000 0.9739
2.6186 -5.5186 -2.5000 0.9739
3.0541 -5.2900 -2.5000 0.9739
3.2647 -5.1627 -2.5000 0.9739
