ply
format ascii 1.0
element vertex 1581
property float32 x
property float32 y
property float32 z
property float32 I
end_header
13.9061 -29.3065 -2.3785 0.8780
15.0293 -26.0316 -2.2039 0.8864
15.1017 -23.8814 -2.0718 0.8929
14.8214 -19.7237 -1.8090 0.9058
13.4696 -14.0233 -1.4257 0.9250
18.3773 -13.8096 -1.6855 0.9119
19.9100 -13.7429 -1.7738 0.9075
27.4561 -14.4101 -2.2736 0.8831
30.0683 -11.4034 -2.3579 0.8790
30.4674 -10.1715 -2.3551 0.8791
30.8156 -8.9258 -2.3523 0.8793
31.1127 -7.6686 -2.3495 0.8794
33.4257 -6.8239 -2.5014 0.8721
33.6734 -5.4725 -2.5014 0.8721
33.8664 -4.1121 -2.5014 0.8721
34.0875 1.3737 -2.5014 0.8721
33.8664 4.1121 -2.5014 0.8721
23.3790 4.7729 -1.7496 0.9087
27.3585 7.9244 -2.0884 0.8920
20.0063 6.6791 -1.5465 0.9189
14.3931 6.1323 -1.1471 0.9392
12.9851 6.1615 -1.0539 0.9440
9.9592 5.7499 -0.8432 0.9549
8.9500 5.6596 -0.7764 0.9584
8.4324 5.8205 -0.7513 0.9597
8.0003 6.0118 -0.7338 0.9607
6.9952 5.7114 -0.6622 0.9644
2.6325 2.9715 -0.2911 0.9842
2.5420 3.1134 -0.2947 0.9840
4.3751 5.8222 -0.5340 0.9712
3.8118 6.0279 -0.5229 0.9718
3.5217 6.0997 -0.5164 0.9721
3.1296 5.9628 -0.4938 0.9734
2.0549 6.1551 -0.4758 0.9743
1.7077 5.8956 -0.4501 0.9757
2.7675 17.0293 -1.2650 0.9331
-0.2476 6.1446 -0.4509 0.9756
-0.6257 7.7512 -0.5702 0.9693
-0.7104 5.8507 -0.4321 0.9766
-1.4968 6.0727 -0.4586 0.9752
-1.7082 5.8973 -0.4502 0.9757
-6.1533 16.2249 -1.2723 0.9328
-2.7322 5.7580 -0.4673 0.9748
-2.9309 5.5844 -0.4624 0.9750
-3.4454 5.9676 -0.5052 0.9727
-3.5735 5.6509 -0.4902 0.9735
-3.8798 5.6208 -0.5008 0.9730
-4.6489 5.6938 -0.5390 0.9709
-5.1492 5.3609 -0.5450 0.9706
-5.9017 5.6686 -0.6000 0.9677
-6.0606 5.3691 -0.5937 0.9680
-2.8622 2.3370 -0.2709 0.9853
-4.4685 3.3578 -0.4098 0.9778
-4.3857 3.0272 -0.3907 0.9789
-23.5597 12.3651 -1.9509 0.8988
-23.4569 11.1305 -1.9037 0.9011
-30.5058 11.5693 -2.3922 0.8773
-29.1629 9.7360 -2.2543 0.8840
-29.0669 8.4193 -2.2189 0.8857
-31.7500 7.8257 -2.3977 0.8771
-28.7941 4.6795 -2.1389 0.8896
-28.6360 2.3117 -2.1065 0.8912
-28.5700 1.1513 -2.0965 0.8917
-26.2195 0.0000 -2.5172 0.9000
-26.0725 -2.1048 -2.5112 0.9002
-25.9979 -3.1567 -2.5143 0.9001
-25.9223 -4.2128 -2.5213 0.8998
-25.6880 -6.3315 -2.5400 0.8991
-25.4122 -7.3608 -2.5400 0.8991
-24.7375 -9.3817 -2.5400 0.8991
-24.3397 -10.3702 -2.5400 0.8991
-23.9024 -11.3418 -2.5400 0.8991
-20.4936 -16.7325 -2.5400 0.8991
-19.8032 -17.5441 -2.5400 0.8991
-18.3273 -19.0807 -2.5400 0.8991
-15.8937 -21.1507 -2.5400 0.8991
-14.1403 -22.3610 -2.5400 0.8991
-13.2284 -22.9123 -2.5400 0.8991
-12.2951 -23.4263 -2.5400 0.8991
-11.3418 -23.9024 -2.5400 0.8991
-10.3702 -24.3397 -2.5400 0.8991
-9.3817 -24.7375 -2.5400 0.8991
-4.2653 -14.7254 -1.4718 0.9403
-3.6401 -14.7684 -1.4603 0.9407
-3.0094 -14.7409 -1.4444 0.9413
-1.7834 -14.6875 -1.4204 0.9423
-1.1836 -14.6614 -1.4121 0.9426
0.0000 -14.6099 -1.4026 0.9430
0.5877 -14.5843 -1.4013 0.9430
1.1699 -14.4913 -1.3958 0.9433
1.7646 -14.5330 -1.4055 0.9429
2.9563 -14.4811 -1.4189 0.9423
8.7586 -23.0945 -2.3713 0.9055
9.6769 -22.7124 -2.3702 0.9056
11.4687 -21.8518 -2.3693 0.9056
13.1836 -20.8481 -2.3681 0.9056
14.8102 -19.7088 -2.3668 0.9057
14.8540 -18.1928 -2.2548 0.9099
14.7886 -16.6929 -2.1411 0.9143
13.4696 -14.0233 -1.8668 0.9248
15.6952 -13.9048 -2.0131 0.9192
18.3522 -13.7908 -2.2039 0.9119
20.2315 -13.9648 -2.3601 0.9059
21.2663 -12.2781 -2.3575 0.9060
21.7249 -11.4021 -2.3555 0.9061
24.5021 -8.1800 -2.4800 0.9014
25.0261 -7.2489 -2.5014 0.9006
25.2977 -6.2353 -2.5014 0.9006
25.5283 -5.2117 -2.5014 0.9006
25.7174 -4.1795 -2.5014 0.9006
25.9703 -2.0965 -2.5014 0.9006
26.0337 -1.0491 -2.5014 0.9006
26.0548 0.0000 -2.5014 0.9006
26.0337 1.0491 -2.5014 0.9006
25.9703 2.0965 -2.5014 0.9006
25.8649 3.1406 -2.5014 0.9006
23.8088 5.8683 -2.3542 0.9062
23.5548 6.8227 -2.3543 0.9062
19.9884 6.6731 -2.0231 0.9188
17.5687 6.6629 -1.8039 0.9273
14.2640 6.0773 -1.4885 0.9396
11.4919 6.0314 -1.2460 0.9492
9.9495 5.7443 -1.1030 0.9549
8.0521 6.0508 -0.9670 0.9603
6.3988 5.6688 -0.8207 0.9662
2.6319 2.9708 -0.3810 0.9842
2.5414 3.1127 -0.3858 0.9840
4.2783 5.6934 -0.6837 0.9718
3.9963 5.7896 -0.6754 0.9721
3.4537 5.9820 -0.6631 0.9726
2.9656 5.6504 -0.6126 0.9747
1.8822 5.6379 -0.5706 0.9764
1.6197 5.5918 -0.5589 0.9769
1.3600 5.5175 -0.5456 0.9774
1.1715 5.7381 -0.5623 0.9767
0.9730 5.9867 -0.5823 0.9759
0.2262 5.6130 -0.5393 0.9777
-0.2357 5.8497 -0.5621 0.9767
-0.6877 5.6642 -0.5478 0.9773
-1.4094 5.7181 -0.5654 0.9766
-1.5871 5.4795 -0.5477 0.9773
-1.8367 5.5015 -0.5568 0.9770
-2.3981 5.6286 -0.5874 0.9757
-2.5520 5.3782 -0.5715 0.9764
-2.8039 5.3423 -0.5792 0.9760
-3.4734 5.4927 -0.6239 0.9742
-4.5702 5.5975 -0.6938 0.9714
-4.7586 5.3713 -0.6889 0.9716
-5.0467 5.2542 -0.6994 0.9711
-6.0194 5.3326 -0.7720 0.9682
-2.8622 2.3370 -0.3547 0.9853
-4.4685 3.3578 -0.5366 0.9778
-4.4562 3.0759 -0.5198 0.9785
-22.3610 14.1403 -2.5400 0.8991
-22.9123 13.2284 -2.5400 0.8991
-23.4263 12.2951 -2.5400 0.8991
-25.6880 6.3316 -2.5400 0.8991
-26.1142 4.2440 -2.5400 0.8991
-26.2639 3.1890 -2.5400 0.8991
-21.3829 0.0000 -2.5400 0.9175
-21.3655 -0.8610 -2.5400 0.9175
-21.2270 -2.5774 -2.5400 0.9175
-21.1060 -3.4300 -2.5400 0.9175
-20.7615 -5.1173 -2.5400 0.9175
-19.6718 -8.3814 -2.5400 0.9175
-19.3184 -9.1667 -2.5400 0.9175
-18.9336 -9.9371 -2.5400 0.9175
-17.0944 -12.8456 -2.5400 0.9175
-16.5633 -13.5235 -2.5400 0.9175
-16.0053 -14.1795 -2.5400 0.9175
-14.8124 -15.4214 -2.5400 0.9175
-14.1795 -16.0053 -2.5400 0.9175
-12.8456 -17.0944 -2.5400 0.9175
-12.1469 -17.5978 -2.5400 0.9175
-10.6914 -18.5181 -2.5400 0.9175
-9.9371 -18.9337 -2.5400 0.9175
-8.6168 -18.1596 -2.3876 0.9222
-4.2653 -14.7254 -1.8211 0.9401
-3.6401 -14.7684 -1.8068 0.9406
-1.1836 -14.6614 -1.7472 0.9425
-0.5898 -14.6356 -1.7399 0.9427
1.1699 -14.4913 -1.7270 0.9431
2.3576 -14.5072 -1.7459 0.9425
3.5628 -14.4547 -1.7684 0.9418
4.1791 -14.4279 -1.7843 0.9413
6.3067 -18.8907 -2.3657 0.9229
7.8041 -18.3168 -2.3650 0.9229
9.9495 -17.2331 -2.3637 0.9230
10.6331 -16.8148 -2.3632 0.9230
11.2988 -16.3693 -2.3627 0.9230
11.9458 -15.8970 -2.3621 0.9230
12.5729 -15.3990 -2.3614 0.9230
13.1791 -14.8761 -2.3608 0.9231
13.7634 -14.3292 -2.3601 0.9231
15.8517 -11.9117 -2.3553 0.9232
16.3079 -11.2565 -2.3538 0.9233
16.7367 -10.5837 -2.3522 0.9233
17.5099 -9.1899 -2.3490 0.9234
18.7034 -8.8749 -2.4591 0.9200
19.3729 -8.2540 -2.5014 0.9187
19.9743 -6.6684 -2.5014 0.9187
9.1504 -1.4871 -1.1012 0.9633
21.0409 0.8479 -2.5014 0.9187
19.2306 4.7400 -2.3527 0.9233
19.0374 5.5143 -2.3543 0.9233
18.7999 6.2764 -2.3543 0.9233
17.6100 6.6786 -2.2372 0.9269
13.0108 6.1737 -1.7107 0.9436
9.4460 5.9733 -1.3276 0.9560
8.0476 6.0474 -1.1958 0.9603
6.9571 5.6803 -1.0669 0.9645
5.7830 5.5545 -0.9525 0.9682
2.6312 2.9701 -0.4713 0.9841
2.5408 3.1119 -0.4772 0.9839
4.2684 5.6802 -0.8440 0.9718
2.3909 5.6116 -0.7246 0.9757
2.1815 5.7520 -0.7307 0.9755
1.8284 5.4768 -0.6859 0.9770
1.5901 5.4898 -0.6789 0.9772
1.1795 5.7775 -0.7004 0.9765
0.9331 5.7412 -0.6909 0.9768
0.4443 5.5036 -0.6559 0.9780
0.2166 5.3746 -0.6389 0.9786
0.0000 5.6204 -0.6676 0.9776
-0.2304 5.7175 -0.6797 0.9772
-0.6601 5.4367 -0.6506 0.9782
-0.8852 5.4472 -0.6555 0.9780
-1.3856 5.6214 -0.6877 0.9769
-1.8054 5.4079 -0.6772 0.9773
-2.1208 5.5922 -0.7104 0.9762
-2.3754 5.5754 -0.7199 0.9759
-2.4950 5.2582 -0.6913 0.9768
-3.1062 5.3802 -0.7380 0.9753
-3.4276 5.4203 -0.7618 0.9745
-3.5905 5.2017 -0.7508 0.9749
-3.8573 5.1331 -0.7627 0.9745
-5.0666 5.2748 -0.8688 0.9710
-5.7725 5.5445 -0.9508 0.9683
-6.0018 5.3171 -0.9525 0.9682
-2.8622 2.3370 -0.4389 0.9852
-4.4364 3.0623 -0.6403 0.9785
-18.0726 11.4284 -2.5400 0.9175
-18.5181 10.6915 -2.5400 0.9175
-19.6718 8.3814 -2.5400 0.9175
-19.9934 7.5825 -2.5400 0.9175
-20.5386 5.9491 -2.5400 0.9175
-20.7615 5.1173 -2.5400 0.9175
-21.3135 1.7206 -2.5400 0.9175
-17.9264 0.0000 -2.5400 0.9301
-17.7957 -2.1608 -2.5400 0.9301
-17.6943 -2.8756 -2.5400 0.9301
-17.5642 -3.5857 -2.5400 0.9301
-17.4055 -4.2901 -2.5400 0.9301
-17.0039 -5.6767 -2.5400 0.9301
-16.7615 -6.3568 -2.5400 0.9301
-16.1956 -7.6849 -2.5400 0.9301
-15.5248 -8.9632 -2.5400 0.9301
-14.3311 -10.7692 -2.5400 0.9301
-13.4181 -11.8875 -2.5400 0.9301
-12.9286 -12.4181 -2.5400 0.9301
-11.8874 -13.4181 -2.5400 0.9301
-10.7692 -14.3312 -2.5400 0.9301
-10.1834 -14.7532 -2.5400 0.9301
-8.4254 -14.5932 -2.3876 0.9342
-7.8310 -14.9207 -2.3876 0.9342
-7.2250 -15.2265 -2.3880 0.9342
-5.9761 -15.7577 -2.3879 0.9342
-4.2638 -14.7204 -2.1715 0.9400
-1.8299 -11.2597 -1.6163 0.9550
-0.5898 -14.6356 -2.0754 0.9425
0.0000 -14.6099 -2.0701 0.9427
0.5877 -14.5843 -2.0681 0.9427
1.1699 -14.4913 -2.0599 0.9430
2.3577 -14.5072 -2.0825 0.9424
2.9563 -14.4811 -2.0941 0.9420
3.5578 -14.4345 -2.1064 0.9417
4.1661 -14.3829 -2.1217 0.9413
5.9093 -15.5815 -2.3612 0.9349
6.5311 -15.3290 -2.3609 0.9349
7.7410 -14.7494 -2.3602 0.9349
8.8996 -14.0736 -2.3593 0.9349
9.4561 -13.6996 -2.3586 0.9350
9.9962 -13.3025 -2.3577 0.9350
10.5194 -12.8839 -2.3567 0.9350
11.9794 -11.5063 -2.3535 0.9351
12.8535 -10.4945 -2.3511 0.9352
13.2586 -9.9632 -2.3499 0.9352
15.2889 -8.8270 -2.5014 0.9312
15.6319 -8.2043 -2.5014 0.9312
15.9496 -7.5682 -2.5014 0.9312
16.2414 -6.9198 -2.5014 0.9312
16.5069 -6.2602 -2.5014 0.9312
16.9571 -4.9117 -2.5014 0.9312
8.6844 -1.7729 -1.2559 0.9648
17.6398 -0.7108 -2.5014 0.9312
17.5254 2.1280 -2.5014 0.9312
16.1144 3.9719 -2.3516 0.9351
15.7610 5.2618 -2.3543 0.9351
11.5050 6.0383 -1.8410 0.9489
9.3969 5.9423 -1.5753 0.9561
8.4415 5.8267 -1.4533 0.9594
7.9592 5.9809 -1.4106 0.9606
6.9675 5.6888 -1.2745 0.9643
6.5588 5.8105 -1.2415 0.9652
2.5402 3.1112 -0.5691 0.9839
3.9623 5.7404 -0.9883 0.9722
3.4418 5.9613 -0.9753 0.9726
2.9929 5.7024 -0.9125 0.9743
1.8365 5.5010 -0.8217 0.9768
1.3529 5.4887 -0.8010 0.9774
0.9188 5.6530 -0.8115 0.9771
0.6736 5.5470 -0.7917 0.9777
0.4425 5.4812 -0.7792 0.9780
0.0000 5.4804 -0.7765 0.9781
-0.4512 5.5897 -0.7946 0.9776
-0.6691 5.5108 -0.7866 0.9778
-1.1425 5.5963 -0.8093 0.9772
-1.8008 5.3942 -0.8058 0.9773
-2.5253 5.3219 -0.8346 0.9765
-2.7569 5.2529 -0.8406 0.9763
-3.0751 5.3262 -0.8714 0.9755
-3.4200 5.4082 -0.9066 0.9745
-3.5815 5.1887 -0.8933 0.9749
-4.5670 5.5935 -1.0232 0.9712
-4.7596 5.3725 -1.0170 0.9714
-5.0193 5.2255 -1.0266 0.9712
-14.7532 10.1834 -2.5400 0.9301
-15.5247 8.9632 -2.5400 0.9301
-15.8731 8.3309 -2.5400 0.9301
-16.4920 7.0266 -2.5400 0.9301
-17.5642 3.5858 -2.5400 0.9301
-17.8683 1.4425 -2.5400 0.9301
-17.9119 0.7218 -2.5400 0.9301
-15.3682 -1.2406 -2.5400 0.9394
-15.3058 -1.8584 -2.5400 0.9394
-15.2186 -2.4732 -2.5400 0.9394
-14.6247 -4.8824 -2.5400 0.9394
-14.4163 -5.4674 -2.5400 0.9394
-14.1844 -6.0434 -2.5400 0.9394
-13.9296 -6.6097 -2.5400 0.9394
-13.6521 -7.1652 -2.5400 0.9394
-13.0313 -8.2405 -2.5400 0.9394
-12.3260 -9.2624 -2.5400 0.9394
-11.9430 -9.7512 -2.5400 0.9394
-10.6806 -11.1196 -2.5400 0.9394
-9.2461 -12.3044 -2.5355 0.9395
-8.7126 -12.6224 -2.5267 0.9397
-7.6495 -12.0967 -2.3578 0.9436
-7.1501 -12.3844 -2.3558 0.9437
-6.1178 -12.8930 -2.3510 0.9438
-5.5890 -13.1179 -2.3490 0.9438
-3.9808 -13.7434 -2.3571 0.9436
-3.4248 -13.8951 -2.3576 0.9436
-2.8630 -14.0240 -2.3580 0.9436
-1.7257 -14.2124 -2.3585 0.9436
0.0000 -14.3194 -2.3590 0.9436
0.5766 -14.3079 -2.3590 0.9436
1.1522 -14.2729 -2.3590 0.9436
2.2967 -14.1324 -2.3587 0.9436
3.4258 -13.8990 -2.3582 0.9436
4.5318 -13.5742 -2.3575 0.9436
5.6071 -13.1604 -2.3566 0.9437
6.1311 -12.9210 -2.3561 0.9437
6.6447 -12.6605 -2.3555 0.9437
8.5792 -11.4168 -2.3526 0.9438
9.0287 -11.0582 -2.3518 0.9438
10.8757 -9.6350 -2.3936 0.9428
11.6941 -9.5479 -2.4870 0.9406
12.1387 -9.1216 -2.5014 0.9403
12.4962 -8.6255 -2.5014 0.9403
13.9689 -5.9516 -2.5014 0.9403
14.5845 -4.2244 -2.5014 0.9403
8.1556 -1.6650 -1.3713 0.9668
8.2264 -1.3369 -1.3730 0.9668
9.4930 -0.7663 -1.5690 0.9621
15.1716 -0.6114 -2.5014 0.9403
15.1840 0.0000 -2.5014 0.9403
15.1347 1.2218 -2.5014 0.9403
14.9873 2.4357 -2.5014 0.9403
13.1931 3.2518 -2.2385 0.9464
13.7147 3.9725 -2.3522 0.9438
13.5523 4.5244 -2.3537 0.9437
11.5121 6.0420 -2.1418 0.9487
9.4605 5.9825 -1.8440 0.9556
8.4679 5.8450 -1.6950 0.9591
5.8066 5.5773 -1.3264 0.9679
2.6300 2.9686 -0.6534 0.9841
2.5396 3.1104 -0.6615 0.9839
4.2923 5.7120 -1.1771 0.9715
3.6927 5.8396 -1.1382 0.9724
3.3986 5.8864 -1.1198 0.9728
2.9474 5.6157 -1.0448 0.9746
2.6586 5.6028 -1.0216 0.9752
2.4042 5.6428 -1.0105 0.9754
2.1495 5.6677 -0.9986 0.9757
1.6140 5.5721 -0.9557 0.9768
1.3668 5.5452 -0.9409 0.9771
1.1724 5.7427 -0.9656 0.9765
0.9344 5.7495 -0.9596 0.9767
0.6759 5.5662 -0.9237 0.9775
0.4375 5.4182 -0.8955 0.9782
0.0000 5.6071 -0.9237 0.9775
-0.2282 5.6630 -0.9337 0.9773
-0.4501 5.5754 -0.9215 0.9776
-0.6690 5.5104 -0.9144 0.9777
-0.8789 5.4083 -0.9026 0.9780
-1.1008 5.3923 -0.9066 0.9779
-1.3801 5.5994 -0.9501 0.9769
-1.5493 5.3489 -0.9174 0.9777
-2.0916 5.5150 -0.9717 0.9764
-2.3615 5.5426 -0.9925 0.9759
-3.0767 5.3291 -1.0137 0.9754
-3.5914 5.2030 -1.0415 0.9747
-4.4986 5.5097 -1.1718 0.9716
-4.7479 5.3592 -1.1795 0.9714
-5.0408 5.2480 -1.1988 0.9709
-5.7209 5.4950 -1.3068 0.9684
-6.0010 5.3163 -1.3207 0.9680
-2.8622 2.3370 -0.6087 0.9851
-13.3526 7.7091 -2.5400 0.9394
-13.6521 7.1652 -2.5400 0.9394
-14.1844 6.0434 -2.5400 0.9394
-14.8095 4.2896 -2.5400 0.9394
-14.9702 3.6898 -2.5400 0.9394
-15.4057 0.6208 -2.5400 0.9394
-13.4696 -1.0874 -2.5400 0.9465
-13.1207 -3.2340 -2.5400 0.9465
-12.9798 -3.7596 -2.5400 0.9465
-12.6352 -4.7919 -2.5400 0.9465
-12.4320 -5.2968 -2.5400 0.9465
-11.9655 -6.2800 -2.5400 0.9465
-11.4214 -7.2225 -2.5400 0.9465
-11.1213 -7.6765 -2.5400 0.9465
-10.8032 -8.1181 -2.5400 0.9465
-10.1149 -8.9610 -2.5400 0.9465
-8.4612 -10.3631 -2.5146 0.9470
-8.0145 -10.6654 -2.5076 0.9471
-6.2486 -10.8229 -2.3490 0.9504
-3.9629 -11.8704 -2.3522 0.9503
-3.4824 -12.0226 -2.3527 0.9503
-2.9960 -12.1551 -2.3531 0.9503
-1.5095 -12.4321 -2.3539 0.9503
-0.5043 -12.5149 -2.3542 0.9503
0.0000 -12.5254 -2.3543 0.9503
0.5044 -12.5154 -2.3543 0.9503
1.5097 -12.4337 -2.3542 0.9503
2.5050 -12.2703 -2.3539 0.9503
3.4835 -12.0264 -2.3534 0.9503
3.9644 -11.8747 -2.3531 0.9503
4.9054 -11.5133 -2.3523 0.9503
5.3639 -11.3042 -2.3518 0.9503
6.2533 -10.8310 -2.3507 0.9504
7.1008 -10.2872 -2.3495 0.9504
7.5076 -9.9908 -2.3490 0.9504
8.6765 -9.7937 -2.4593 0.9481
9.2188 -9.5978 -2.5014 0.9473
9.5978 -9.2188 -2.5014 0.9473
9.9612 -8.8249 -2.5014 0.9473
10.6390 -7.9947 -2.5014 0.9473
11.2478 -7.1127 -2.5014 0.9473
11.5251 -6.6540 -2.5014 0.9473
12.2431 -5.2163 -2.5014 0.9473
12.4433 -4.7191 -2.5014 0.9473
12.6232 -4.2142 -2.5014 0.9473
8.0621 -2.3352 -1.5777 0.9664
7.9684 -1.9640 -1.5426 0.9671
7.9416 -1.6213 -1.5235 0.9675
8.0964 -0.9831 -1.5330 0.9674
8.5595 -0.6910 -1.6141 0.9657
13.2973 -0.5359 -2.5014 0.9473
13.2973 0.5359 -2.5014 0.9473
13.2110 1.6041 -2.5014 0.9473
13.1357 2.1348 -2.5014 0.9473
12.1393 2.9921 -2.3500 0.9504
11.8725 3.9637 -2.3526 0.9503
11.7098 4.4409 -2.3540 0.9503
11.5233 4.9096 -2.3543 0.9503
11.3163 5.3696 -2.3543 0.9503
10.4233 6.0179 -2.2623 0.9522
9.5606 6.0458 -2.1262 0.9550
8.4315 5.8198 -1.9257 0.9592
7.0538 5.7592 -1.7116 0.9636
6.7359 5.9674 -1.6915 0.9640
5.8983 5.6653 -1.5372 0.9673
2.5390 3.1097 -0.7546 0.9838
4.2772 5.6919 -1.3383 0.9714
3.9557 5.7308 -1.3089 0.9721
3.6951 5.8432 -1.2995 0.9723
1.8682 5.5959 -1.1089 0.9763
1.3592 5.5143 -1.0675 0.9771
1.1292 5.5309 -1.0610 0.9773
0.9341 5.7474 -1.0945 0.9766
0.6765 5.5709 -1.0548 0.9774
0.0000 5.6117 -1.0548 0.9774
-0.2253 5.5919 -1.0519 0.9775
-0.4476 5.5453 -1.0457 0.9776
-0.6666 5.4901 -1.0395 0.9777
-0.8884 5.4670 -1.0411 0.9777
-1.3626 5.5281 -1.0702 0.9771
-1.5346 5.2980 -1.0368 0.9778
-2.4700 5.2053 -1.0830 0.9768
-2.7556 5.2504 -1.1145 0.9762
-3.0549 5.2912 -1.1484 0.9754
-3.4109 5.3939 -1.1995 0.9744
-3.5604 5.1581 -1.1781 0.9748
-4.5031 5.5153 -1.3383 0.9714
-4.7763 5.3912 -1.3538 0.9711
-5.6924 5.4676 -1.4836 0.9684
-6.0627 5.3710 -1.5224 0.9676
-2.8622 2.3370 -0.6945 0.9851
-10.1550 7.6310 -2.3876 0.9496
-10.4540 7.2159 -2.3876 0.9496
-11.4214 7.2225 -2.5400 0.9465
-11.7029 6.7567 -2.5400 0.9465
-12.2087 5.7931 -2.5400 0.9465
-12.4320 5.2968 -2.5400 0.9465
-12.8179 4.2793 -2.5400 0.9465
-13.2403 2.7030 -2.5400 0.9465
-13.3384 2.1677 -2.5400 0.9465
-13.4148 1.6289 -2.5400 0.9465
-12.0162 0.0000 -2.5400 0.9521
-12.0065 -0.4838 -2.5400 0.9521
-11.8606 -1.9275 -2.5400 0.9521
-11.2353 -4.2610 -2.5400 0.9521
-11.0547 -4.7100 -2.5400 0.9521
-10.6398 -5.5842 -2.5400 0.9521
-9.8892 -6.8259 -2.5400 0.9521
-9.5960 -7.2109 -2.5373 0.9521
-8.9381 -7.9184 -2.5241 0.9524
-8.5862 -8.2471 -2.5165 0.9525
-7.8620 -8.8743 -2.5061 0.9527
-7.4898 -9.1734 -2.5033 0.9527
-7.1115 -9.4637 -2.5023 0.9528
-5.9168 -10.2482 -2.5014 0.9528
-4.4626 -10.4742 -2.4066 0.9545
-3.9694 -10.4664 -2.3661 0.9553
-3.5190 -10.5408 -2.3490 0.9556
-1.7834 -10.9738 -2.3501 0.9556
-0.8947 -11.0835 -2.3504 0.9556
-0.4478 -11.1111 -2.3506 0.9556
0.0000 -11.1204 -2.3506 0.9556
0.4478 -11.1115 -2.3507 0.9556
1.3404 -11.0391 -2.3506 0.9556
1.7837 -10.9756 -2.3505 0.9556
2.2241 -10.8942 -2.3503 0.9556
2.6607 -10.7949 -2.3501 0.9556
3.5199 -10.5434 -2.3496 0.9556
3.9410 -10.3917 -2.3493 0.9556
4.7820 -10.0779 -2.3579 0.9554
5.7714 -9.9963 -2.4399 0.9539
6.7223 -9.7389 -2.5014 0.9528
7.1090 -9.4603 -2.5014 0.9528
7.8472 -8.8576 -2.5014 0.9528
8.1975 -8.5345 -2.5014 0.9528
8.5344 -8.1975 -2.5014 0.9528
8.8576 -7.8472 -2.5014 0.9528
9.1664 -7.4842 -2.5014 0.9528
10.0017 -6.3247 -2.5014 0.9528
10.6911 -5.0730 -2.5014 0.9528
10.8867 -4.6384 -2.5014 0.9528
11.2246 -3.7473 -2.5014 0.9528
7.9958 -0.9709 -1.7026 0.9676
11.7953 0.9522 -2.5014 0.9528
11.6804 1.8983 -2.5014 0.9528
10.6812 3.0939 -2.3506 0.9556
10.4080 3.9472 -2.3529 0.9555
10.2456 4.3652 -2.3541 0.9555
10.0625 4.7747 -2.3543 0.9555
8.5249 5.8843 -2.1896 0.9585
2.7950 2.9099 -0.8529 0.9836
2.6287 2.9672 -0.8379 0.9839
3.9232 5.6838 -1.4599 0.9722
2.9597 5.6392 -1.3462 0.9743
2.3920 5.6141 -1.2899 0.9754
1.6037 5.5365 -1.2184 0.9767
0.9267 5.7020 -1.2211 0.9767
0.4433 5.4902 -1.1643 0.9777
0.2195 5.4449 -1.1519 0.9780
0.0000 5.6098 -1.1858 0.9773
-0.2262 5.6131 -1.1875 0.9773
-0.8860 5.4519 -1.1675 0.9777
-1.3352 5.4172 -1.1794 0.9774
-2.7658 5.2697 -1.2580 0.9760
-3.1563 5.4669 -1.3344 0.9745
-3.6441 5.2794 -1.3560 0.9741
-4.4762 5.4823 -1.4961 0.9715
-4.7502 5.3618 -1.5142 0.9711
-4.9958 5.2011 -1.5244 0.9709
-5.8622 5.6307 -1.7182 0.9673
-6.0213 5.3343 -1.7004 0.9676
-9.5466 6.0369 -2.3876 0.9549
-9.7819 5.6476 -2.3876 0.9549
-10.0014 5.2492 -2.3876 0.9549
-11.0547 4.7100 -2.5400 0.9521
-11.3978 3.8052 -2.5400 0.9521
-11.9286 1.4484 -2.5400 0.9521
-12.0065 0.4838 -2.5400 0.9521
-10.7723 -0.8696 -2.5400 0.9566
-10.7286 -1.3027 -2.5400 0.9566
-10.5890 -2.1617 -2.5400 0.9566
-10.3807 -3.0068 -2.5400 0.9566
-10.2512 -3.4223 -2.5400 0.9566
-10.1051 -3.8321 -2.5400 0.9566
-9.3268 -5.3848 -2.5311 0.9567
-8.5569 -6.4301 -2.5156 0.9570
-6.7342 -8.2479 -2.5025 0.9572
-6.3958 -8.5113 -2.5022 0.9572
-5.6887 -8.9959 -2.5015 0.9572
-5.3216 -9.2173 -2.5014 0.9572
-4.5627 -9.6156 -2.5014 0.9572
-2.9611 -10.2230 -2.5014 0.9572
-2.5471 -10.3339 -2.5014 0.9572
-2.1196 -10.3825 -2.4905 0.9574
-0.4162 -10.3279 -2.4293 0.9584
0.8292 -10.2720 -2.4220 0.9585
1.2448 -10.2518 -2.4271 0.9585
2.0838 -10.2073 -2.4484 0.9581
2.5095 -10.1813 -2.4644 0.9578
3.7741 -9.9516 -2.5014 0.9572
4.5627 -9.6156 -2.5014 0.9572
5.3216 -9.2173 -2.5014 0.9572
5.6884 -8.9955 -2.5014 0.9572
6.3938 -8.5086 -2.5014 0.9572
6.7312 -8.2443 -2.5014 0.9572
7.0577 -7.9665 -2.5014 0.9572
7.3728 -7.6759 -2.5014 0.9572
7.6759 -7.3728 -2.5014 0.9572
8.7592 -6.0460 -2.5014 0.9572
8.9955 -5.6884 -2.5014 0.9572
9.9516 -3.7741 -2.5014 0.9572
7.8830 -2.2833 -1.9288 0.9668
7.8042 -1.9236 -1.8891 0.9675
7.7945 -1.5913 -1.8697 0.9678
7.9282 -0.9627 -1.8770 0.9677
10.6346 -0.4286 -2.5014 0.9572
10.5054 1.7073 -2.5014 0.9572
9.6043 2.7819 -2.3500 0.9597
9.4887 3.1678 -2.3511 0.9597
9.0496 4.2941 -2.3542 0.9597
8.8700 4.6553 -2.3543 0.9597
8.6754 5.0087 -2.3543 0.9597
8.2442 5.6906 -2.3543 0.9597
8.0084 6.0179 -2.3543 0.9597
7.0090 5.7227 -2.1266 0.9635
6.8570 6.0748 -2.1530 0.9631
5.8585 5.6271 -1.9091 0.9672
2.7941 2.9089 -0.9480 0.9836
3.9598 5.7367 -1.6383 0.9718
3.6652 5.7959 -1.6117 0.9722
2.9820 5.6816 -1.5080 0.9740
2.1657 5.7105 -1.4354 0.9752
0.0000 5.5558 -1.3058 0.9774
-0.4432 5.4905 -1.2946 0.9776
-0.6656 5.4820 -1.2979 0.9776
-0.8723 5.3679 -1.2781 0.9779
-1.1109 5.4419 -1.3054 0.9774
-1.5685 5.4150 -1.3250 0.9771
-1.8097 5.4207 -1.3431 0.9768
-2.3300 5.4687 -1.3971 0.9759
-2.7806 5.2980 -1.4062 0.9757
-3.4170 5.4035 -1.5026 0.9741
-4.6094 5.6455 -1.7129 0.9705
-4.7767 5.3917 -1.6930 0.9708
-5.8646 5.6330 -1.9111 0.9671
-8.1215 6.1029 -2.3876 0.9591
-8.3607 5.7709 -2.3876 0.9591
-8.5862 5.4296 -2.3876 0.9591
-8.7979 5.0795 -2.3876 0.9591
-9.1781 4.3550 -2.3876 0.9591
-9.3460 3.9820 -2.3876 0.9591
-9.4979 3.6021 -2.3874 0.9591
-9.6318 3.2156 -2.3865 0.9591
-10.6674 1.7336 -2.5400 0.9566
-10.7286 1.3027 -2.5400 0.9566
-10.7986 0.4352 -2.5400 0.9566
-9.7984 0.0000 -2.5370 0.9603
-9.7901 -0.3945 -2.5369 0.9603
-9.1223 -3.4596 -2.5261 0.9605
-8.7912 -4.1715 -2.5194 0.9606
-8.6057 -4.5166 -2.5164 0.9606
-7.4904 -6.1158 -2.5037 0.9608
-7.2373 -6.4117 -2.5035 0.9608
-6.9725 -6.6972 -2.5032 0.9608
-6.6965 -6.9718 -2.5029 0.9608
-6.4096 -7.2350 -2.5027 0.9608
-6.1124 -7.4864 -2.5024 0.9609
-3.0593 -9.1638 -2.5014 0.9609
-2.6879 -9.2795 -2.5014 0.9609
-2.3120 -9.3802 -2.5014 0.9609
-1.9324 -9.4657 -2.5014 0.9609
-1.5497 -9.5358 -2.5014 0.9609
-0.7774 -9.6296 -2.5014 0.9609
-0.3890 -9.6531 -2.5014 0.9609
-0.0000 -9.6610 -2.5014 0.9609
0.3890 -9.6531 -2.5014 0.9609
0.7774 -9.6296 -2.5014 0.9609
1.1645 -9.5905 -2.5014 0.9609
1.9324 -9.4657 -2.5014 0.9609
2.6879 -9.2795 -2.5014 0.9609
4.8305 -8.3666 -2.5014 0.9609
5.1634 -8.1653 -2.5014 0.9609
5.8037 -7.7234 -2.5014 0.9609
6.4064 -7.2313 -2.5014 0.9609
6.6924 -6.9675 -2.5014 0.9609
6.9675 -6.6924 -2.5014 0.9609
7.2313 -6.4064 -2.5014 0.9609
7.7234 -5.8038 -2.5014 0.9609
8.3666 -4.8305 -2.5014 0.9609
8.5544 -4.4897 -2.5014 0.9609
9.0332 -3.4258 -2.5014 0.9609
7.8432 -2.2718 -2.1142 0.9668
7.7878 -1.5899 -2.0580 0.9677
8.1583 -0.6586 -2.1192 0.9667
9.6610 -0.0000 -2.5014 0.9609
9.6531 0.3890 -2.5014 0.9609
9.6296 0.7774 -2.5014 0.9609
9.5905 1.1645 -2.5014 0.9609
9.5358 1.5497 -2.5014 0.9609
9.4657 1.9324 -2.5014 0.9609
8.7161 2.5246 -2.3495 0.9632
8.3583 3.5611 -2.3523 0.9632
8.0509 4.2254 -2.3542 0.9631
7.8747 4.5465 -2.3543 0.9631
7.4834 5.1654 -2.3543 0.9631
7.0435 5.7508 -2.3543 0.9631
2.7931 2.9079 -1.0440 0.9835
3.3931 5.8770 -1.7571 0.9723
2.6445 5.5730 -1.5972 0.9748
1.6043 5.5385 -1.4930 0.9765
1.3683 5.5512 -1.4803 0.9767
0.6730 5.5426 -1.4456 0.9772
0.4337 5.3720 -1.3955 0.9780
0.0000 5.6236 -1.4561 0.9770
-0.2263 5.6161 -1.4553 0.9770
-0.6643 5.4714 -1.4270 0.9775
-1.7965 5.3811 -1.4689 0.9768
-2.3397 5.4914 -1.5455 0.9756
-2.7654 5.2691 -1.5407 0.9757
-3.1277 5.4174 -1.6197 0.9745
-3.4332 5.4291 -1.6632 0.9738
-3.5980 5.2126 -1.6399 0.9742
-3.8894 5.1759 -1.6763 0.9736
-4.7501 5.3617 -1.8547 0.9708
-6.0095 5.3239 -2.0787 0.9674
-2.8622 2.3370 -0.9567 0.9848
-7.7935 4.9283 -2.3875 0.9626
-7.9820 4.6084 -2.3864 0.9626
-8.3123 3.9442 -2.3822 0.9627
-8.4584 3.6038 -2.3805 0.9627
-8.8088 2.5515 -2.3745 0.9628
-9.5870 1.9572 -2.5334 0.9604
-9.7219 1.1804 -2.5357 0.9603
-9.7883 0.3945 -2.5364 0.9603
-8.8745 -0.7164 -2.5205 0.9637
-8.8364 -1.0728 -2.5199 0.9637
-8.7829 -1.4275 -2.5190 0.9637
-8.6304 -2.1272 -2.5163 0.9637
-8.5318 -2.4713 -2.5146 0.9637
-8.4188 -2.8106 -2.5126 0.9638
-8.1540 -3.4741 -2.5091 0.9638
-8.0023 -3.7971 -2.5075 0.9638
-7.6615 -4.4234 -2.5044 0.9639
-7.4765 -4.7278 -2.5042 0.9639
-7.0705 -5.3131 -2.5038 0.9639
-6.8502 -5.5930 -2.5035 0.9639
-6.6188 -5.8637 -2.5033 0.9639
-6.3767 -6.1249 -2.5030 0.9639
-6.1243 -6.3760 -2.5028 0.9639
-5.5902 -6.8468 -2.5023 0.9639
-5.3095 -7.0656 -2.5020 0.9639
-4.4180 -7.6521 -2.5014 0.9639
-4.1063 -7.8238 -2.5014 0.9639
-3.7879 -7.9828 -2.5014 0.9639
-2.7981 -8.3812 -2.5014 0.9639
-2.1146 -8.5792 -2.5014 0.9639
-1.4174 -8.7215 -2.5014 0.9639
-1.0651 -8.7715 -2.5014 0.9639
-0.7110 -8.8073 -2.5014 0.9639
-0.3558 -8.8288 -2.5014 0.9639
0.0000 -8.8360 -2.5014 0.9639
1.0651 -8.7715 -2.5014 0.9639
1.7674 -8.6574 -2.5014 0.9639
2.1146 -8.5792 -2.5014 0.9639
3.1333 -8.2618 -2.5014 0.9639
3.7879 -7.9828 -2.5014 0.9639
4.1063 -7.8238 -2.5014 0.9639
4.4180 -7.6522 -2.5014 0.9639
4.7225 -7.4681 -2.5014 0.9639
5.0194 -7.2718 -2.5014 0.9639
5.3081 -7.0638 -2.5014 0.9639
5.5883 -6.8444 -2.5014 0.9639
6.3725 -6.1209 -2.5014 0.9639
6.6138 -5.8593 -2.5014 0.9639
7.0638 -5.3081 -2.5014 0.9639
7.4681 -4.7225 -2.5014 0.9639
7.6521 -4.4180 -2.5014 0.9639
8.2618 -3.1333 -2.5014 0.9639
8.4454 -2.4462 -2.4891 0.9641
8.5792 -2.1146 -2.5014 0.9639
8.6574 -1.7674 -2.5014 0.9639
8.7715 -1.0651 -2.5014 0.9639
8.4098 -0.6789 -2.3885 0.9655
8.8288 0.3558 -2.5014 0.9639
8.5792 2.1146 -2.5014 0.9639
7.7645 2.9447 -2.3508 0.9661
7.3608 3.8632 -2.3533 0.9660
7.0290 4.4449 -2.3543 0.9660
6.8443 4.7243 -2.3543 0.9660
6.6485 4.9960 -2.3543 0.9660
6.2250 5.5148 -2.3543 0.9660
2.7921 2.9069 -1.1411 0.9834
2.6268 2.9650 -1.1214 0.9837
3.9385 5.7059 -1.9627 0.9716
3.7026 5.8551 -1.9612 0.9716
2.6446 5.5732 -1.7463 0.9747
0.9361 5.7600 -1.6520 0.9760
0.6755 5.5625 -1.5863 0.9770
0.2181 5.4102 -1.5329 0.9777
0.0000 5.6312 -1.5942 0.9769
-0.2266 5.6237 -1.5933 0.9769
-0.4480 5.5498 -1.5762 0.9771
-0.6610 5.4442 -1.5525 0.9775
-1.3392 5.4333 -1.5842 0.9770
-1.5538 5.3643 -1.5810 0.9771
-2.0737 5.4678 -1.6555 0.9760
-2.3430 5.4993 -1.6922 0.9755
-3.0882 5.3489 -1.7485 0.9747
-3.6424 5.2769 -1.8152 0.9737
-4.5724 5.6001 -2.0467 0.9704
-6.0563 5.3654 -2.2905 0.9669
-2.8622 2.3370 -1.0460 0.9848
-6.7082 5.0409 -2.3755 0.9657
-6.9014 4.7637 -2.3740 0.9657
-7.0815 4.4781 -2.3719 0.9658
-7.2484 4.1849 -2.3694 0.9658
-7.9088 2.6404 -2.3604 0.9659
-8.0045 2.3185 -2.3592 0.9659
-8.7789 1.4267 -2.5179 0.9637
-8.8332 1.0725 -2.5190 0.9637
-8.8724 0.7163 -2.5199 0.9637
-8.8962 0.3585 -2.5205 0.9637
-8.0941 -0.9828 -2.5078 0.9665
-7.9847 -1.6301 -2.5066 0.9665
-7.7256 -2.5792 -2.5052 0.9665
-7.4919 -3.1920 -2.5048 0.9665
-6.6993 -4.6242 -2.5038 0.9665
-6.3044 -5.1474 -2.5033 0.9665
-6.0915 -5.3966 -2.5031 0.9665
-5.8687 -5.6370 -2.5029 0.9665
-5.6364 -5.8682 -2.5027 0.9665
-5.3930 -6.0874 -2.5014 0.9665
-5.1434 -6.2995 -2.5014 0.9665
-4.6198 -6.6929 -2.5014 0.9665
-4.3466 -6.8736 -2.5014 0.9665
-4.0663 -7.0430 -2.5014 0.9665
-1.3046 -8.0272 -2.5014 0.9665
-0.9803 -8.0732 -2.5014 0.9665
-0.6544 -8.1062 -2.5014 0.9665
0.3275 -8.1259 -2.5014 0.9665
0.6544 -8.1062 -2.5014 0.9665
1.3046 -8.0272 -2.5014 0.9665
1.9462 -7.8962 -2.5014 0.9665
2.2626 -7.8114 -2.5014 0.9665
2.5753 -7.7140 -2.5014 0.9665
2.8838 -7.6041 -2.5014 0.9665
3.4864 -7.3474 -2.5014 0.9665
3.7794 -7.2010 -2.5014 0.9665
4.6198 -6.6930 -2.5014 0.9665
5.1434 -6.2995 -2.5014 0.9665
5.3929 -6.0873 -2.5014 0.9665
5.6336 -5.8652 -2.5014 0.9665
5.8652 -5.6336 -2.5014 0.9665
6.2995 -5.1434 -2.5014 0.9665
6.6929 -4.6198 -2.5014 0.9665
6.8735 -4.3466 -2.5014 0.9665
7.0430 -4.0663 -2.5014 0.9665
7.4818 -3.1877 -2.5014 0.9665
7.6041 -2.8838 -2.5014 0.9665
8.0272 -1.3045 -2.5014 0.9665
8.1062 -0.6544 -2.5014 0.9665
8.1259 -0.3275 -2.5014 0.9665
8.1259 0.3275 -2.5014 0.9665
8.1062 0.6544 -2.5014 0.9665
8.0732 0.9803 -2.5014 0.9665
8.0272 1.3045 -2.5014 0.9665
6.9082 3.2779 -2.3519 0.9685
6.2995 4.3482 -2.3543 0.9685
6.1193 4.5983 -2.3543 0.9685
5.5204 5.3024 -2.3543 0.9685
2.6261 2.9643 -1.2181 0.9836
2.5358 3.1058 -1.2332 0.9834
3.9378 5.7048 -2.1321 0.9714
3.7255 5.8914 -2.1440 0.9713
3.4208 5.9249 -2.1043 0.9718
2.6279 5.5380 -1.8854 0.9747
1.8844 5.6445 -1.8303 0.9754
1.6157 5.5780 -1.7862 0.9760
1.3745 5.5766 -1.7666 0.9763
0.9263 5.6995 -1.7760 0.9761
0.6698 5.5162 -1.7091 0.9770
0.2190 5.4325 -1.6723 0.9775
0.0000 5.5828 -1.7172 0.9769
-0.2265 5.6219 -1.7306 0.9767
-0.8828 5.4325 -1.6928 0.9772
-1.1145 5.4592 -1.7138 0.9770
-1.3418 5.4439 -1.7245 0.9768
-1.7890 5.3587 -1.7377 0.9766
-2.0989 5.5343 -1.8205 0.9755
-2.3227 5.4517 -1.8227 0.9755
-2.5183 5.3073 -1.8069 0.9757
-3.0933 5.3577 -1.9029 0.9744
-4.0361 5.3711 -2.0665 0.9723
-4.7772 5.3923 -2.2158 0.9703
-5.0827 5.2915 -2.2568 0.9698
-5.5204 5.3024 -2.3543 0.9685
-2.8622 2.3370 -1.1365 0.9847
-7.3816 5.5470 -2.8400 0.9621
-6.6148 3.8191 -2.3493 0.9685
-6.7650 3.5505 -2.3499 0.9685
-6.9035 3.2757 -2.3503 0.9685
-7.0305 2.9954 -2.3505 0.9685
-7.1457 2.7100 -2.3506 0.9685
-7.2489 2.4200 -2.3506 0.9685
-7.9849 1.6301 -2.5066 0.9665
-8.0425 1.3071 -2.5062 0.9665
-8.0902 0.9823 -2.5067 0.9665
-8.1470 0.3283 -2.5079 0.9665
-7.5353 0.0000 -2.5048 0.9687
-7.5137 -0.6066 -2.5057 0.9687
-7.4828 -0.9086 -2.5056 0.9687
-7.3846 -1.5076 -2.5053 0.9687
-7.2385 -2.0967 -2.5050 0.9687
-7.0454 -2.6720 -2.5047 0.9687
-6.9316 -2.9533 -2.5045 0.9687
-6.8066 -3.2298 -2.5043 0.9687
-6.5237 -3.7664 -2.5040 0.9687
-6.1985 -4.2785 -2.5036 0.9688
-6.0191 -4.5231 -2.5027 0.9688
-5.8298 -4.7598 -2.5017 0.9688
-4.9901 -5.6326 -2.5014 0.9688
-4.5207 -6.0159 -2.5014 0.9688
-4.0219 -6.3602 -2.5014 0.9688
-3.4971 -6.6632 -2.5014 0.9688
-2.3830 -7.1379 -2.5014 0.9688
-1.8009 -7.3065 -2.5014 0.9688
-1.5052 -7.3731 -2.5014 0.9688
-0.9071 -7.4703 -2.5014 0.9688
-0.3030 -7.5190 -2.5014 0.9688
0.3030 -7.5190 -2.5014 0.9688
0.6055 -7.5007 -2.5014 0.9688
0.9071 -7.4703 -2.5014 0.9688
1.8009 -7.3065 -2.5014 0.9688
2.3830 -7.1379 -2.5014 0.9688
2.9496 -6.9230 -2.5014 0.9688
4.0219 -6.3602 -2.5014 0.9688
4.5207 -6.0159 -2.5014 0.9688
4.7592 -5.8290 -2.5014 0.9688
4.9901 -5.6326 -2.5014 0.9688
5.8290 -4.7592 -2.5014 0.9688
6.1931 -4.2748 -2.5014 0.9688
7.1379 -2.3830 -2.5014 0.9688
7.4277 -1.2071 -2.5014 0.9688
7.4703 -0.9071 -2.5014 0.9688
7.5251 0.0000 -2.5014 0.9688
7.5007 0.6055 -2.5014 0.9688
7.4703 0.9071 -2.5014 0.9688
6.9861 2.0236 -2.4177 0.9698
6.7034 2.2379 -2.3491 0.9707
6.5056 2.7718 -2.3506 0.9706
6.3907 3.0324 -2.3513 0.9706
6.2653 3.2883 -2.3520 0.9706
6.1296 3.5389 -2.3527 0.9706
5.6622 4.2549 -2.3543 0.9706
5.4863 4.4794 -2.3543 0.9706
5.3015 4.6967 -2.3543 0.9706
5.1081 4.9064 -2.3543 0.9706
2.7902 2.9049 -1.3389 0.9832
4.2549 5.6622 -2.3543 0.9706
4.0040 5.8008 -2.3430 0.9707
3.7435 5.9199 -2.3283 0.9709
2.9806 5.6789 -2.1319 0.9733
2.5642 5.4038 -1.9882 0.9751
2.4151 5.6683 -2.0481 0.9744
2.1542 5.6800 -2.0193 0.9747
1.6110 5.5617 -1.9247 0.9759
1.3612 5.5223 -1.8906 0.9763
1.1443 5.6049 -1.9015 0.9762
0.9159 5.6352 -1.8978 0.9762
0.4426 5.4825 -1.8284 0.9771
-0.8901 5.4770 -1.8445 0.9769
-1.8191 5.4489 -1.9095 0.9761
-2.3402 5.4926 -1.9846 0.9751
-2.5483 5.3704 -1.9759 0.9753
-3.4347 5.4315 -2.1362 0.9733
-3.6773 5.3275 -2.1518 0.9731
-3.9984 5.3208 -2.2124 0.9723
-4.4794 5.4863 -2.3543 0.9706
-4.6967 5.3015 -2.3543 0.9706
-5.1081 4.9064 -2.3543 0.9706
-5.3015 4.6967 -2.3543 0.9706
-2.8622 2.3370 -1.2283 0.9845
-5.6622 4.2549 -2.3543 0.9706
-5.9862 3.7855 -2.3543 0.9706
-6.6074 2.5059 -2.3490 0.9707
-6.7030 2.2378 -2.3490 0.9707
-6.8613 1.6912 -2.3490 0.9707
-7.4290 1.2073 -2.5018 0.9688
-7.4723 0.9073 -2.5021 0.9688
-7.5256 0.3033 -2.5036 0.9688
-6.9898 -0.2817 -2.5016 0.9707
-6.9062 -1.1224 -2.5021 0.9707
-6.8559 -1.3996 -2.5023 0.9707
-6.7942 -1.6746 -2.5024 0.9707
-6.5424 -2.4812 -2.5022 0.9707
-6.4366 -2.7424 -2.5020 0.9707
-6.1941 -3.2509 -2.5016 0.9707
-5.4182 -4.4238 -2.5014 0.9707
-5.2357 -4.6384 -2.5014 0.9707
-4.8455 -5.0447 -2.5014 0.9707
-3.9735 -5.7566 -2.5014 0.9707
-3.7385 -5.9119 -2.5014 0.9707
-3.4974 -6.0577 -2.5014 0.9707
-3.2507 -6.1936 -2.5014 0.9707
-2.7417 -6.4351 -2.5014 0.9707
-2.2150 -6.6348 -2.5014 0.9707
-1.6740 -6.7916 -2.5014 0.9707
-1.3991 -6.8534 -2.5014 0.9707
-0.8431 -6.9438 -2.5014 0.9707
-0.5629 -6.9721 -2.5014 0.9707
-0.2817 -6.9891 -2.5014 0.9707
0.0000 -6.9948 -2.5014 0.9707
1.1220 -6.9042 -2.5014 0.9707
1.3991 -6.8535 -2.5014 0.9707
1.6740 -6.7916 -2.5014 0.9707
1.9461 -6.7186 -2.5014 0.9707
2.2150 -6.6348 -2.5014 0.9707
2.4804 -6.5403 -2.5014 0.9707
2.9986 -6.3195 -2.5014 0.9707
3.2506 -6.1936 -2.5014 0.9707
3.7385 -5.9119 -2.5014 0.9707
4.2021 -5.5919 -2.5014 0.9707
4.6384 -5.2357 -2.5014 0.9707
5.0447 -4.8455 -2.5014 0.9707
5.4182 -4.4238 -2.5014 0.9707
5.5920 -4.2021 -2.5014 0.9707
5.9119 -3.7385 -2.5014 0.9707
6.0577 -3.4974 -2.5014 0.9707
6.3195 -2.9986 -2.5014 0.9707
6.4351 -2.7417 -2.5014 0.9707
6.5403 -2.4804 -2.5014 0.9707
6.6348 -2.2151 -2.5014 0.9707
6.9042 -1.1220 -2.5014 0.9707
6.9438 -0.8431 -2.5014 0.9707
6.9891 -0.2817 -2.5014 0.9707
6.9948 0.0000 -2.5014 0.9707
6.9721 0.5629 -2.5014 0.9707
6.7915 1.6740 -2.5014 0.9707
6.2306 2.0801 -2.3490 0.9725
5.9391 2.8181 -2.3508 0.9725
5.8224 3.0558 -2.3515 0.9725
5.6962 3.2887 -2.3521 0.9724
5.0997 4.1637 -2.3543 0.9724
4.9279 4.3657 -2.3543 0.9724
2.5344 3.1041 -1.4331 0.9831
3.9550 5.2632 -2.3543 0.9724
3.7399 5.4182 -2.3543 0.9724
3.5187 5.5644 -2.3543 0.9724
3.0569 5.8244 -2.3523 0.9724
2.6667 5.6200 -2.2245 0.9739
2.2454 5.9206 -2.2644 0.9735
1.6253 5.6110 -2.0890 0.9755
1.3758 5.5818 -2.0559 0.9759
1.1357 5.5627 -2.0303 0.9762
0.9434 5.8045 -2.1030 0.9753
0.4462 5.5267 -1.9828 0.9767
-0.2271 5.6352 -2.0168 0.9763
-0.6610 5.4445 -1.9613 0.9770
-1.1156 5.4647 -1.9945 0.9766
-1.3460 5.4609 -2.0113 0.9764
-1.5628 5.3955 -2.0088 0.9764
-1.8031 5.4010 -2.0362 0.9761
-2.1531 5.6772 -2.1713 0.9745
-2.5622 5.3998 -2.1374 0.9749
-3.2978 5.7119 -2.3586 0.9724
-3.6857 5.3396 -2.3202 0.9728
-3.9550 5.2632 -2.3543 0.9724
-4.1637 5.0997 -2.3543 0.9724
-4.3657 4.9279 -2.3543 0.9724
-4.5606 4.7481 -2.3543 0.9724
-2.8622 2.3370 -1.3214 0.9844
-5.6996 3.2907 -2.3535 0.9724
-6.0498 2.5776 -2.3516 0.9725
-6.1418 2.3293 -2.3490 0.9725
-6.2306 2.0801 -2.3490 0.9725
-6.3778 1.5720 -2.3490 0.9725
-6.9891 0.2817 -2.5014 0.9707
-3.5687 -0.2881 -1.3720 0.9848
-3.5921 -0.4362 -1.3867 0.9846
-6.4428 -1.0471 -2.5014 0.9724
-6.1914 -2.0670 -2.5014 0.9724
-6.1032 -2.3146 -2.5014 0.9724
-6.0050 -2.5585 -2.5014 0.9724
-5.7797 -3.0334 -2.5014 0.9724
-5.3719 -3.7080 -2.5014 0.9724
-5.2182 -3.9213 -2.5014 0.9724
-4.7075 -4.5217 -2.5014 0.9724
-4.5217 -4.7075 -2.5014 0.9724
-4.1282 -5.0561 -2.5014 0.9724
-3.9213 -5.2182 -2.5014 0.9724
-3.2637 -5.6529 -2.5014 0.9724
-2.3146 -6.1032 -2.5014 0.9724
-1.8160 -6.2696 -2.5014 0.9724
-1.5621 -6.3377 -2.5014 0.9724
-1.3056 -6.3954 -2.5014 0.9724
-0.5252 -6.5062 -2.5014 0.9724
-0.2628 -6.5221 -2.5014 0.9724
0.0000 -6.5274 -2.5014 0.9724
0.2628 -6.5220 -2.5014 0.9724
0.7868 -6.4797 -2.5014 0.9724
1.0471 -6.4428 -2.5014 0.9724
1.3056 -6.3954 -2.5014 0.9724
1.5621 -6.3377 -2.5014 0.9724
1.8160 -6.2696 -2.5014 0.9724
2.5585 -6.0050 -2.5014 0.9724
2.7982 -5.8971 -2.5014 0.9724
3.0334 -5.7797 -2.5014 0.9724
3.2637 -5.6528 -2.5014 0.9724
3.4886 -5.5168 -2.5014 0.9724
3.7080 -5.3719 -2.5014 0.9724
3.9212 -5.2183 -2.5014 0.9724
4.5216 -4.7075 -2.5014 0.9724
4.7075 -4.5216 -2.5014 0.9724
4.8858 -4.3284 -2.5014 0.9724
5.3719 -3.7079 -2.5014 0.9724
5.7797 -3.0334 -2.5014 0.9724
6.1914 -2.0670 -2.5014 0.9724
6.2696 -1.8160 -2.5014 0.9724
6.3377 -1.5621 -2.5014 0.9724
6.4428 -1.0471 -2.5014 0.9724
6.5273 0.0000 -2.5014 0.9724
6.4428 1.0471 -2.5014 0.9724
6.3954 1.3056 -2.5014 0.9724
6.3377 1.5621 -2.5014 0.9724
5.8543 1.9545 -2.3652 0.9739
5.7317 2.1737 -2.3492 0.9741
5.4322 2.8510 -2.3510 0.9741
5.3143 3.0682 -2.3516 0.9741
3.6907 4.9114 -2.3543 0.9740
3.4899 5.0561 -2.3543 0.9740
3.2835 5.1925 -2.3543 0.9740
3.0718 5.3205 -2.3543 0.9740
2.1785 5.7444 -2.3543 0.9740
1.3571 5.5057 -2.1730 0.9760
0.6791 5.5927 -2.1590 0.9762
0.4393 5.4409 -2.0919 0.9769
0.2153 5.3422 -2.0489 0.9774
-0.2288 5.6779 -2.1777 0.9760
-0.8833 5.4353 -2.1102 0.9767
-1.1070 5.4225 -2.1209 0.9766
-1.3375 5.4265 -2.1418 0.9763
-1.5653 5.4042 -2.1561 0.9762
-3.0718 5.3205 -2.3543 0.9740
-3.2835 5.1925 -2.3543 0.9740
-4.2558 4.4308 -2.3543 0.9740
-4.4308 4.2558 -2.3543 0.9740
-2.8622 2.3370 -1.4160 0.9843
-5.0554 3.4895 -2.3540 0.9740
-5.3173 3.0699 -2.3529 0.9740
-5.4353 2.8526 -2.3523 0.9740
-5.5444 2.6308 -2.3518 0.9741
-5.7351 2.1751 -2.3506 0.9741
-5.8165 1.9418 -2.3499 0.9741
-5.8884 1.7056 -2.3493 0.9741
-3.5921 0.4362 -1.3867 0.9846
-3.5687 0.2881 -1.3720 0.9848
-3.5589 0.1434 -1.3649 0.9849
-2.8203 -0.1137 -1.1552 0.9879
-2.8096 -0.2268 -1.1536 0.9879
-2.9322 -0.3560 -1.2089 0.9873
-3.0246 -0.4915 -1.2541 0.9868
-3.0070 -0.6139 -1.2561 0.9868
-5.8705 -1.7004 -2.5014 0.9739
-5.7972 -1.9354 -2.5014 0.9739
-5.5217 -2.6201 -2.5014 0.9739
-5.2929 -3.0559 -2.5014 0.9739
-5.1656 -3.2665 -2.5014 0.9739
-4.7342 -3.8654 -2.5014 0.9739
-4.5747 -4.0529 -2.5014 0.9739
-4.2338 -4.4078 -2.5014 0.9739
-4.0529 -4.5747 -2.5014 0.9739
-3.4719 -5.0299 -2.5014 0.9739
-3.2665 -5.1656 -2.5014 0.9739
-3.0559 -5.2930 -2.5014 0.9739
-2.8403 -5.4117 -2.5014 0.9739
-2.6201 -5.5217 -2.5014 0.9739
-2.3956 -5.6227 -2.5014 0.9739
-2.1673 -5.7146 -2.5014 0.9739
-1.9354 -5.7972 -2.5014 0.9739
-0.9804 -6.0326 -2.5014 0.9739
-0.4918 -6.0919 -2.5014 0.9739
0.2461 -6.1068 -2.5014 0.9739
0.4918 -6.0919 -2.5014 0.9739
1.2225 -5.9883 -2.5014 0.9739
1.4626 -5.9342 -2.5014 0.9739
1.7004 -5.8705 -2.5014 0.9739
2.1673 -5.7146 -2.5014 0.9739
2.3956 -5.6227 -2.5014 0.9739
2.6201 -5.5217 -2.5014 0.9739
2.8403 -5.4117 -2.5014 0.9739
3.2665 -5.1656 -2.5014 0.9739
3.4719 -5.0299 -2.5014 0.9739
3.8654 -4.7342 -2.5014 0.9739
4.2338 -4.4078 -2.5014 0.9739
4.4078 -4.2338 -2.5014 0.9739
5.1656 -3.2665 -2.5014 0.9739
5.6227 -2.3956 -2.5014 0.9739
5.7146 -2.1673 -2.5014 0.9739
5.7972 -1.9354 -2.5014 0.9739
5.8705 -1.7004 -2.5014 0.9739
5.9342 -1.4626 -2.5014 0.9739
5.9883 -1.2225 -2.5014 0.9739
6.0672 -0.7367 -2.5014 0.9739
6.0920 -0.4918 -2.5014 0.9739
6.1068 -0.2461 -2.5014 0.9739
6.0919 0.4918 -2.5014 0.9739
5.9882 1.2225 -2.5014 0.9739
5.9342 1.4626 -2.5014 0.9739
5.1875 2.4615 -2.3500 0.9755
4.9750 2.8723 -2.3511 0.9755
4.8565 3.0710 -2.3517 0.9755
4.7299 3.2648 -2.3522 0.9755
4.4539 3.6365 -2.3533 0.9755
3.4557 4.5987 -2.3543 0.9754
3.2678 4.7342 -2.3543 0.9754
2.6733 5.0935 -2.3543 0.9754
2.4660 5.1971 -2.3543 0.9754
2.2548 5.2921 -2.3543 0.9754
2.0398 5.3786 -2.3543 0.9754
1.6004 5.5253 -2.3543 0.9754
1.1506 5.6362 -2.3543 0.9754
0.6934 5.7105 -2.3543 0.9754
0.4427 5.4832 -2.2515 0.9765
0.2153 5.3416 -2.1880 0.9772
0.0000 5.7262 -2.3436 0.9756
-0.6730 5.5427 -2.2851 0.9762
-0.8921 5.4894 -2.2762 0.9762
-1.1506 5.6362 -2.3543 0.9754
-2.6733 5.0935 -2.3543 0.9754
-3.2678 4.7342 -2.3543 0.9754
-3.6381 4.4559 -2.3543 0.9754
-3.8146 4.3058 -2.3543 0.9754
-3.9849 4.1487 -2.3543 0.9754
-4.3058 3.8146 -2.3543 0.9754
-2.8622 2.3370 -1.5123 0.9842
-4.7323 3.2665 -2.3534 0.9755
-4.8589 3.0726 -2.3529 0.9755
-4.9776 2.8738 -2.3524 0.9755
-5.1903 2.4628 -2.3513 0.9755
-5.2840 2.2513 -2.3507 0.9755
-5.3691 2.0362 -2.3502 0.9755
-5.4454 1.8179 -2.3496 0.9755
-5.5128 1.5968 -2.3490 0.9755
-2.9322 0.3560 -1.2089 0.9873
-2.8096 0.2268 -1.1536 0.9879
-2.8203 0.1137 -1.1552 0.9879
-2.3650 0.0000 -1.0307 0.9897
-2.3670 -0.0954 -1.0324 0.9897
-2.4207 -0.4942 -1.0767 0.9893
-5.5728 -1.3736 -2.5014 0.9753
-5.5129 -1.5969 -2.5014 0.9753
-5.4442 -1.8175 -2.5014 0.9753
-5.0821 -2.6673 -2.5014 0.9753
-4.9706 -2.8698 -2.5014 0.9753
-4.8510 -3.0676 -2.5014 0.9753
-4.7236 -3.2604 -2.5014 0.9753
-4.5884 -3.4480 -2.5014 0.9753
-4.4459 -3.6299 -2.5014 0.9753
-4.1394 -3.9759 -2.5014 0.9753
-3.9759 -4.1394 -2.5014 0.9753
-3.6300 -4.4459 -2.5014 0.9753
-3.2604 -4.7236 -2.5014 0.9753
-3.0676 -4.8510 -2.5014 0.9753
-2.8698 -4.9706 -2.5014 0.9753
-2.4605 -5.1854 -2.5014 0.9753
-2.2497 -5.2803 -2.5014 0.9753
-1.8175 -5.4442 -2.5014 0.9753
-0.9207 -5.6652 -2.5014 0.9753
-0.4618 -5.7209 -2.5014 0.9753
0.0000 -5.7396 -2.5014 0.9753
0.6918 -5.6977 -2.5014 0.9753
1.1481 -5.6236 -2.5014 0.9753
1.3736 -5.5728 -2.5014 0.9753
1.5968 -5.5129 -2.5014 0.9753
2.0353 -5.3666 -2.5014 0.9753
2.8698 -4.9706 -2.5014 0.9753
3.6300 -4.4459 -2.5014 0.9753
3.9759 -4.1394 -2.5014 0.9753
4.1394 -3.9759 -2.5014 0.9753
4.2961 -3.8060 -2.5014 0.9753
4.5884 -3.4480 -2.5014 0.9753
4.8510 -3.0676 -2.5014 0.9753
4.9706 -2.8698 -2.5014 0.9753
5.1854 -2.4605 -2.5014 0.9753
5.4442 -1.8175 -2.5014 0.9753
5.5728 -1.3736 -2.5014 0.9753
5.6236 -1.1481 -2.5014 0.9753
5.6652 -0.9207 -2.5014 0.9753
5.7349 -0.2311 -2.5014 0.9753
5.7349 0.2311 -2.5014 0.9753
5.6977 0.6918 -2.5014 0.9753
5.6652 0.9207 -2.5014 0.9753
5.5129 1.5968 -2.5014 0.9753
5.4442 1.8175 -2.5014 0.9753
4.9588 2.1128 -2.3491 0.9768
4.7749 2.5061 -2.3502 0.9767
4.5598 2.8835 -2.3512 0.9767
4.1816 3.4142 -2.3527 0.9767
3.8949 3.7411 -2.3536 0.9767
2.7860 2.9005 -1.7528 0.9826
2.6226 2.9603 -1.7236 0.9829
2.8872 4.5658 -2.3543 0.9767
2.7011 4.6784 -2.3543 0.9767
2.3158 4.8805 -2.3543 0.9767
2.1174 4.9698 -2.3543 0.9767
1.9156 5.0511 -2.3543 0.9767
1.7107 5.1241 -2.3543 0.9767
0.6512 5.3627 -2.3543 0.9767
0.4347 5.3846 -2.3543 0.9767
0.2175 5.3977 -2.3543 0.9767
-0.4347 5.3846 -2.3543 0.9767
-0.8666 5.3322 -2.3543 0.9767
-1.0806 5.2929 -2.3543 0.9767
-1.2928 5.2451 -2.3543 0.9767
-2.3158 4.8805 -2.3543 0.9767
-2.7011 4.6784 -2.3543 0.9767
-2.8872 4.5658 -2.3543 0.9767
-3.5823 4.0435 -2.3543 0.9767
-3.8960 3.7422 -2.3543 0.9767
-4.3168 3.2439 -2.3533 0.9767
-4.4430 3.0668 -2.3528 0.9767
-4.5620 2.8848 -2.3524 0.9767
-4.6735 2.6983 -2.3519 0.9767
-4.8733 2.3124 -2.3509 0.9767
-4.9614 2.1139 -2.3503 0.9767
-5.1131 1.7070 -2.3493 0.9768
-2.4207 0.4942 -1.0767 0.9893
-2.3794 0.2889 -1.0446 0.9896
-2.3649 0.1909 -1.0340 0.9897
-2.3670 0.0954 -1.0324 0.9897
-2.2037 -0.0888 -1.0209 0.9903
-2.2008 -0.1777 -1.0220 0.9903
-2.2302 -0.3625 -1.0459 0.9901
-2.3850 -0.5879 -1.1370 0.9892
-5.1906 -1.5035 -2.5014 0.9765
-5.1258 -1.7112 -2.5014 0.9765
-4.9715 -2.1182 -2.5014 0.9765
-4.4473 -3.0698 -2.5014 0.9765
-4.3201 -3.2464 -2.5014 0.9765
-4.1859 -3.4177 -2.5014 0.9765
-3.8973 -3.7434 -2.5014 0.9765
-3.7434 -3.8973 -2.5014 0.9765
-3.2464 -4.3201 -2.5014 0.9765
-3.0698 -4.4473 -2.5014 0.9765
-2.7020 -4.6799 -2.5014 0.9765
-2.5113 -4.7849 -2.5014 0.9765
-2.3166 -4.8822 -2.5014 0.9765
-2.1182 -4.9715 -2.5014 0.9765
-1.7113 -5.1258 -2.5014 0.9765
-1.2933 -5.2469 -2.5014 0.9765
-0.8669 -5.3339 -2.5014 0.9765
-0.4348 -5.3864 -2.5014 0.9765
-0.0000 -5.4039 -2.5014 0.9765
0.2176 -5.3995 -2.5014 0.9765
0.6514 -5.3645 -2.5014 0.9765
0.8669 -5.3339 -2.5014 0.9765
1.0809 -5.2947 -2.5014 0.9765
1.5035 -5.1906 -2.5014 0.9765
1.7112 -5.1258 -2.5014 0.9765
1.9163 -5.0528 -2.5014 0.9765
2.3166 -4.8822 -2.5014 0.9765
2.8882 -4.5673 -2.5014 0.9765
3.0698 -4.4473 -2.5014 0.9765
3.4177 -4.1859 -2.5014 0.9765
3.5835 -4.0449 -2.5014 0.9765
3.7434 -3.8973 -2.5014 0.9765
3.8973 -3.7434 -2.5014 0.9765
4.0449 -3.5835 -2.5014 0.9765
4.3201 -3.2464 -2.5014 0.9765
4.4473 -3.0698 -2.5014 0.9765
4.5673 -2.8882 -2.5014 0.9765
4.7849 -2.5113 -2.5014 0.9765
4.8822 -2.3166 -2.5014 0.9765
4.9715 -2.1182 -2.5014 0.9765
5.0528 -1.9162 -2.5014 0.9765
5.1258 -1.7112 -2.5014 0.9765
5.1906 -1.5035 -2.5014 0.9765
5.3864 -0.4348 -2.5014 0.9765
5.4039 -0.0000 -2.5014 0.9765
5.3645 0.6514 -2.5014 0.9765
5.1906 1.5035 -2.5014 0.9765
4.9574 1.8801 -2.4542 0.9769
4.6686 1.9891 -2.3490 0.9779
4.5854 2.1758 -2.3494 0.9779
4.3973 2.5388 -2.3504 0.9779
4.1805 2.8856 -2.3513 0.9779
4.0617 3.0522 -2.3518 0.9779
3.8044 3.3704 -2.3527 0.9778
3.6663 3.5215 -2.3531 0.9778
2.7849 2.8994 -1.8609 0.9824
2.6219 2.9595 -1.8302 0.9827
2.5317 3.1007 -1.8529 0.9825
2.8893 4.1859 -2.3543 0.9778
2.5431 4.4048 -2.3543 0.9778
1.9936 4.6792 -2.3543 0.9778
1.6106 4.8245 -2.3543 0.9778
1.4151 4.8854 -2.3543 0.9778
0.8159 5.0204 -2.3543 0.9778
0.4093 5.0697 -2.3543 0.9778
0.2048 5.0821 -2.3543 0.9778
-0.2048 5.0821 -2.3543 0.9778
-0.8159 5.0203 -2.3543 0.9778
-1.0174 4.9834 -2.3543 0.9778
-1.4151 4.8854 -2.3543 0.9778
-1.8036 4.7557 -2.3543 0.9778
-2.1804 4.5951 -2.3543 0.9778
-2.3637 4.5036 -2.3543 0.9778
-3.0555 4.0661 -2.3543 0.9778
-2.8622 2.3370 -1.7104 0.9838
-4.2944 2.7156 -2.3519 0.9779
-4.3994 2.5400 -2.3514 0.9779
-4.8231 1.6102 -2.3537 0.9778
-4.9634 1.4377 -2.3919 0.9775
-2.3851 0.5879 -1.1371 0.9892
-2.2080 0.2681 -1.0295 0.9902
-2.0590 0.0000 -1.0100 0.9909
-2.0595 -0.0830 -1.0111 0.9909
-2.0571 -0.1661 -1.0123 0.9908
-2.1007 -0.5178 -1.0613 0.9904
-2.9436 -0.8526 -1.5032 0.9864
-4.8370 -1.6148 -2.5014 0.9775
-4.7681 -1.8083 -2.5014 0.9775
-4.6914 -1.9988 -2.5014 0.9775
-4.5153 -2.3698 -2.5014 0.9775
-4.4162 -2.5497 -2.5014 0.9775
-4.3100 -2.7255 -2.5014 0.9775
-4.1968 -2.8968 -2.5014 0.9775
-4.0767 -3.0634 -2.5014 0.9775
-3.9501 -3.2251 -2.5014 0.9775
-3.6777 -3.5325 -2.5014 0.9775
-3.5325 -3.6777 -2.5014 0.9775
-3.3816 -3.8170 -2.5014 0.9775
-3.2251 -3.9501 -2.5014 0.9775
-3.0634 -4.0767 -2.5014 0.9775
-2.8968 -4.1968 -2.5014 0.9775
-2.7255 -4.3100 -2.5014 0.9775
-2.3698 -4.5153 -2.5014 0.9775
-1.9988 -4.6914 -2.5014 0.9775
-1.6148 -4.8370 -2.5014 0.9775
-1.2204 -4.9513 -2.5014 0.9775
-1.0200 -4.9964 -2.5014 0.9775
-0.8180 -5.0334 -2.5014 0.9775
-0.6147 -5.0623 -2.5014 0.9775
-0.4103 -5.0829 -2.5014 0.9775
0.2053 -5.0953 -2.5014 0.9775
0.6147 -5.0623 -2.5014 0.9775
0.8180 -5.0334 -2.5014 0.9775
1.0200 -4.9964 -2.5014 0.9775
1.4188 -4.8981 -2.5014 0.9775
1.8083 -4.7681 -2.5014 0.9775
1.9988 -4.6914 -2.5014 0.9775
2.1861 -4.6071 -2.5014 0.9775
2.3698 -4.5153 -2.5014 0.9775
2.5497 -4.4162 -2.5014 0.9775
2.8968 -4.1968 -2.5014 0.9775
3.0634 -4.0767 -2.5014 0.9775
3.3816 -3.8170 -2.5014 0.9775
3.6777 -3.5325 -2.5014 0.9775
3.8170 -3.3816 -2.5014 0.9775
4.3100 -2.7255 -2.5014 0.9775
4.4162 -2.5497 -2.5014 0.9775
4.5153 -2.3698 -2.5014 0.9775
4.6071 -2.1861 -2.5014 0.9775
4.6914 -1.9988 -2.5014 0.9775
4.8981 -1.4188 -2.5014 0.9775
4.9964 -1.0200 -2.5014 0.9775
5.0334 -0.8180 -2.5014 0.9775
5.0623 -0.6147 -2.5014 0.9775
5.0994 -0.0000 -2.5014 0.9775
5.0829 0.4103 -2.5014 0.9775
5.0334 0.8180 -2.5014 0.9775
4.9964 1.0200 -2.5014 0.9775
4.9513 1.2204 -2.5014 0.9775
4.8370 1.6148 -2.5014 0.9775
4.7681 1.8083 -2.5014 0.9775
4.4065 1.8774 -2.3495 0.9789
4.3265 2.0530 -2.3491 0.9789
4.2412 2.2260 -2.3495 0.9789
4.1490 2.3954 -2.3500 0.9789
4.0499 2.5610 -2.3505 0.9789
3.9443 2.7225 -2.3509 0.9789
3.8322 2.8797 -2.3514 0.9789
3.7138 3.0322 -2.3518 0.9789
3.5893 3.1798 -2.3522 0.9789
3.4589 3.3224 -2.3526 0.9789
2.6211 2.9586 -1.9389 0.9825
2.5309 3.0998 -1.9630 0.9823
2.8830 3.8366 -2.3540 0.9788
2.7265 3.9500 -2.3543 0.9788
2.5652 4.0566 -2.3543 0.9788
2.2305 4.2499 -2.3543 0.9788
2.0576 4.3362 -2.3543 0.9788
1.7020 4.4877 -2.3543 0.9788
1.3353 4.6101 -2.3543 0.9788
0.7699 4.7375 -2.3543 0.9788
0.5785 4.7646 -2.3543 0.9788
0.3862 4.7841 -2.3543 0.9788
0.0000 4.7996 -2.3543 0.9788
-0.1933 4.7957 -2.3543 0.9788
-0.7699 4.7375 -2.3543 0.9788
-1.1486 4.6601 -2.3543 0.9788
-1.3353 4.6101 -2.3543 0.9788
-1.7020 4.4877 -2.3543 0.9788
-1.8813 4.4156 -2.3543 0.9788
-2.0576 4.3362 -2.3543 0.9788
-2.3998 4.1566 -2.3543 0.9788
-2.5652 4.0566 -2.3543 0.9788
-2.7265 3.9500 -2.3543 0.9788
-3.0355 3.7178 -2.3543 0.9788
-3.1825 3.5923 -2.3541 0.9788
-3.5907 3.1810 -2.3531 0.9789
-2.8622 2.3370 -1.8125 0.9837
-4.3285 2.0539 -2.3501 0.9789
-4.4779 1.6983 -2.3492 0.9789
-2.9436 0.8526 -1.5032 0.9864
-2.1007 0.5178 -1.0613 0.9904
-2.0750 0.3372 -1.0312 0.9907
-2.0575 0.2498 -1.0167 0.9908
-2.0571 0.1661 -1.0123 0.9908
-1.9479 0.0000 -1.0105 0.9913
-1.9494 -0.0786 -1.0121 0.9912
-1.9520 -0.3172 -1.0259 0.9911
-1.9607 -0.4003 -1.0382 0.9910
-2.3248 -0.6734 -1.2556 0.9892
-4.5735 -1.5269 -2.5014 0.9785
-4.5084 -1.7098 -2.5014 0.9785
-4.4359 -1.8899 -2.5014 0.9785
-4.3562 -2.0670 -2.5014 0.9785
-4.2694 -2.2407 -2.5014 0.9785
-4.1757 -2.4108 -2.5014 0.9785
-3.7349 -3.0495 -2.5014 0.9785
-3.6091 -3.1974 -2.5014 0.9785
-3.4774 -3.3401 -2.5014 0.9785
-3.3401 -3.4774 -2.5014 0.9785
-3.1974 -3.6091 -2.5014 0.9785
-2.7390 -3.9682 -2.5014 0.9785
-2.4108 -4.1757 -2.5014 0.9785
-1.5269 -4.5736 -2.5014 0.9785
-1.3415 -4.6313 -2.5014 0.9785
-1.1539 -4.6816 -2.5014 0.9785
-0.7735 -4.7592 -2.5014 0.9785
0.0000 -4.8217 -2.5014 0.9785
0.1942 -4.8178 -2.5014 0.9785
0.3880 -4.8061 -2.5014 0.9785
0.9645 -4.7243 -2.5014 0.9785
1.1539 -4.6816 -2.5014 0.9785
1.3415 -4.6313 -2.5014 0.9785
1.7098 -4.5084 -2.5014 0.9785
1.8899 -4.4359 -2.5014 0.9785
2.2407 -4.2694 -2.5014 0.9785
2.7390 -3.9682 -2.5014 0.9785
2.8966 -3.8547 -2.5014 0.9785
3.0495 -3.7349 -2.5014 0.9785
3.1974 -3.6091 -2.5014 0.9785
3.3401 -3.4774 -2.5014 0.9785
3.9682 -2.7390 -2.5014 0.9785
4.0752 -2.5770 -2.5014 0.9785
4.1757 -2.4108 -2.5014 0.9785
4.2694 -2.2408 -2.5014 0.9785
4.3562 -2.0670 -2.5014 0.9785
4.4359 -1.8899 -2.5014 0.9785
4.5084 -1.7098 -2.5014 0.9785
