ply
format ascii 1.0
element vertex 1583
property float32 x
property float32 y
property float32 z
property float32 I
end_header
20.1242 -13.8907 -2.3476 0.9064
21.0844 -13.3329 -2.3950 0.9046
23.5260 -11.1632 -2.5000 0.9006
23.9565 -10.2069 -2.5000 0.9006
24.7001 -8.2461 -2.5000 0.9006
25.0121 -7.2449 -2.5000 0.9006
25.5139 -5.2087 -2.5000 0.9006
26.0190 -1.0485 -2.5000 0.9006
25.9557 2.0954 -2.5000 0.9006
25.8503 3.1388 -2.5000 0.9006
25.7029 4.1771 -2.5000 0.9006
25.5140 5.2087 -2.5000 0.9006
23.4874 6.8032 -2.3476 0.9064
22.0728 7.3690 -2.2341 0.9107
22.8907 8.6813 -2.3504 0.9063
14.8348 7.0392 -1.5764 0.9361
14.8747 7.8068 -1.6128 0.9347
11.6328 8.0296 -1.3570 0.9448
11.6318 8.7407 -1.3969 0.9432
8.7061 8.3623 -1.1589 0.9526
5.5729 9.6526 -1.0701 0.9562
3.1714 8.3623 -0.8586 0.9647
2.4387 8.4194 -0.8415 0.9654
2.1087 8.5554 -0.8459 0.9652
1.3899 8.5522 -0.8318 0.9658
1.0124 8.3377 -0.8063 0.9668
0.0000 8.2749 -0.7944 0.9673
-0.3351 8.3161 -0.7990 0.9671
-0.6847 8.4818 -0.8169 0.9664
-1.5640 9.6238 -0.9361 0.9616
-1.8644 9.1325 -0.8949 0.9632
-2.8042 9.6811 -0.9676 0.9603
-3.2272 9.6666 -0.9784 0.9599
-3.3838 8.9222 -0.9161 0.9624
-4.5938 9.6811 -1.0288 0.9579
-5.1092 8.8493 -0.9810 0.9598
-5.1080 8.0776 -0.9175 0.9623
-6.1956 8.9759 -1.0471 0.9571
-6.4641 8.6022 -1.0330 0.9577
-7.8798 8.2037 -1.0921 0.9553
-21.6691 13.7027 -2.4614 0.9021
-5.9219 3.4190 -0.6565 0.9729
-22.7015 11.9147 -2.4614 0.9021
-23.1629 10.9909 -2.4614 0.9021
-23.9721 9.0914 -2.4614 0.9021
-24.6452 7.1386 -2.4633 0.9020
-24.9691 6.1543 -2.4689 0.9018
-25.8275 3.1360 -2.4978 0.9007
-25.9399 2.0941 -2.4985 0.9007
-21.0462 0.0000 -2.5000 0.9187
-20.8927 -2.5368 -2.5000 0.9187
-20.7736 -3.3760 -2.5000 0.9187
-20.4346 -5.0367 -2.5000 0.9187
-20.2152 -5.8554 -2.5000 0.9187
-19.3620 -8.2494 -2.5000 0.9187
-17.7880 -11.2485 -2.5000 0.9187
-17.3206 -11.9556 -2.5000 0.9187
-16.8252 -12.6433 -2.5000 0.9187
-16.1661 -13.1992 -2.4791 0.9194
-14.9214 -13.2192 -2.3680 0.9228
-11.8742 -15.8018 -2.3479 0.9235
-10.5668 -16.7101 -2.3485 0.9234
-9.8862 -17.1233 -2.3487 0.9234
-9.1993 -17.5279 -2.3514 0.9234
-8.4849 -17.8815 -2.3511 0.9234
-6.8069 -15.9765 -2.0629 0.9324
-6.0525 -15.9591 -2.0275 0.9336
-5.3223 -15.9423 -1.9965 0.9345
-4.6130 -15.9260 -1.9695 0.9354
-3.9215 -15.9101 -1.9465 0.9361
-3.2449 -15.8945 -1.9270 0.9367
-1.9263 -15.8641 -1.8983 0.9377
-0.6400 -15.8826 -1.8882 0.9380
0.0000 -15.8592 -1.8838 0.9381
2.5614 -15.7607 -1.8967 0.9377
3.8772 -15.7304 -1.9245 0.9368
5.2114 -15.6100 -1.9548 0.9359
7.7593 -18.2117 -2.3515 0.9234
9.1931 -17.5159 -2.3498 0.9234
10.5638 -16.7053 -2.3478 0.9235
11.8726 -15.7996 -2.3476 0.9235
12.4991 -15.3086 -2.3476 0.9235
13.1054 -14.7929 -2.3476 0.9235
14.9084 -13.2077 -2.3659 0.9229
16.1508 -13.1867 -2.4767 0.9194
17.7880 -11.2484 -2.5000 0.9187
18.2265 -10.5231 -2.5000 0.9187
18.6354 -9.7806 -2.5000 0.9187
19.3620 -8.2494 -2.5000 0.9187
19.6785 -7.4630 -2.5000 0.9187
19.9630 -6.6646 -2.5000 0.9187
20.6208 -4.2098 -2.5000 0.9187
20.8927 -2.5368 -2.5000 0.9187
20.9779 -1.6935 -2.5000 0.9187
21.0291 -0.8474 -2.5000 0.9187
21.0291 0.8474 -2.5000 0.9187
19.5072 3.1702 -2.3476 0.9235
19.3638 3.9531 -2.3476 0.9235
18.9829 5.4985 -2.3476 0.9235
18.7461 6.2583 -2.3476 0.9235
18.1784 7.7451 -2.3472 0.9235
14.9166 7.0780 -1.9612 0.9357
13.4721 7.0707 -1.8073 0.9406
13.1489 7.5915 -1.8035 0.9407
11.6338 7.3568 -1.6351 0.9461
11.6329 8.0296 -1.6790 0.9447
9.3404 8.2749 -1.4823 0.9510
8.7061 8.3623 -1.4339 0.9525
8.4070 8.7526 -1.4416 0.9523
7.4829 8.4465 -1.3404 0.9556
6.8963 8.4465 -1.2953 0.9570
4.5802 9.6526 -1.2691 0.9579
3.4991 8.2128 -1.0604 0.9647
3.1147 8.2128 -1.0434 0.9652
2.3789 8.2128 -1.0157 0.9661
1.4041 8.6397 -1.0397 0.9654
1.0124 8.3377 -0.9977 0.9667
0.6620 8.2003 -0.9773 0.9674
0.3256 8.0801 -0.9606 0.9680
-0.0000 8.1960 -0.9736 0.9675
-0.6912 8.5615 -1.0203 0.9660
-1.1507 9.4764 -1.1339 0.9623
-1.5640 9.6238 -1.1582 0.9615
-1.9742 8.0096 -0.9799 0.9673
-2.6731 9.2287 -1.1413 0.9620
-3.3907 7.9583 -1.0276 0.9658
-3.6951 7.7871 -1.0239 0.9659
-4.6867 8.9299 -1.1980 0.9602
-6.2507 9.0557 -1.3071 0.9566
-7.3309 8.2749 -1.3132 0.9564
-7.8650 8.1883 -1.3487 0.9553
-14.0339 13.4797 -2.3115 0.9246
-14.5562 12.8956 -2.3100 0.9247
-17.0533 11.7710 -2.4614 0.9199
-17.5134 11.0748 -2.4614 0.9199
-5.9219 3.4190 -0.8123 0.9728
-18.3478 9.6296 -2.4614 0.9199
-19.0631 8.1220 -2.4614 0.9199
-19.7199 6.5835 -2.4695 0.9197
-20.0327 5.8025 -2.4774 0.9194
-20.5572 4.1968 -2.4923 0.9190
-20.7621 3.3742 -2.4986 0.9188
-17.6441 0.0000 -2.5000 0.9312
-17.6298 -0.7105 -2.5000 0.9312
-17.5869 -1.4198 -2.5000 0.9312
-17.4156 -2.8303 -2.5000 0.9312
-16.4975 -6.2567 -2.5000 0.9312
-16.2322 -6.9159 -2.5000 0.9312
-14.9126 -9.4302 -2.5000 0.9312
-14.5208 -10.0230 -2.5000 0.9312
-13.2068 -11.7002 -2.5000 0.9312
-8.8553 -14.0036 -2.3476 0.9353
-8.2843 -14.3488 -2.3476 0.9353
-7.6998 -14.6707 -2.3476 0.9353
-7.1028 -14.9688 -2.3476 0.9353
-6.4943 -15.2427 -2.3476 0.9353
-3.9656 -16.0890 -2.3479 0.9352
-3.3146 -16.2362 -2.3479 0.9352
-1.9975 -16.4510 -2.3480 0.9352
-0.6673 -16.5586 -2.3481 0.9352
0.0000 -16.5719 -2.3481 0.9352
0.6673 -16.5583 -2.3480 0.9352
1.3335 -16.5176 -2.3480 0.9352
2.6581 -16.3557 -2.3478 0.9352
5.8753 -15.4919 -2.3476 0.9353
7.6998 -14.6707 -2.3476 0.9353
8.8553 -14.0036 -2.3476 0.9353
10.7777 -13.2003 -2.4146 0.9335
11.6808 -13.1849 -2.4958 0.9313
12.7250 -12.2225 -2.5000 0.9312
13.2068 -11.7002 -2.5000 0.9312
13.6672 -11.1589 -2.5000 0.9312
14.1055 -10.5996 -2.5000 0.9312
14.5208 -10.0230 -2.5000 0.9312
14.9126 -9.4302 -2.5000 0.9312
15.6231 -8.1996 -2.5000 0.9312
15.9406 -7.5639 -2.5000 0.9312
16.4975 -6.2567 -2.5000 0.9312
17.2875 -3.5293 -2.5000 0.9312
17.4156 -2.8303 -2.5000 0.9312
17.5155 -2.1268 -2.5000 0.9312
17.6298 0.7105 -2.5000 0.9312
17.5869 1.4198 -2.5000 0.9312
17.5155 2.1268 -2.5000 0.9312
15.9087 3.2478 -2.3006 0.9365
15.9144 4.6096 -2.3476 0.9353
15.7158 5.2467 -2.3476 0.9353
14.9355 7.0870 -2.3423 0.9354
11.6319 8.7408 -2.0616 0.9429
10.3238 8.4291 -1.8884 0.9476
8.4070 8.7526 -1.7196 0.9522
6.8963 8.4464 -1.5450 0.9569
5.5729 9.6526 -1.5792 0.9560
3.1147 8.2128 -1.2445 0.9651
2.0387 8.2715 -1.2071 0.9662
0.6577 8.1472 -1.1581 0.9675
0.3262 8.0946 -1.1479 0.9678
-0.6847 8.4818 -1.2057 0.9662
-1.0997 9.0566 -1.2926 0.9638
-1.5640 9.6239 -1.3815 0.9614
-1.9305 7.8325 -1.1430 0.9679
-3.3233 8.7627 -1.3279 0.9628
-3.3438 7.8481 -1.2087 0.9661
-4.5751 8.7171 -1.3949 0.9610
-5.1987 7.5315 -1.2967 0.9637
-7.3309 8.2749 -1.5664 0.9563
-11.7800 11.3148 -2.3143 0.9361
-13.0544 9.8097 -2.3137 0.9362
-13.4326 9.2718 -2.3126 0.9362
-13.7890 8.7196 -2.3116 0.9362
-5.9219 3.4190 -0.9689 0.9728
-14.4345 7.5758 -2.3098 0.9363
-16.6160 5.5472 -2.4820 0.9317
-17.0970 4.2141 -2.4950 0.9313
-17.4131 2.8299 -2.4996 0.9312
-17.5155 2.1268 -2.5000 0.9312
-17.5869 1.4198 -2.5000 0.9312
-15.1262 -1.2211 -2.5000 0.9403
-15.0648 -1.8292 -2.5000 0.9403
-14.8687 -3.0355 -2.5000 0.9403
-14.5763 -4.2221 -2.5000 0.9403
-14.3944 -4.8056 -2.5000 0.9403
-14.1893 -5.3813 -2.5000 0.9403
-13.9611 -5.9483 -2.5000 0.9403
-13.7102 -6.5056 -2.5000 0.9403
-13.4372 -7.0523 -2.5000 0.9403
-12.8261 -8.1107 -2.5000 0.9403
-12.4891 -8.6206 -2.5000 0.9403
-10.9446 -10.5124 -2.5000 0.9403
-10.5124 -10.9445 -2.5000 0.9403
-8.6206 -12.4891 -2.5000 0.9403
-7.5877 -13.1423 -2.5000 0.9403
-6.9278 -13.1998 -2.4558 0.9414
-5.6307 -13.2158 -2.3665 0.9434
-4.5126 -13.5169 -2.3476 0.9439
-3.9647 -13.6877 -2.3476 0.9439
-3.4103 -13.8362 -2.3476 0.9439
-2.8504 -13.9623 -2.3476 0.9439
-1.7177 -14.1464 -2.3476 0.9439
0.0000 -14.2503 -2.3476 0.9439
1.1467 -14.2041 -2.3476 0.9439
1.7177 -14.1464 -2.3476 0.9439
2.2859 -14.0658 -2.3476 0.9439
2.8504 -13.9623 -2.3476 0.9439
3.4103 -13.8362 -2.3476 0.9439
3.9647 -13.6877 -2.3476 0.9439
5.6288 -13.2114 -2.3657 0.9434
6.9250 -13.1944 -2.4548 0.9414
7.5876 -13.1423 -2.5000 0.9403
8.1107 -12.8261 -2.5000 0.9403
8.6206 -12.4891 -2.5000 0.9403
9.1165 -12.1319 -2.5000 0.9403
9.5976 -11.7550 -2.5000 0.9403
10.5124 -10.9445 -2.5000 0.9403
10.9445 -10.5124 -2.5000 0.9403
12.1318 -9.1165 -2.5000 0.9403
12.4891 -8.6206 -2.5000 0.9403
12.8261 -8.1107 -2.5000 0.9403
14.1892 -5.3813 -2.5000 0.9403
14.8687 -3.0355 -2.5000 0.9403
15.0647 -1.8292 -2.5000 0.9403
15.1631 0.6111 -2.5000 0.9403
15.1262 1.2211 -2.5000 0.9403
15.0648 1.8292 -2.5000 0.9403
14.9789 2.4343 -2.5000 0.9403
13.9624 2.8504 -2.3476 0.9439
13.8362 3.4103 -2.3476 0.9439
13.6877 3.9647 -2.3476 0.9439
12.2986 7.1006 -2.3395 0.9441
11.6325 8.0293 -2.3285 0.9443
11.3632 8.5389 -2.3416 0.9440
10.3238 8.4291 -2.1956 0.9474
7.4829 8.4465 -1.8590 0.9553
6.8963 8.4465 -1.7964 0.9568
4.7581 9.0659 -1.6867 0.9593
4.3892 9.2501 -1.6867 0.9593
3.4991 8.2128 -1.4707 0.9645
1.0124 8.3377 -1.3836 0.9665
0.6637 8.2215 -1.3588 0.9671
0.0000 8.2749 -1.3632 0.9670
-0.3351 8.3161 -1.3711 0.9668
-1.8646 9.1332 -1.5356 0.9629
-1.8885 7.6618 -1.3000 0.9685
-2.4854 8.5807 -1.4717 0.9644
-3.2554 8.5839 -1.5124 0.9635
-4.8476 8.3962 -1.5972 0.9615
-5.1452 7.4540 -1.4921 0.9639
-6.8107 8.3416 -1.7741 0.9573
-10.1359 9.7356 -2.3153 0.9446
-10.5171 9.3174 -2.3147 0.9446
-11.8736 7.5084 -2.3143 0.9446
-5.9219 3.4190 -1.1265 0.9727
-13.0721 5.5695 -2.3408 0.9440
-13.5091 4.5100 -2.3462 0.9439
-14.7330 3.6314 -2.4997 0.9403
-14.8686 3.0354 -2.5000 0.9403
-14.9789 2.4343 -2.5000 0.9403
-15.0648 1.8292 -2.5000 0.9403
-15.1262 1.2211 -2.5000 0.9403
-15.1631 0.6111 -2.5000 0.9403
-13.2574 -1.0703 -2.5000 0.9473
-13.2036 -1.6032 -2.5000 0.9473
-13.1283 -2.1336 -2.5000 0.9473
-12.9141 -3.1830 -2.5000 0.9473
-12.6161 -4.2119 -2.5000 0.9473
-12.4362 -4.7164 -2.5000 0.9473
-12.0164 -5.7018 -2.5000 0.9473
-11.7771 -6.1811 -2.5000 0.9473
-11.5186 -6.6503 -2.5000 0.9473
-11.2415 -7.1087 -2.5000 0.9473
-10.9462 -7.5556 -2.5000 0.9473
-10.6330 -7.9902 -2.5000 0.9473
-9.5924 -9.2136 -2.5000 0.9473
-8.8199 -9.9556 -2.5000 0.9473
-8.4119 -10.3027 -2.5000 0.9473
-7.9902 -10.6330 -2.5000 0.9473
-7.5556 -10.9462 -2.5000 0.9473
-7.1087 -11.2415 -2.5000 0.9473
-6.6504 -11.5187 -2.5000 0.9473
-6.1811 -11.7771 -2.5000 0.9473
-5.7019 -12.0164 -2.5000 0.9473
-5.2129 -12.2362 -2.5000 0.9473
-4.7164 -12.4362 -2.5000 0.9473
-3.7004 -12.7754 -2.5000 0.9473
-3.1830 -12.9141 -2.5000 0.9473
-2.6605 -13.0318 -2.5000 0.9473
-1.6015 -13.1899 -2.4974 0.9474
-1.0649 -13.1916 -2.4876 0.9476
0.5316 -13.1920 -2.4816 0.9477
1.0649 -13.1907 -2.4874 0.9476
2.1335 -13.1283 -2.5000 0.9473
3.1830 -12.9141 -2.5000 0.9473
4.7164 -12.4362 -2.5000 0.9473
5.2149 -12.2362 -2.5000 0.9473
6.1811 -11.7771 -2.5000 0.9473
6.6503 -11.5186 -2.5000 0.9473
7.1087 -11.2415 -2.5000 0.9473
7.5556 -10.9461 -2.5000 0.9473
7.9902 -10.6330 -2.5000 0.9473
8.8200 -9.9556 -2.5000 0.9473
9.9556 -8.8199 -2.5000 0.9473
11.7771 -6.1811 -2.5000 0.9473
12.2362 -5.2134 -2.5000 0.9473
12.4362 -4.7164 -2.5000 0.9473
12.6161 -4.2119 -2.5000 0.9473
12.7754 -3.7005 -2.5000 0.9473
12.9141 -3.1830 -2.5000 0.9473
13.0317 -2.6605 -2.5000 0.9473
13.2036 -1.6032 -2.5000 0.9473
13.2574 -1.0702 -2.5000 0.9473
13.2898 -0.5356 -2.5000 0.9473
13.3006 0.0000 -2.5000 0.9473
13.2574 1.0702 -2.5000 0.9473
13.2036 1.6032 -2.5000 0.9473
13.0317 2.6605 -2.5000 0.9473
11.9966 3.4749 -2.3476 0.9504
11.6781 4.4289 -2.3476 0.9504
11.2839 5.3542 -2.3476 0.9504
11.0591 5.8043 -2.3476 0.9504
10.8164 6.2449 -2.3476 0.9504
10.5562 6.6753 -2.3476 0.9504
10.2565 7.0795 -2.3425 0.9505
9.9388 7.4686 -2.3368 0.9507
9.6333 7.8653 -2.3376 0.9506
9.2333 8.1799 -2.3186 0.9510
8.7061 8.3623 -2.2690 0.9521
8.2941 8.6351 -2.2505 0.9524
7.5320 8.5018 -2.1349 0.9548
7.5545 9.2526 -2.2452 0.9525
7.2534 9.6526 -2.2695 0.9520
5.1896 8.2067 -1.8251 0.9613
5.1773 8.9673 -1.9462 0.9587
4.3153 8.2222 -1.7454 0.9629
3.4991 8.2128 -1.6780 0.9643
2.7418 8.2128 -1.6274 0.9654
1.4299 8.7985 -1.6755 0.9644
1.0124 8.3377 -1.5787 0.9664
0.6637 8.2215 -1.5503 0.9670
-0.0000 8.2479 -1.5503 0.9670
-0.3351 8.3161 -1.5644 0.9667
-1.0997 9.0566 -1.7148 0.9635
-1.8645 9.1329 -1.7520 0.9628
-2.4321 8.3966 -1.6431 0.9650
-3.3827 7.9396 -1.6221 0.9655
-3.4575 7.2864 -1.5159 0.9677
-4.7374 8.2054 -1.7809 0.9622
-5.1083 8.0782 -1.7965 0.9618
-7.3309 8.2749 -2.0779 0.9560
-8.8901 8.5391 -2.3169 0.9511
-9.5432 7.7918 -2.3157 0.9511
-11.4903 4.8956 -2.3476 0.9504
-11.6781 4.4289 -2.3476 0.9504
-12.9141 3.1830 -2.5000 0.9473
-13.0318 2.6605 -2.5000 0.9473
-13.2898 0.5356 -2.5000 0.9473
-11.8270 -0.0000 -2.5000 0.9528
-11.8174 -0.4762 -2.5000 0.9528
-11.7886 -0.9517 -2.5000 0.9528
-11.6738 -1.8972 -2.5000 0.9528
-11.4833 -2.8304 -2.5000 0.9528
-11.2183 -3.7452 -2.5000 0.9528
-10.8806 -4.6358 -2.5000 0.9528
-10.6851 -5.0701 -2.5000 0.9528
-9.9960 -6.3211 -2.5000 0.9528
-8.8526 -7.8427 -2.5000 0.9528
-8.5296 -8.1928 -2.5000 0.9528
-7.4799 -9.1613 -2.5000 0.9528
-7.1050 -9.4550 -2.5000 0.9528
-6.3211 -9.9960 -2.5000 0.9528
-3.7451 -11.2183 -2.5000 0.9528
-3.2903 -11.3600 -2.5000 0.9528
-1.8972 -11.6738 -2.5000 0.9528
-0.9517 -11.7886 -2.5000 0.9528
-0.4762 -11.8174 -2.5000 0.9528
0.0000 -11.8270 -2.5000 0.9528
0.4762 -11.8174 -2.5000 0.9528
1.4256 -11.7408 -2.5000 0.9528
1.8972 -11.6738 -2.5000 0.9528
2.8304 -11.4833 -2.5000 0.9528
3.2905 -11.3600 -2.5000 0.9528
4.1939 -11.0584 -2.5000 0.9528
5.4962 -10.4723 -2.5000 0.9528
5.9135 -10.2425 -2.5000 0.9528
6.7185 -9.7334 -2.5000 0.9528
7.1050 -9.4550 -2.5000 0.9528
7.4798 -9.1613 -2.5000 0.9528
8.5296 -8.1928 -2.5000 0.9528
8.8526 -7.8427 -2.5000 0.9528
9.1613 -7.4799 -2.5000 0.9528
9.7334 -6.7185 -2.5000 0.9528
10.2425 -5.9135 -2.5000 0.9528
10.4723 -5.4963 -2.5000 0.9528
10.6851 -5.0701 -2.5000 0.9528
11.0584 -4.1939 -2.5000 0.9528
11.2183 -3.7452 -2.5000 0.9528
11.4833 -2.8304 -2.5000 0.9528
11.6738 -1.8972 -2.5000 0.9528
11.8174 -0.4762 -2.5000 0.9528
11.8174 0.4762 -2.5000 0.9528
11.7886 0.9517 -2.5000 0.9528
11.6738 1.8972 -2.5000 0.9528
11.5879 2.3657 -2.5000 0.9528
11.0270 2.7179 -2.4006 0.9546
9.6181 5.5530 -2.3476 0.9556
9.3867 5.9358 -2.3476 0.9556
9.1400 6.3089 -2.3476 0.9556
8.5814 7.0065 -2.3418 0.9557
8.2685 7.3252 -2.3350 0.9558
7.6540 7.9686 -2.3356 0.9558
7.3285 8.2722 -2.3361 0.9558
5.2029 8.2277 -2.0577 0.9610
3.9316 8.2857 -1.9386 0.9632
3.4991 8.2128 -1.8870 0.9642
3.1147 8.2128 -1.8567 0.9647
2.3789 8.2128 -1.8074 0.9656
1.9539 9.5708 -2.0648 0.9609
1.4260 8.7743 -1.8791 0.9643
1.0124 8.3377 -1.7754 0.9662
0.3324 8.2485 -1.7450 0.9668
-0.7022 8.6988 -1.8447 0.9649
-1.0997 9.0566 -1.9284 0.9634
-1.5641 9.6245 -2.0611 0.9609
-1.8667 7.5735 -1.6488 0.9686
-2.7206 8.1491 -1.8160 0.9655
-3.0463 8.0324 -1.8159 0.9655
-3.3811 7.1256 -1.6672 0.9683
-3.7081 7.0652 -1.6866 0.9679
-4.6127 7.9894 -1.9501 0.9630
-4.9562 7.8375 -1.9602 0.9628
-5.1069 7.3986 -1.9003 0.9639
-6.8107 8.3416 -2.2763 0.9569
-7.5957 7.9079 -2.3178 0.9562
-7.9071 7.5949 -2.3175 0.9562
-9.1401 6.3089 -2.3476 0.9556
-9.3867 5.9358 -2.3476 0.9556
-10.5344 3.5169 -2.3476 0.9556
-10.6675 3.0899 -2.3476 0.9556
-11.5879 2.3657 -2.5000 0.9528
-11.7407 1.4256 -2.5000 0.9528
-11.7886 0.9517 -2.5000 0.9528
-10.6027 -0.8559 -2.5000 0.9572
-10.5596 -1.2822 -2.5000 0.9572
-10.2172 -2.9595 -2.5000 0.9572
-10.0898 -3.3685 -2.5000 0.9572
-9.7860 -4.1694 -2.5000 0.9572
-9.2121 -5.3186 -2.5000 0.9572
-8.9904 -5.6852 -2.5000 0.9572
-8.7542 -6.0426 -2.5000 0.9572
-8.2396 -6.7274 -2.5000 0.9572
-7.9621 -7.0538 -2.5000 0.9572
-7.0538 -7.9621 -2.5000 0.9572
-6.7275 -8.2396 -2.5000 0.9572
-6.0426 -8.7542 -2.5000 0.9572
-5.6852 -8.9905 -2.5000 0.9572
-4.5601 -9.6102 -2.5000 0.9572
-3.7720 -9.9460 -2.5000 0.9572
-3.3685 -10.0898 -2.5000 0.9572
-2.9594 -10.2172 -2.5000 0.9572
-1.7064 -10.4994 -2.5000 0.9572
-0.8559 -10.6027 -2.5000 0.9572
-0.4283 -10.6286 -2.5000 0.9572
-0.0000 -10.6372 -2.5000 0.9572
0.4283 -10.6286 -2.5000 0.9572
1.2824 -10.5596 -2.5000 0.9572
1.7066 -10.4994 -2.5000 0.9572
2.1277 -10.4222 -2.5000 0.9572
2.5456 -10.3281 -2.5000 0.9572
2.9595 -10.2172 -2.5000 0.9572
3.3685 -10.0898 -2.5000 0.9572
3.7720 -9.9460 -2.5000 0.9572
4.5601 -9.6102 -2.5000 0.9572
6.3902 -8.5038 -2.5000 0.9572
6.7274 -8.2396 -2.5000 0.9572
7.0538 -7.9621 -2.5000 0.9572
7.9621 -7.0538 -2.5000 0.9572
8.7542 -6.0426 -2.5000 0.9572
8.9904 -5.6852 -2.5000 0.9572
9.2121 -5.3186 -2.5000 0.9572
9.4187 -4.9434 -2.5000 0.9572
9.6102 -4.5601 -2.5000 0.9572
9.9459 -3.7720 -2.5000 0.9572
10.2172 -2.9595 -2.5000 0.9572
10.3281 -2.5457 -2.5000 0.9572
10.4222 -2.1277 -2.5000 0.9572
10.4994 -1.7063 -2.5000 0.9572
10.6285 0.4283 -2.5000 0.9572
10.6027 0.8559 -2.5000 0.9572
10.5596 1.2822 -2.5000 0.9572
10.4222 2.1277 -2.5000 0.9572
10.3281 2.5456 -2.5000 0.9572
9.3396 3.5421 -2.3476 0.9598
9.1894 3.9152 -2.3476 0.9598
9.0243 4.2821 -2.3476 0.9598
8.8446 4.6420 -2.3476 0.9598
8.6505 4.9944 -2.3476 0.9598
8.4424 5.3386 -2.3476 0.9598
8.2206 5.6742 -2.3476 0.9598
6.5831 7.4308 -2.3332 0.9600
6.2784 7.6896 -2.3331 0.9600
5.4732 7.9294 -2.2644 0.9612
4.9662 8.6016 -2.3343 0.9600
3.9117 8.2437 -2.1445 0.9632
3.1449 9.4202 -2.3341 0.9600
2.7624 9.5370 -2.3335 0.9600
2.2222 9.0161 -2.1824 0.9626
1.4299 8.7985 -2.0950 0.9640
0.6637 8.2215 -1.9385 0.9667
0.3324 8.2485 -1.9402 0.9666
-1.0997 9.0566 -2.1441 0.9632
-1.8645 9.1330 -2.1907 0.9624
-1.8666 7.5729 -1.8331 0.9685
-2.6275 7.8702 -1.9500 0.9665
-2.9735 7.8405 -1.9708 0.9661
-3.3412 7.8421 -2.0034 0.9656
-3.7127 7.0739 -1.8776 0.9677
-4.4474 7.7030 -2.0905 0.9641
-4.8388 7.6520 -2.1278 0.9635
-5.1070 7.3987 -2.1129 0.9637
-5.3223 7.0827 -2.0822 0.9643
-6.5433 7.3858 -2.3191 0.9603
-7.2039 6.9194 -2.3476 0.9598
-7.4767 6.6238 -2.3476 0.9598
-7.9854 6.0007 -2.3476 0.9598
-8.2206 5.6742 -2.3476 0.9598
-5.9219 3.4190 -1.6071 0.9723
-9.1894 3.9152 -2.3476 0.9598
-9.3396 3.5421 -2.3476 0.9598
-9.5944 2.7790 -2.3476 0.9598
-10.4994 1.7063 -2.5000 0.9572
-10.5596 1.2822 -2.5000 0.9572
-10.6286 0.4283 -2.5000 0.9572
-9.5305 -1.5488 -2.5000 0.9609
-9.4604 -1.9314 -2.5000 0.9609
-9.1586 -3.0576 -2.5000 0.9609
-9.0281 -3.4239 -2.5000 0.9609
-8.7233 -4.1392 -2.5000 0.9609
-8.5496 -4.4871 -2.5000 0.9609
-7.9463 -5.4850 -2.5000 0.9609
-7.7190 -5.8005 -2.5000 0.9609
-7.2272 -6.4028 -2.5000 0.9609
-6.6886 -6.9636 -2.5000 0.9609
-6.1066 -7.4792 -2.5000 0.9609
-5.8005 -7.7190 -2.5000 0.9609
-5.4850 -7.9463 -2.5000 0.9609
-5.1605 -8.1608 -2.5000 0.9609
-4.4871 -8.5495 -2.5000 0.9609
-3.0576 -9.1586 -2.5000 0.9609
-2.6863 -9.2743 -2.5000 0.9609
-1.9313 -9.4604 -2.5000 0.9609
-0.7769 -9.6242 -2.5000 0.9609
-0.3888 -9.6477 -2.5000 0.9609
1.5489 -9.5305 -2.5000 0.9609
1.9313 -9.4604 -2.5000 0.9609
2.3107 -9.3750 -2.5000 0.9609
2.6863 -9.2743 -2.5000 0.9609
4.1392 -8.7233 -2.5000 0.9609
5.8005 -7.7190 -2.5000 0.9609
6.4028 -7.2273 -2.5000 0.9609
6.6886 -6.9636 -2.5000 0.9609
6.9636 -6.6886 -2.5000 0.9609
7.2272 -6.4028 -2.5000 0.9609
8.3619 -4.8278 -2.5000 0.9609
8.5495 -4.4871 -2.5000 0.9609
8.7233 -4.1392 -2.5000 0.9609
9.2743 -2.6863 -2.5000 0.9609
9.3749 -2.3107 -2.5000 0.9609
9.4604 -1.9313 -2.5000 0.9609
9.6242 -0.7769 -2.5000 0.9609
9.6555 0.0000 -2.5000 0.9609
9.5851 1.1638 -2.5000 0.9609
9.5305 1.5488 -2.5000 0.9609
9.4604 1.9314 -2.5000 0.9609
8.6003 2.8712 -2.3476 0.9632
8.4777 3.2152 -2.3476 0.9632
8.3414 3.5539 -2.3476 0.9632
8.1915 3.8869 -2.3476 0.9632
8.0283 4.2136 -2.3476 0.9632
7.8522 4.5334 -2.3476 0.9632
7.6633 4.8460 -2.3476 0.9632
7.4619 5.1506 -2.3476 0.9632
7.2485 5.4469 -2.3476 0.9632
7.0233 5.7343 -2.3476 0.9632
6.7867 6.0125 -2.3476 0.9632
6.5391 6.2809 -2.3476 0.9632
6.2809 6.5391 -2.3476 0.9632
6.0125 6.7867 -2.3476 0.9632
4.5022 7.7979 -2.3314 0.9635
3.8605 8.1358 -2.3316 0.9635
1.3899 8.5522 -2.2434 0.9648
1.0124 8.3377 -2.1746 0.9659
0.6637 8.2215 -2.1356 0.9665
0.3324 8.2485 -2.1374 0.9665
-0.3351 8.3161 -2.1549 0.9662
-1.0838 8.9260 -2.3281 0.9635
-1.4420 8.8732 -2.3276 0.9635
-1.8664 7.5723 -2.0193 0.9683
-2.0495 7.0756 -1.9073 0.9700
-2.5567 7.6582 -2.0904 0.9672
-3.2618 7.6556 -2.1546 0.9662
-3.3806 7.1245 -2.0418 0.9679
-4.3206 7.4835 -2.2374 0.9649
-4.7312 7.4818 -2.2920 0.9641
-5.3959 7.1807 -2.3256 0.9636
-5.7326 7.0211 -2.3469 0.9632
-6.2809 6.5391 -2.3476 0.9632
-6.5391 6.2809 -2.3476 0.9632
-6.7867 6.0125 -2.3476 0.9632
-7.0233 5.7343 -2.3476 0.9632
-7.2485 5.4469 -2.3476 0.9632
-7.4619 5.1506 -2.3476 0.9632
-8.0284 4.2136 -2.3476 0.9632
-8.1915 3.8869 -2.3476 0.9632
-8.3414 3.5539 -2.3476 0.9632
-8.4777 3.2152 -2.3476 0.9632
-8.6225 2.8786 -2.3537 0.9631
-9.2743 2.6863 -2.5000 0.9609
-9.3750 2.3107 -2.5000 0.9609
-9.5851 1.1638 -2.5000 0.9609
-9.6477 0.3888 -2.5000 0.9609
-8.8310 0.0000 -2.5000 0.9640
-8.7166 -1.4166 -2.5000 0.9640
-8.5744 -2.1134 -2.5000 0.9640
-8.4823 -2.4569 -2.5000 0.9640
-8.2571 -3.1315 -2.5000 0.9640
-7.9784 -3.7858 -2.5000 0.9640
-7.6479 -4.4155 -2.5000 0.9640
-7.4639 -4.7199 -2.5000 0.9640
-7.2677 -5.0166 -2.5000 0.9640
-6.6101 -5.8560 -2.5000 0.9640
-5.5851 -6.8405 -2.5000 0.9640
-5.3052 -7.0599 -2.5000 0.9640
-5.0166 -7.2678 -2.5000 0.9640
-4.7199 -7.4638 -2.5000 0.9640
-4.4155 -7.6478 -2.5000 0.9640
-3.4614 -8.1243 -2.5000 0.9640
-3.1315 -8.2571 -2.5000 0.9640
-2.7965 -8.3765 -2.5000 0.9640
-2.1134 -8.5744 -2.5000 0.9640
-1.4166 -8.7166 -2.5000 0.9640
-1.0645 -8.7666 -2.5000 0.9640
-0.7106 -8.8023 -2.5000 0.9640
0.0000 -8.8310 -2.5000 0.9640
1.0645 -8.7666 -2.5000 0.9640
1.4166 -8.7166 -2.5000 0.9640
1.7664 -8.6525 -2.5000 0.9640
2.4569 -8.4823 -2.5000 0.9640
2.7965 -8.3765 -2.5000 0.9640
3.1315 -8.2571 -2.5000 0.9640
3.7858 -7.9783 -2.5000 0.9640
4.1039 -7.8194 -2.5000 0.9640
4.7199 -7.4638 -2.5000 0.9640
5.0166 -7.2677 -2.5000 0.9640
5.8560 -6.6101 -2.5000 0.9640
6.3689 -6.1174 -2.5000 0.9640
6.8405 -5.5851 -2.5000 0.9640
7.0598 -5.3051 -2.5000 0.9640
7.4638 -4.7199 -2.5000 0.9640
7.6478 -4.4155 -2.5000 0.9640
8.1243 -3.4614 -2.5000 0.9640
8.3765 -2.7965 -2.5000 0.9640
8.4823 -2.4569 -2.5000 0.9640
8.5744 -2.1134 -2.5000 0.9640
8.6525 -1.7664 -2.5000 0.9640
8.7166 -1.4166 -2.5000 0.9640
8.7666 -1.0645 -2.5000 0.9640
8.8023 -0.7106 -2.5000 0.9640
8.8238 -0.3556 -2.5000 0.9640
8.8023 0.7106 -2.5000 0.9640
8.7666 1.0645 -2.5000 0.9640
8.7166 1.4166 -2.5000 0.9640
8.6526 1.7664 -2.5000 0.9640
8.5744 2.1134 -2.5000 0.9640
8.4823 2.4569 -2.5000 0.9640
7.7537 2.9406 -2.3476 0.9661
7.6290 3.2504 -2.3476 0.9661
7.4920 3.5550 -2.3476 0.9661
7.0088 4.4321 -2.3476 0.9661
6.8247 4.7107 -2.3476 0.9661
6.6295 4.9817 -2.3476 0.9661
6.4235 5.2446 -2.3476 0.9661
5.9807 5.7445 -2.3476 0.9661
5.2446 6.4235 -2.3476 0.9661
4.7108 6.8247 -2.3476 0.9661
4.4262 6.9994 -2.3444 0.9662
4.1194 7.1350 -2.3323 0.9663
3.5282 7.4355 -2.3299 0.9664
3.2254 7.5703 -2.3295 0.9664
2.9176 7.6931 -2.3292 0.9664
2.6054 7.8042 -2.3292 0.9664
1.3195 8.1191 -2.3286 0.9664
0.9914 8.1648 -2.3284 0.9664
0.6617 8.1971 -2.3281 0.9664
0.3283 8.1474 -2.3084 0.9667
-0.3310 8.2132 -2.3270 0.9664
-0.9904 8.1566 -2.3260 0.9664
-1.6428 8.0467 -2.3250 0.9664
-1.8663 7.5717 -2.2076 0.9681
-2.0519 7.0838 -2.0878 0.9698
-2.4979 7.4820 -2.2330 0.9677
-2.8381 7.4834 -2.2657 0.9673
-3.1890 7.4848 -2.3032 0.9667
-3.7220 7.0917 -2.2673 0.9673
-5.2446 6.4235 -2.3476 0.9661
-5.7445 5.9807 -2.3476 0.9661
-5.9807 5.7445 -2.3476 0.9661
-6.2071 5.4990 -2.3476 0.9661
-6.4235 5.2446 -2.3476 0.9661
-6.6295 4.9817 -2.3476 0.9661
-6.8247 4.7108 -2.3476 0.9661
-5.9219 3.4190 -1.9358 0.9720
-7.3428 3.8538 -2.3476 0.9661
-7.4920 3.5550 -2.3476 0.9661
-7.7537 2.9406 -2.3476 0.9661
-8.1076 2.7067 -2.4197 0.9651
-8.5744 2.1134 -2.5000 0.9640
-8.6524 1.7664 -2.5000 0.9640
-8.7166 1.4166 -2.5000 0.9640
-8.1280 0.0000 -2.5000 0.9666
-8.1016 -0.6540 -2.5000 0.9666
-8.0227 -1.3038 -2.5000 0.9666
-7.9637 -1.6258 -2.5000 0.9666
-7.8918 -1.9452 -2.5000 0.9666
-7.7096 -2.5739 -2.5000 0.9666
-7.4776 -3.1859 -2.5000 0.9666
-7.3432 -3.4844 -2.5000 0.9666
-7.0390 -4.0640 -2.5000 0.9666
-6.8697 -4.3441 -2.5000 0.9666
-5.8619 -5.6304 -2.5000 0.9666
-5.6304 -5.8619 -2.5000 0.9666
-5.3898 -6.0839 -2.5000 0.9666
-5.1405 -6.2960 -2.5000 0.9666
-4.6172 -6.6892 -2.5000 0.9666
-4.3441 -6.8697 -2.5000 0.9666
-4.0640 -7.0390 -2.5000 0.9666
-3.1859 -7.4775 -2.5000 0.9666
-1.9452 -7.8918 -2.5000 0.9666
-1.3038 -8.0227 -2.5000 0.9666
-0.9797 -8.0687 -2.5000 0.9666
-0.3273 -8.1214 -2.5000 0.9666
-0.0000 -8.1280 -2.5000 0.9666
1.3038 -8.0227 -2.5000 0.9666
1.6258 -7.9637 -2.5000 0.9666
1.9451 -7.8918 -2.5000 0.9666
2.8822 -7.5998 -2.5000 0.9666
3.1859 -7.4776 -2.5000 0.9666
3.7772 -7.1970 -2.5000 0.9666
4.0640 -7.0390 -2.5000 0.9666
5.6304 -5.8619 -2.5000 0.9666
5.8619 -5.6304 -2.5000 0.9666
7.0390 -4.0640 -2.5000 0.9666
7.1969 -3.7773 -2.5000 0.9666
7.5998 -2.8822 -2.5000 0.9666
7.7096 -2.5739 -2.5000 0.9666
7.8070 -2.2613 -2.5000 0.9666
7.8918 -1.9452 -2.5000 0.9666
7.9637 -1.6258 -2.5000 0.9666
8.0687 -0.9797 -2.5000 0.9666
8.1214 -0.3273 -2.5000 0.9666
8.1214 0.3273 -2.5000 0.9666
8.1016 0.6540 -2.5000 0.9666
8.0227 1.3038 -2.5000 0.9666
7.8070 2.2613 -2.5000 0.9666
7.7096 2.5739 -2.5000 0.9666
7.1818 2.7237 -2.3625 0.9684
7.0217 2.9917 -2.3476 0.9686
6.8956 3.2720 -2.3476 0.9686
5.7130 5.0613 -2.3476 0.9686
5.5046 5.2872 -2.3476 0.9686
5.0613 5.7130 -2.3476 0.9686
4.8271 5.9121 -2.3476 0.9686
4.5851 6.1017 -2.3476 0.9686
4.3357 6.2814 -2.3476 0.9686
3.8162 6.6099 -2.3476 0.9686
3.5470 6.7582 -2.3476 0.9686
3.2720 6.8956 -2.3476 0.9686
1.2138 7.4688 -2.3274 0.9688
0.9119 7.5105 -2.3270 0.9688
0.3046 7.5574 -2.3264 0.9688
-1.5117 7.4046 -2.3245 0.9689
-2.6941 7.1036 -2.3368 0.9687
-2.9897 7.0170 -2.3460 0.9686
-3.8162 6.6099 -2.3476 0.9686
-4.5852 6.1017 -2.3476 0.9686
-4.8271 5.9122 -2.3476 0.9686
-5.0613 5.7130 -2.3476 0.9686
-5.2872 5.5046 -2.3476 0.9686
-5.5046 5.2872 -2.3476 0.9686
-5.9122 4.8271 -2.3476 0.9686
-6.1017 4.5851 -2.3476 0.9686
-6.2814 4.3357 -2.3476 0.9686
-6.7582 3.5470 -2.3476 0.9686
-6.8956 3.2720 -2.3476 0.9686
-7.1737 2.7206 -2.3598 0.9684
-7.7097 2.5739 -2.5000 0.9666
-8.0227 1.3038 -2.5000 0.9666
-8.1016 0.6540 -2.5000 0.9666
-8.1214 0.3273 -2.5000 0.9666
-7.5209 -0.0000 -2.5000 0.9688
-7.4661 -0.9065 -2.5000 0.9688
-7.4235 -1.2064 -2.5000 0.9688
-7.3689 -1.5044 -2.5000 0.9688
-7.1338 -2.3816 -2.5000 0.9688
-7.0321 -2.6669 -2.5000 0.9688
-6.7947 -3.2241 -2.5000 0.9688
-6.5133 -3.7604 -2.5000 0.9688
-6.3566 -4.0197 -2.5000 0.9688
-6.1896 -4.2724 -2.5000 0.9688
-6.0125 -4.5181 -2.5000 0.9688
-5.6295 -4.9873 -2.5000 0.9688
-5.4240 -5.2099 -2.5000 0.9688
-4.0197 -6.3566 -2.5000 0.9688
-3.7605 -6.5133 -2.5000 0.9688
-2.9479 -6.9191 -2.5000 0.9688
-0.9065 -7.4661 -2.5000 0.9688
-0.6052 -7.4965 -2.5000 0.9688
0.3029 -7.5148 -2.5000 0.9688
2.3816 -7.1338 -2.5000 0.9688
3.2241 -6.7948 -2.5000 0.9688
4.5181 -6.0125 -2.5000 0.9688
4.9873 -5.6295 -2.5000 0.9688
5.2099 -5.4241 -2.5000 0.9688
5.4241 -5.2099 -2.5000 0.9688
5.6295 -4.9873 -2.5000 0.9688
6.1896 -4.2724 -2.5000 0.9688
6.5133 -3.7604 -2.5000 0.9688
6.6594 -3.4951 -2.5000 0.9688
6.7947 -3.2242 -2.5000 0.9688
6.9191 -2.9479 -2.5000 0.9688
7.0321 -2.6669 -2.5000 0.9688
7.3023 -1.7999 -2.5000 0.9688
7.4965 -0.6052 -2.5000 0.9688
7.5148 -0.3028 -2.5000 0.9688
7.5209 0.0000 -2.5000 0.9688
7.5148 0.3028 -2.5000 0.9688
7.4661 0.9065 -2.5000 0.9688
7.4235 1.2064 -2.5000 0.9688
7.3023 1.7999 -2.5000 0.9688
7.2240 2.0925 -2.5000 0.9688
6.4973 2.7682 -2.3476 0.9707
6.3805 3.0276 -2.3476 0.9707
6.1162 3.5312 -2.3476 0.9707
5.9691 3.7746 -2.3476 0.9707
5.4706 4.4666 -2.3476 0.9707
5.0934 4.8923 -2.3476 0.9707
4.6832 5.2863 -2.3476 0.9707
4.4666 5.4706 -2.3476 0.9707
4.2427 5.6460 -2.3476 0.9707
3.5312 6.1162 -2.3476 0.9707
2.5044 6.6035 -2.3476 0.9707
2.2364 6.6989 -2.3476 0.9707
1.4120 6.9197 -2.3476 0.9707
0.8505 7.0047 -2.3455 0.9707
-1.4127 6.9197 -2.3476 0.9707
-1.6902 6.8572 -2.3476 0.9707
-1.9649 6.7836 -2.3476 0.9707
-2.2364 6.6989 -2.3476 0.9707
-3.0276 6.3805 -2.3476 0.9707
-4.4666 5.4706 -2.3476 0.9707
-4.8923 5.0934 -2.3476 0.9707
-5.2863 4.6832 -2.3476 0.9707
-5.8122 4.0119 -2.3476 0.9707
-5.7193 3.6167 -2.2494 0.9719
-6.2535 3.2821 -2.3476 0.9707
-7.2240 2.0924 -2.5000 0.9688
-7.3024 1.7999 -2.5000 0.9688
-7.3689 1.5044 -2.5000 0.9688
-7.4235 1.2064 -2.5000 0.9688
-7.4661 0.9065 -2.5000 0.9688
-6.9909 0.0000 -2.5000 0.9707
-6.9852 -0.2815 -2.5000 0.9707
-6.9682 -0.5625 -2.5000 0.9707
-6.9399 -0.8427 -2.5000 0.9707
-6.8496 -1.3984 -2.5000 0.9707
-6.7877 -1.6730 -2.5000 0.9707
-6.7149 -1.9450 -2.5000 0.9707
-6.6311 -2.2138 -2.5000 0.9707
-6.3159 -2.9969 -2.5000 0.9707
-5.9086 -3.7364 -2.5000 0.9707
-5.2327 -4.6358 -2.5000 0.9707
-5.0418 -4.8428 -2.5000 0.9707
-4.8427 -5.0418 -2.5000 0.9707
-4.6358 -5.2327 -2.5000 0.9707
-4.4213 -5.4152 -2.5000 0.9707
-3.7364 -5.9086 -2.5000 0.9707
-3.4954 -6.0543 -2.5000 0.9707
-3.2488 -6.1901 -2.5000 0.9707
-2.9969 -6.3159 -2.5000 0.9707
-2.7402 -6.4315 -2.5000 0.9707
-1.9450 -6.7149 -2.5000 0.9707
-1.1214 -6.9003 -2.5000 0.9707
-0.8427 -6.9399 -2.5000 0.9707
-0.5625 -6.9682 -2.5000 0.9707
-0.2815 -6.9852 -2.5000 0.9707
0.2815 -6.9852 -2.5000 0.9707
0.5625 -6.9682 -2.5000 0.9707
0.8427 -6.9399 -2.5000 0.9707
1.6730 -6.7877 -2.5000 0.9707
2.2138 -6.6311 -2.5000 0.9707
2.4790 -6.5366 -2.5000 0.9707
2.7402 -6.4315 -2.5000 0.9707
2.9969 -6.3159 -2.5000 0.9707
3.4954 -6.0543 -2.5000 0.9707
3.9713 -5.7534 -2.5000 0.9707
4.1997 -5.5888 -2.5000 0.9707
4.4213 -5.4152 -2.5000 0.9707
4.6358 -5.2327 -2.5000 0.9707
4.8427 -5.0418 -2.5000 0.9707
5.0418 -4.8427 -2.5000 0.9707
5.4152 -4.4213 -2.5000 0.9707
5.7534 -3.9713 -2.5000 0.9707
5.9086 -3.7364 -2.5000 0.9707
6.1901 -3.2488 -2.5000 0.9707
6.4315 -2.7402 -2.5000 0.9707
6.5366 -2.4790 -2.5000 0.9707
6.7877 -1.6730 -2.5000 0.9707
6.8496 -1.3984 -2.5000 0.9707
6.9004 -1.1214 -2.5000 0.9707
6.9399 -0.8427 -2.5000 0.9707
6.9852 -0.2815 -2.5000 0.9707
6.9909 0.0000 -2.5000 0.9707
6.9852 0.2815 -2.5000 0.9707
6.9682 0.5625 -2.5000 0.9707
6.9004 1.1214 -2.5000 0.9707
6.8496 1.3984 -2.5000 0.9707
6.7877 1.6730 -2.5000 0.9707
5.9309 2.8142 -2.3476 0.9725
5.8128 3.0508 -2.3476 0.9725
5.5484 3.5086 -2.3476 0.9725
5.4026 3.7292 -2.3476 0.9725
5.0850 4.1518 -2.3476 0.9725
4.9137 4.3532 -2.3476 0.9725
4.7345 4.5475 -2.3476 0.9725
4.5475 4.7345 -2.3476 0.9725
4.3532 4.9137 -2.3476 0.9725
3.5086 5.5484 -2.3476 0.9725
3.2823 5.6852 -2.3476 0.9725
3.0508 5.8127 -2.3476 0.9725
2.8142 5.9309 -2.3476 0.9725
2.5731 6.0394 -2.3476 0.9725
2.3279 6.1381 -2.3476 0.9725
1.8264 6.3055 -2.3476 0.9725
0.5282 6.5434 -2.3476 0.9725
0.2643 6.5594 -2.3476 0.9725
-0.5282 6.5434 -2.3476 0.9725
-1.0530 6.4797 -2.3476 0.9725
-1.3131 6.4320 -2.3476 0.9725
-1.5710 6.3739 -2.3476 0.9725
-1.8264 6.3055 -2.3476 0.9725
-2.8142 5.9309 -2.3476 0.9725
-3.0508 5.8128 -2.3476 0.9725
-3.2823 5.6852 -2.3476 0.9725
-3.7292 5.4026 -2.3476 0.9725
-3.9437 5.2481 -2.3476 0.9725
-4.1518 5.0850 -2.3476 0.9725
-4.3532 4.9137 -2.3476 0.9725
-5.0850 4.1518 -2.3476 0.9725
-5.2481 3.9437 -2.3476 0.9725
-5.5484 3.5086 -2.3476 0.9725
-5.6852 3.2824 -2.3476 0.9725
-5.8128 3.0508 -2.3476 0.9725
-5.9309 2.8142 -2.3476 0.9725
-6.5366 2.4790 -2.5000 0.9707
-6.7149 1.9450 -2.5000 0.9707
-6.8496 1.3983 -2.5000 0.9707
-6.9004 1.1214 -2.5000 0.9707
-6.9682 0.5625 -2.5000 0.9707
-6.9852 0.2815 -2.5000 0.9707
-6.4392 -1.0465 -2.5000 0.9724
-6.3341 -1.5612 -2.5000 0.9724
-6.2661 -1.8150 -2.5000 0.9724
-6.1879 -2.0658 -2.5000 0.9724
-6.0997 -2.3133 -2.5000 0.9724
-6.0017 -2.5571 -2.5000 0.9724
-5.7764 -3.0317 -2.5000 0.9724
-5.2153 -3.9190 -2.5000 0.9724
-4.8830 -4.3260 -2.5000 0.9724
-4.5191 -4.7049 -2.5000 0.9724
-4.1259 -5.0533 -2.5000 0.9724
-3.7059 -5.3689 -2.5000 0.9724
-3.4867 -5.5137 -2.5000 0.9724
-3.0317 -5.7764 -2.5000 0.9724
-2.7967 -5.8938 -2.5000 0.9724
-1.8150 -6.2661 -2.5000 0.9724
-1.3049 -6.3918 -2.5000 0.9724
-1.0465 -6.4392 -2.5000 0.9724
-0.2627 -6.5184 -2.5000 0.9724
0.0000 -6.5237 -2.5000 0.9724
0.2627 -6.5184 -2.5000 0.9724
0.5249 -6.5025 -2.5000 0.9724
0.7863 -6.4761 -2.5000 0.9724
1.3049 -6.3918 -2.5000 0.9724
1.8150 -6.2661 -2.5000 0.9724
2.3133 -6.0997 -2.5000 0.9724
2.5571 -6.0016 -2.5000 0.9724
3.2618 -5.6497 -2.5000 0.9724
3.4867 -5.5137 -2.5000 0.9724
3.9190 -5.2153 -2.5000 0.9724
4.1259 -5.0533 -2.5000 0.9724
4.3260 -4.8830 -2.5000 0.9724
4.7049 -4.5191 -2.5000 0.9724
5.0532 -4.1259 -2.5000 0.9724
5.3689 -3.7059 -2.5000 0.9724
6.0016 -2.5571 -2.5000 0.9724
6.0997 -2.3133 -2.5000 0.9724
6.2661 -1.8150 -2.5000 0.9724
6.3341 -1.5612 -2.5000 0.9724
6.4761 -0.7863 -2.5000 0.9724
6.5025 -0.5249 -2.5000 0.9724
6.5025 0.5249 -2.5000 0.9724
6.4761 0.7863 -2.5000 0.9724
6.3918 1.3049 -2.5000 0.9724
6.2661 1.8150 -2.5000 0.9724
6.1879 2.0658 -2.5000 0.9724
6.0016 2.5571 -2.5000 0.9724
5.7143 2.7115 -2.4239 0.9733
5.4244 2.8469 -2.3476 0.9741
5.1776 3.2741 -2.3476 0.9741
4.7452 3.8743 -2.3476 0.9741
4.5854 4.0623 -2.3476 0.9741
4.2436 4.4181 -2.3476 0.9741
4.0623 4.5854 -2.3476 0.9741
3.8743 4.7452 -2.3476 0.9741
3.6801 4.8974 -2.3476 0.9741
3.4799 5.0416 -2.3476 0.9741
2.8469 5.4243 -2.3476 0.9741
2.4012 5.6358 -2.3476 0.9741
2.1723 5.7279 -2.3476 0.9741
1.4660 5.9480 -2.3476 0.9741
1.2254 6.0022 -2.3476 0.9741
0.9827 6.0467 -2.3476 0.9741
0.7384 6.0813 -2.3476 0.9741
0.4929 6.1061 -2.3476 0.9741
0.2467 6.1210 -2.3476 0.9741
-0.2467 6.1210 -2.3476 0.9741
-0.4929 6.1061 -2.3476 0.9741
-0.7384 6.0813 -2.3476 0.9741
-0.9827 6.0467 -2.3476 0.9741
-1.4660 5.9480 -2.3476 0.9741
-1.9399 5.8107 -2.3476 0.9741
-2.1723 5.7279 -2.3476 0.9741
-2.8469 5.4243 -2.3476 0.9741
-3.0630 5.3052 -2.3476 0.9741
-3.4800 5.0416 -2.3476 0.9741
-3.6801 4.8974 -2.3476 0.9741
-3.8744 4.7452 -2.3476 0.9741
-4.4181 4.2436 -2.3476 0.9741
-4.7452 3.8743 -2.3476 0.9741
-5.7061 2.7076 -2.4204 0.9733
-6.0016 2.5571 -2.5000 0.9724
-6.0997 2.3133 -2.5000 0.9724
-6.1879 2.0658 -2.5000 0.9724
-6.3341 1.5612 -2.5000 0.9724
-6.3918 1.3049 -2.5000 0.9724
-6.4392 1.0465 -2.5000 0.9724
-3.5921 0.4361 -1.3867 0.9846
-2.8096 -0.2268 -1.1536 0.9879
-2.9323 -0.3560 -1.2089 0.9873
-3.0246 -0.4916 -1.2541 0.9868
-3.0070 -0.6139 -1.2561 0.9868
-5.9308 -1.4618 -2.5000 0.9739
-5.6195 -2.3943 -2.5000 0.9739
-5.4087 -2.8387 -2.5000 0.9739
-5.2900 -3.0542 -2.5000 0.9739
-5.1627 -3.2647 -2.5000 0.9739
-5.0271 -3.4699 -2.5000 0.9739
-4.7316 -3.8632 -2.5000 0.9739
-4.4053 -4.2314 -2.5000 0.9739
-4.0506 -4.5721 -2.5000 0.9739
-3.6695 -4.8833 -2.5000 0.9739
-3.2647 -5.1627 -2.5000 0.9739
-3.0542 -5.2900 -2.5000 0.9739
-2.6186 -5.5186 -2.5000 0.9739
-2.1661 -5.7114 -2.5000 0.9739
-1.9343 -5.7940 -2.5000 0.9739
-1.4618 -5.9308 -2.5000 0.9739
-1.2218 -5.9849 -2.5000 0.9739
-0.4915 -6.0885 -2.5000 0.9739
0.0000 -6.1083 -2.5000 0.9739
0.2460 -6.1034 -2.5000 0.9739
0.4915 -6.0885 -2.5000 0.9739
0.7363 -6.0638 -2.5000 0.9739
0.9798 -6.0292 -2.5000 0.9739
1.4618 -5.9308 -2.5000 0.9739
2.1660 -5.7114 -2.5000 0.9739
2.3943 -5.6195 -2.5000 0.9739
2.6186 -5.5186 -2.5000 0.9739
2.8387 -5.4087 -2.5000 0.9739
3.2647 -5.1627 -2.5000 0.9739
3.6695 -4.8833 -2.5000 0.9739
4.2314 -4.4053 -2.5000 0.9739
4.4054 -4.2314 -2.5000 0.9739
4.8833 -3.6695 -2.5000 0.9739
5.2900 -3.0542 -2.5000 0.9739
5.4086 -2.8387 -2.5000 0.9739
5.6196 -2.3943 -2.5000 0.9739
5.7114 -2.1660 -2.5000 0.9739
5.7940 -1.9343 -2.5000 0.9739
5.8671 -1.6995 -2.5000 0.9739
5.9308 -1.4618 -2.5000 0.9739
6.0292 -0.9798 -2.5000 0.9739
6.0637 -0.7363 -2.5000 0.9739
6.1083 0.0000 -2.5000 0.9739
6.0885 0.4915 -2.5000 0.9739
6.0638 0.7363 -2.5000 0.9739
5.9849 1.2218 -2.5000 0.9739
5.7940 1.9343 -2.5000 0.9739
5.7114 2.1660 -2.5000 0.9739
5.6195 2.3942 -2.5000 0.9739
5.5186 2.6186 -2.5000 0.9739
4.9675 2.8680 -2.3476 0.9755
4.8480 3.0657 -2.3476 0.9755
4.5856 3.4458 -2.3476 0.9755
4.4431 3.6277 -2.3476 0.9755
4.2934 3.8036 -2.3476 0.9755
4.1368 3.9734 -2.3476 0.9755
3.6277 4.4431 -2.3476 0.9755
3.2584 4.7206 -2.3476 0.9755
3.0657 4.8480 -2.3476 0.9755
2.4590 5.1822 -2.3476 0.9755
2.2483 5.2770 -2.3476 0.9755
1.8164 5.4408 -2.3476 0.9755
1.3727 5.5693 -2.3476 0.9755
0.9201 5.6617 -2.3476 0.9755
0.2310 5.7313 -2.3476 0.9755
0.0000 5.7360 -2.3476 0.9755
-0.2310 5.7313 -2.3476 0.9755
-0.4616 5.7174 -2.3476 0.9755
-0.6914 5.6941 -2.3476 0.9755
-0.9201 5.6617 -2.3476 0.9755
-1.1473 5.6200 -2.3476 0.9755
-1.3727 5.5693 -2.3476 0.9755
-1.5958 5.5095 -2.3476 0.9755
-1.8164 5.4408 -2.3476 0.9755
-2.0340 5.3632 -2.3476 0.9755
-2.4590 5.1821 -2.3476 0.9755
-2.8680 4.9675 -2.3476 0.9755
-3.0657 4.8480 -2.3476 0.9755
-3.4459 4.5856 -2.3476 0.9755
-3.8036 4.2934 -2.3476 0.9755
-4.1368 3.9734 -2.3476 0.9755
-4.5856 3.4458 -2.3476 0.9755
-4.8480 3.0657 -2.3476 0.9755
-5.1701 2.7134 -2.3897 0.9751
-5.5186 2.6186 -2.5000 0.9739
-5.6195 2.3942 -2.5000 0.9739
-5.7114 2.1660 -2.5000 0.9739
-5.7940 1.9343 -2.5000 0.9739
-5.8671 1.6994 -2.5000 0.9739
-5.9308 1.4618 -2.5000 0.9739
-3.0246 0.4915 -1.2541 0.9868
-2.8096 0.2268 -1.1536 0.9879
-2.8204 0.1137 -1.1552 0.9879
-2.3670 -0.0954 -1.0324 0.9897
-2.4207 -0.4942 -1.0767 0.9893
-5.5098 -1.5960 -2.5000 0.9753
-5.3636 -2.0341 -2.5000 0.9753
-5.1825 -2.4591 -2.5000 0.9753
-5.0793 -2.6658 -2.5000 0.9753
-4.7209 -3.2586 -2.5000 0.9753
-4.5859 -3.4461 -2.5000 0.9753
-4.4434 -3.6279 -2.5000 0.9753
-3.9737 -4.1371 -2.5000 0.9753
-3.8039 -4.2937 -2.5000 0.9753
-3.2586 -4.7209 -2.5000 0.9753
-2.8682 -4.9678 -2.5000 0.9753
-2.6658 -5.0793 -2.5000 0.9753
-2.4591 -5.1825 -2.5000 0.9753
-2.0341 -5.3635 -2.5000 0.9753
-1.5959 -5.5098 -2.5000 0.9753
-1.1474 -5.6204 -2.5000 0.9753
-0.6914 -5.6945 -2.5000 0.9753
0.0000 -5.7363 -2.5000 0.9753
0.2310 -5.7317 -2.5000 0.9753
1.3728 -5.5696 -2.5000 0.9753
1.5959 -5.5098 -2.5000 0.9753
1.8165 -5.4411 -2.5000 0.9753
2.2484 -5.2773 -2.5000 0.9753
2.4591 -5.1825 -2.5000 0.9753
3.0659 -4.8483 -2.5000 0.9753
3.9737 -4.1371 -2.5000 0.9753
4.1370 -3.9737 -2.5000 0.9753
4.4434 -3.6279 -2.5000 0.9753
4.5858 -3.4461 -2.5000 0.9753
4.7209 -3.2586 -2.5000 0.9753
4.8483 -3.0659 -2.5000 0.9753
4.9678 -2.8682 -2.5000 0.9753
5.1825 -2.4591 -2.5000 0.9753
5.2773 -2.2484 -2.5000 0.9753
5.5099 -1.5959 -2.5000 0.9753
5.5697 -1.3728 -2.5000 0.9753
5.6620 -0.9202 -2.5000 0.9753
5.7317 -0.2310 -2.5000 0.9753
5.7317 0.2310 -2.5000 0.9753
5.7177 0.4616 -2.5000 0.9753
5.6945 0.6914 -2.5000 0.9753
5.6204 1.1474 -2.5000 0.9753
5.5696 1.3728 -2.5000 0.9753
5.5098 1.5959 -2.5000 0.9753
5.4411 1.8165 -2.5000 0.9753
4.3063 3.2360 -2.3476 0.9768
3.8848 3.7314 -2.3476 0.9768
3.7315 3.8849 -2.3476 0.9768
3.5720 4.0319 -2.3476 0.9768
3.4067 4.1725 -2.3476 0.9768
3.2360 4.3063 -2.3476 0.9768
2.8790 4.5527 -2.3476 0.9768
2.6933 4.6650 -2.3476 0.9768
2.3092 4.8665 -2.3476 0.9768
1.4987 5.1740 -2.3476 0.9768
1.2891 5.2301 -2.3476 0.9768
1.0775 5.2778 -2.3476 0.9768
0.6493 5.3473 -2.3476 0.9768
0.4334 5.3692 -2.3476 0.9768
0.2169 5.3823 -2.3476 0.9768
-0.2169 5.3823 -2.3476 0.9768
-0.4334 5.3692 -2.3476 0.9768
-0.8641 5.3169 -2.3476 0.9768
-1.2891 5.2301 -2.3476 0.9768
-1.9101 5.0366 -2.3476 0.9768
-2.1114 4.9556 -2.3476 0.9768
-2.5033 4.7696 -2.3476 0.9768
-2.6933 4.6649 -2.3476 0.9768
-3.0600 4.4331 -2.3476 0.9768
-3.2360 4.3063 -2.3476 0.9768
-3.4067 4.1725 -2.3476 0.9768
-3.5720 4.0320 -2.3476 0.9768
-3.8849 3.7314 -2.3476 0.9768
-4.0320 3.5720 -2.3476 0.9768
-4.1725 3.4067 -2.3476 0.9768
-4.3063 3.2360 -2.3476 0.9768
-4.5591 2.8830 -2.3509 0.9767
-4.7069 2.7175 -2.3687 0.9766
-5.4411 1.8165 -2.5000 0.9753
-5.5696 1.3728 -2.5000 0.9753
-2.4207 0.4942 -1.0767 0.9893
-2.4021 0.3904 -1.0606 0.9894
-2.3649 0.1909 -1.0340 0.9897
-2.3670 0.0954 -1.0324 0.9897
-2.2080 -0.2681 -1.0295 0.9902
-2.2302 -0.3624 -1.0459 0.9901
-2.2466 -0.4586 -1.0614 0.9899
-5.1877 -1.5026 -2.5000 0.9765
-5.1229 -1.7103 -2.5000 0.9765
-5.0499 -1.9152 -2.5000 0.9765
-4.9687 -2.1170 -2.5000 0.9765
-4.8794 -2.3153 -2.5000 0.9765
-4.6773 -2.7004 -2.5000 0.9765
-4.3177 -3.2445 -2.5000 0.9765
-4.0426 -3.5814 -2.5000 0.9765
-3.7413 -3.8951 -2.5000 0.9765
-3.2445 -4.3177 -2.5000 0.9765
-3.0681 -4.4448 -2.5000 0.9765
-2.8866 -4.5648 -2.5000 0.9765
-2.1170 -4.9687 -2.5000 0.9765
-1.7103 -5.1229 -2.5000 0.9765
-1.5025 -5.1876 -2.5000 0.9765
-1.0803 -5.2917 -2.5000 0.9765
-0.8664 -5.3309 -2.5000 0.9765
-0.4346 -5.3834 -2.5000 0.9765
0.0000 -5.4009 -2.5000 0.9765
0.2175 -5.3965 -2.5000 0.9765
0.8664 -5.3309 -2.5000 0.9765
1.0803 -5.2917 -2.5000 0.9765
1.5027 -5.1876 -2.5000 0.9765
1.9152 -5.0499 -2.5000 0.9765
2.8866 -4.5648 -2.5000 0.9765
3.2445 -4.3177 -2.5000 0.9765
3.4158 -4.1835 -2.5000 0.9765
3.5814 -4.0426 -2.5000 0.9765
3.7413 -3.8951 -2.5000 0.9765
3.8951 -3.7413 -2.5000 0.9765
4.1836 -3.4158 -2.5000 0.9765
4.3177 -3.2445 -2.5000 0.9765
4.4448 -3.0681 -2.5000 0.9765
4.6773 -2.7004 -2.5000 0.9765
4.7822 -2.5099 -2.5000 0.9765
4.8794 -2.3153 -2.5000 0.9765
5.2440 -1.2925 -2.5000 0.9765
5.2917 -1.0803 -2.5000 0.9765
5.3615 -0.6510 -2.5000 0.9765
5.3834 0.4346 -2.5000 0.9765
5.3615 0.6510 -2.5000 0.9765
5.3309 0.8664 -2.5000 0.9765
5.2917 1.0803 -2.5000 0.9765
5.1876 1.5026 -2.5000 0.9765
5.1230 1.7103 -2.5000 0.9765
5.0499 1.9152 -2.5000 0.9765
4.8794 2.3153 -2.5000 0.9765
4.6721 2.6975 -2.4972 0.9765
4.0545 3.0467 -2.3476 0.9779
3.9285 3.2075 -2.3476 0.9779
3.7962 3.3631 -2.3476 0.9779
3.3631 3.7962 -2.3476 0.9779
3.0467 4.0545 -2.3476 0.9779
2.3569 4.4907 -2.3476 0.9779
1.7984 4.7421 -2.3476 0.9779
1.6060 4.8106 -2.3476 0.9779
1.4110 4.8714 -2.3476 0.9779
1.2137 4.9243 -2.3476 0.9779
0.2042 5.0675 -2.3476 0.9779
-0.4081 5.0552 -2.3476 0.9779
-0.6113 5.0347 -2.3476 0.9779
-0.8135 5.0060 -2.3476 0.9779
-1.0145 4.9692 -2.3476 0.9779
-1.6060 4.8106 -2.3476 0.9779
-1.7984 4.7421 -2.3476 0.9779
-2.1742 4.5820 -2.3476 0.9779
-2.3569 4.4907 -2.3476 0.9779
-2.5358 4.3922 -2.3476 0.9779
-2.7106 4.2865 -2.3476 0.9779
-3.2075 3.9285 -2.3476 0.9779
-3.3631 3.7962 -2.3476 0.9779
-3.6577 3.5132 -2.3476 0.9779
-3.7962 3.3631 -2.3476 0.9779
-3.9285 3.2075 -2.3476 0.9779
-4.0545 3.0467 -2.3476 0.9779
-4.3063 2.7232 -2.3584 0.9778
-4.6666 2.6943 -2.4943 0.9765
-4.7823 2.5099 -2.5000 0.9765
-4.8794 2.3153 -2.5000 0.9765
-4.9687 2.1170 -2.5000 0.9765
-5.1229 1.7103 -2.5000 0.9765
-5.1876 1.5026 -2.5000 0.9765
-2.3851 0.5879 -1.1371 0.9892
-2.2466 0.4586 -1.0614 0.9899
-2.2302 0.3624 -1.0459 0.9901
-2.2080 0.2681 -1.0295 0.9902
-2.2008 0.1777 -1.0220 0.9903
-2.2037 0.0888 -1.0209 0.9903
-2.0595 -0.0830 -1.0111 0.9909
-2.0571 -0.1661 -1.0123 0.9908
-2.0575 -0.2498 -1.0167 0.9908
-2.9436 -0.8526 -1.5032 0.9864
-4.6045 -2.1849 -2.5000 0.9775
-4.5128 -2.3685 -2.5000 0.9775
-4.4138 -2.5483 -2.5000 0.9775
-4.3076 -2.7239 -2.5000 0.9775
-4.0744 -3.0617 -2.5000 0.9775
-3.6757 -3.5305 -2.5000 0.9775
-3.5305 -3.6757 -2.5000 0.9775
-1.9977 -4.6887 -2.5000 0.9775
-1.2197 -4.9485 -2.5000 0.9775
-0.8175 -5.0306 -2.5000 0.9775
-0.4101 -5.0800 -2.5000 0.9775
-0.2052 -5.0924 -2.5000 0.9775
1.0194 -4.9936 -2.5000 0.9775
1.2197 -4.9485 -2.5000 0.9775
1.4180 -4.8953 -2.5000 0.9775
1.6139 -4.8343 -2.5000 0.9775
1.9977 -4.6887 -2.5000 0.9775
2.1848 -4.6045 -2.5000 0.9775
2.5483 -4.4138 -2.5000 0.9775
3.0617 -4.0744 -2.5000 0.9775
3.2233 -3.9478 -2.5000 0.9775
3.3796 -3.8148 -2.5000 0.9775
3.5305 -3.6757 -2.5000 0.9775
3.8148 -3.3797 -2.5000 0.9775
4.1944 -2.8952 -2.5000 0.9775
4.6887 -1.9977 -2.5000 0.9775
4.7654 -1.8073 -2.5000 0.9775
4.9485 -1.2197 -2.5000 0.9775
4.9936 -1.0195 -2.5000 0.9775
5.0306 -0.8175 -2.5000 0.9775
5.0594 -0.6143 -2.5000 0.9775
5.0800 -0.4101 -2.5000 0.9775
5.0965 0.0000 -2.5000 0.9775
5.0800 0.4101 -2.5000 0.9775
5.0306 0.8175 -2.5000 0.9775
4.9936 1.0194 -2.5000 0.9775
4.5128 2.3685 -2.5000 0.9775
3.9532 2.7287 -2.3562 0.9788
3.8367 2.8831 -2.3541 0.9788
3.7072 3.0268 -2.3476 0.9789
3.5823 3.1736 -2.3476 0.9789
3.3153 3.4516 -2.3476 0.9789
3.0268 3.7072 -2.3476 0.9789
2.3929 4.1447 -2.3476 0.9789
2.2241 4.2377 -2.3476 0.9789
2.0517 4.3238 -2.3476 0.9789
1.6971 4.4749 -2.3476 0.9789
1.5155 4.5396 -2.3476 0.9789
1.1453 4.6468 -2.3476 0.9789
0.9573 4.6892 -2.3476 0.9789
0.7677 4.7239 -2.3476 0.9789
-0.3851 4.7704 -2.3476 0.9789
-0.7677 4.7239 -2.3476 0.9789
-1.1454 4.6468 -2.3476 0.9789
-1.5155 4.5396 -2.3476 0.9789
-1.6971 4.4749 -2.3476 0.9789
-2.0517 4.3238 -2.3476 0.9789
-2.2241 4.2377 -2.3476 0.9789
-2.8751 3.8260 -2.3476 0.9789
-3.0268 3.7071 -2.3476 0.9789
-3.1736 3.5823 -2.3476 0.9789
-3.3153 3.4516 -2.3476 0.9789
-3.4516 3.3153 -2.3476 0.9789
-3.7072 3.0268 -2.3476 0.9789
-3.8345 2.8814 -2.3528 0.9789
-4.2663 2.6978 -2.4760 0.9778
-4.6887 1.9977 -2.5000 0.9775
-2.9436 0.8526 -1.5032 0.9864
-2.0898 0.4266 -1.0462 0.9905
-2.0575 0.2498 -1.0167 0.9908
-2.0571 0.1661 -1.0123 0.9908
-1.9473 -0.1572 -1.0135 0.9912
-1.9445 -0.2361 -1.0162 0.9912
-1.9687 -0.4852 -1.0519 0.9909
-2.3249 -0.6734 -1.2557 0.9892
-4.4333 -1.8889 -2.5000 0.9785
-4.2670 -2.2395 -2.5000 0.9785
-4.0729 -2.5756 -2.5000 0.9785
-3.9659 -2.7375 -2.5000 0.9785
-3.8525 -2.8950 -2.5000 0.9785
-3.6071 -3.1956 -2.5000 0.9785
-3.1956 -3.6071 -2.5000 0.9785
-3.0478 -3.7328 -2.5000 0.9785
-2.5756 -4.0730 -2.5000 0.9785
-2.4095 -4.1733 -2.5000 0.9785
-1.7088 -4.5058 -2.5000 0.9785
-1.5260 -4.5710 -2.5000 0.9785
-1.1533 -4.6790 -2.5000 0.9785
-0.9639 -4.7216 -2.5000 0.9785
-0.5809 -4.7838 -2.5000 0.9785
-0.1941 -4.8151 -2.5000 0.9785
0.0000 -4.8190 -2.5000 0.9785
0.3878 -4.8033 -2.5000 0.9785
0.5809 -4.7838 -2.5000 0.9785
0.7730 -4.7566 -2.5000 0.9785
0.9639 -4.7216 -2.5000 0.9785
1.3407 -4.6287 -2.5000 0.9785
1.5260 -4.5710 -2.5000 0.9785
1.7088 -4.5058 -2.5000 0.9785
1.8889 -4.4334 -2.5000 0.9785
2.4095 -4.1734 -2.5000 0.9785
2.7375 -3.9659 -2.5000 0.9785
2.8950 -3.8525 -2.5000 0.9785
3.0477 -3.7328 -2.5000 0.9785
3.1956 -3.6071 -2.5000 0.9785
3.4755 -3.3382 -2.5000 0.9785
4.0729 -2.5756 -2.5000 0.9785
4.1733 -2.4095 -2.5000 0.9785
4.4333 -1.8889 -2.5000 0.9785
4.5058 -1.7088 -2.5000 0.9785
4.5710 -1.5260 -2.5000 0.9785
4.6789 -1.1533 -2.5000 0.9785
4.7216 -0.9639 -2.5000 0.9785
4.8034 -0.3878 -2.5000 0.9785
4.8150 -0.1941 -2.5000 0.9785
4.7566 0.7730 -2.5000 0.9785
4.5710 1.5260 -2.5000 0.9785
4.5058 1.7088 -2.5000 0.9785
4.4333 1.8889 -2.5000 0.9785
4.3537 2.0658 -2.5000 0.9785
4.1733 2.4095 -2.5000 0.9785
3.9153 2.7026 -2.4681 0.9788
3.6310 2.7285 -2.3563 0.9797
2.8619 3.5053 -2.3476 0.9798
2.5706 3.7242 -2.3476 0.9798
2.2626 3.9189 -2.3476 0.9798
2.1030 4.0069 -2.3476 0.9798
1.9399 4.0883 -2.3476 0.9798
1.7737 4.1631 -2.3476 0.9798
1.6047 4.2311 -2.3476 0.9798
1.4330 4.2923 -2.3476 0.9798
1.2590 4.3465 -2.3476 0.9798
0.7259 4.4666 -2.3476 0.9798
0.0000 4.5252 -2.3476 0.9798
-0.1822 4.5215 -2.3476 0.9798
-0.3641 4.5105 -2.3476 0.9798
-0.5454 4.4922 -2.3476 0.9798
-1.2590 4.3465 -2.3476 0.9798
-1.6047 4.2311 -2.3476 0.9798
-1.9399 4.0883 -2.3476 0.9798
-2.1030 4.0069 -2.3476 0.9798
-2.2626 3.9189 -2.3476 0.9798
-2.5706 3.7242 -2.3476 0.9798
-2.7185 3.6176 -2.3476 0.9798
-3.5052 2.8619 -2.3476 0.9798
-3.9115 2.6999 -2.4656 0.9788
-4.0729 2.5756 -2.5000 0.9785
-4.1733 2.4095 -2.5000 0.9785
-4.2670 2.2395 -2.5000 0.9785
-2.3248 0.6734 -1.2557 0.9892
-1.9607 0.4003 -1.0382 0.9910
-1.9520 0.3172 -1.0259 0.9911
-1.9494 0.0786 -1.0121 0.9912
-1.8480 -0.0745 -1.0130 0.9916
-1.8480 -0.3003 -1.0254 0.9915
-1.8512 -0.3779 -1.0348 0.9914
-1.8515 -0.4563 -1.0444 0.9913
-4.2679 -1.6186 -2.5000 0.9794
-4.1992 -1.7891 -2.5000 0.9794
-3.9529 -2.2822 -2.5000 0.9794
-3.2919 -3.1619 -2.5000 0.9794
-3.1619 -3.2919 -2.5000 0.9794
-2.8868 -3.5357 -2.5000 0.9794
-2.7421 -3.6490 -2.5000 0.9794
-2.5929 -3.7565 -2.5000 0.9794
-2.4396 -3.8579 -2.5000 0.9794
-2.2823 -3.9530 -2.5000 0.9794
-1.9568 -4.1238 -2.5000 0.9794
-1.4454 -4.3296 -2.5000 0.9794
-1.2699 -4.3843 -2.5000 0.9794
-0.9130 -4.4722 -2.5000 0.9794
-0.5502 -4.5312 -2.5000 0.9794
-0.3673 -4.5497 -2.5000 0.9794
-0.1838 -4.5608 -2.5000 0.9794
0.0000 -4.5645 -2.5000 0.9794
0.3673 -4.5497 -2.5000 0.9794
0.7322 -4.5054 -2.5000 0.9794
1.2699 -4.3843 -2.5000 0.9794
1.4454 -4.3296 -2.5000 0.9794
1.6186 -4.2679 -2.5000 0.9794
1.7891 -4.1992 -2.5000 0.9794
1.9568 -4.1238 -2.5000 0.9794
2.1212 -4.0417 -2.5000 0.9794
2.5929 -3.7565 -2.5000 0.9794
2.7421 -3.6491 -2.5000 0.9794
3.4166 -3.0268 -2.5000 0.9794
3.5357 -2.8868 -2.5000 0.9794
3.8578 -2.4396 -2.5000 0.9794
3.9530 -2.2823 -2.5000 0.9794
4.1992 -1.7891 -2.5000 0.9794
4.4319 -1.0924 -2.5000 0.9794
4.5312 -0.5502 -2.5000 0.9794
4.5497 -0.3673 -2.5000 0.9794
4.5608 -0.1838 -2.5000 0.9794
4.5645 0.0000 -2.5000 0.9794
4.5497 0.3673 -2.5000 0.9794
4.5312 0.5502 -2.5000 0.9794
4.5054 0.7322 -2.5000 0.9794
4.4723 0.9130 -2.5000 0.9794
4.4318 1.0924 -2.5000 0.9794
4.3843 1.2699 -2.5000 0.9794
4.3296 1.4454 -2.5000 0.9794
4.2679 1.6186 -2.5000 0.9794
4.1238 1.9568 -2.5000 0.9794
4.0416 2.1212 -2.5000 0.9794
3.9529 2.2822 -2.5000 0.9794
3.8578 2.4396 -2.5000 0.9794
3.7565 2.5929 -2.5000 0.9794
3.2084 2.8423 -2.3476 0.9806
3.0912 2.9692 -2.3476 0.9806
