ply
format ascii 1.0
element vertex 1572
property float32 x
property float32 y
property float32 z
property float32 I
end_header
15.3507 15.9818 3.3948 0.9142
15.0730 17.0139 3.4822 0.9121
15.0525 18.4360 3.6461 0.9082
6.3674 9.2246 1.7171 0.9557
5.8339 10.1045 1.7874 0.9539
4.6890 16.1883 2.5819 0.9341
1.2776 15.8258 2.4323 0.9378
0.6375 15.8187 2.4253 0.9379
0.0000 20.8462 3.1935 0.9191
-1.7826 22.0811 3.3937 0.9143
-25.6477 22.7219 5.2492 0.8705
-39.9999 18.9802 6.7826 0.8360
-40.5324 9.9904 6.3952 0.8446
-38.5568 3.1126 5.9259 0.8551
-41.4948 -5.0384 5.4432 0.8448
-33.0320 -6.7435 4.3902 0.8728
-34.8780 -8.5967 4.6778 0.8651
-34.1372 -11.3967 4.6866 0.8649
-33.4366 -19.3047 5.0277 0.8558
-31.8365 -20.1322 4.9051 0.8590
-32.8385 -22.6668 5.1960 0.8513
-5.3303 -7.7223 1.2219 0.9629
-5.0474 -7.9818 1.2298 0.9626
-4.7015 -8.1432 1.2245 0.9628
-4.0222 -8.4767 1.2218 0.9629
-2.9888 -8.9525 1.2290 0.9626
-2.5830 -8.9176 1.2090 0.9632
-1.8640 -11.4698 1.5132 0.9542
-0.3561 -8.8368 1.1517 0.9650
0.6694 -8.2916 1.0832 0.9670
0.9807 -8.0768 1.0595 0.9677
1.2799 -7.8754 1.0390 0.9683
1.8500 -7.5059 1.0067 0.9693
2.1139 -7.2981 0.9894 0.9698
25.4729 -22.5670 4.4316 0.8717
25.5077 -20.8264 4.2882 0.8756
25.4026 -19.0888 4.1378 0.8797
25.2380 -17.4206 3.9934 0.8836
25.3288 -16.0170 3.9025 0.8861
26.3488 -15.2125 3.9620 0.8845
26.0417 -8.6940 3.5752 0.8952
28.4824 -8.2500 3.8615 0.8873
27.0530 -6.6680 3.6283 0.8937
22.8122 2.7699 2.9924 0.9115
13.7991 2.8171 1.8340 0.9448
20.4995 5.0527 2.7494 0.9184
35.2698 20.3630 5.3034 0.8485
35.7810 22.6265 5.5129 0.8430
21.5578 16.1996 3.5115 0.8969
3.2964 2.6914 0.5542 0.9830
3.1710 2.8092 0.5517 0.9831
15.9071 19.4827 3.2753 0.9035
6.9266 10.0349 1.5878 0.9520
5.9178 9.3581 1.4418 0.9563
5.4597 10.4024 1.5299 0.9537
5.1285 12.0368 1.7038 0.9486
5.7972 15.2859 2.1289 0.9362
5.0954 15.2626 2.0953 0.9372
3.7583 15.2478 2.0450 0.9386
3.1528 15.4433 2.0525 0.9384
2.5985 15.9894 2.1095 0.9367
1.9406 15.9821 2.0965 0.9371
1.3379 16.5727 2.1651 0.9351
-0.8397 20.8369 2.7156 0.9193
-1.7876 22.1435 2.8929 0.9143
-2.5689 21.1566 2.7753 0.9176
-4.2100 20.6217 2.7408 0.9186
-37.4797 21.6390 5.6357 0.8398
-37.2418 19.5460 5.4770 0.8440
-39.0057 3.1489 5.0959 0.8540
-40.7520 -4.9483 4.4082 0.8478
-35.8644 -8.8398 3.9664 0.8619
-35.0925 -11.7156 3.9727 0.8617
-27.1546 -10.2984 3.1186 0.8897
-31.9545 -24.0122 4.2921 0.8515
-4.4470 -7.7025 0.9551 0.9649
-4.1248 -7.8592 0.9531 0.9649
-3.4860 -8.1821 0.9550 0.9649
-3.1666 -8.3497 0.9589 0.9647
-1.4058 -11.5777 1.2524 0.9542
25.8332 -22.8862 3.7061 0.8704
25.6406 -20.9349 3.5545 0.8753
25.4067 -19.0919 3.4127 0.8800
25.2979 -17.4619 3.3008 0.8837
33.9920 -14.4826 3.9676 0.8619
27.1754 -9.0725 3.0765 0.8911
26.7748 -7.7554 2.9933 0.8939
28.4241 -7.0059 3.1436 0.8889
24.2413 0.0000 2.6031 0.9071
23.8155 0.9597 2.5594 0.9086
22.1663 2.6915 2.3977 0.9141
22.1446 3.5989 2.4091 0.9137
21.8125 5.3763 2.4124 0.9136
35.5754 18.6713 4.3143 0.8508
34.7087 20.0390 4.3037 0.8511
25.4502 16.0938 3.2335 0.8859
23.5004 16.2212 3.0663 0.8915
21.7951 16.3779 2.9275 0.8961
3.1702 2.8086 0.4548 0.9831
15.0730 17.0139 2.4408 0.9126
6.4420 8.5727 1.1515 0.9578
6.4541 10.2062 1.2967 0.9526
6.1374 10.6302 1.3181 0.9518
5.5300 10.5364 1.2778 0.9533
4.5171 10.6018 1.2375 0.9547
4.1506 10.9441 1.2569 0.9540
5.0954 15.2626 1.7278 0.9373
3.7583 15.2478 1.6863 0.9388
3.1528 15.4432 1.6925 0.9386
-0.0000 18.2189 1.9564 0.9293
-4.2463 20.7996 2.2796 0.9181
-2.3561 2.2631 0.3508 0.9869
-37.9467 21.9086 4.7052 0.8384
-38.0388 19.9643 4.6131 0.8413
-39.5441 18.7639 4.7001 0.8385
-44.1965 18.8304 5.1587 0.8243
-40.1500 9.8961 4.4404 0.8467
-37.3515 3.0153 4.0239 0.8601
-46.5003 -3.7539 3.9492 0.8292
-40.2816 -4.8911 3.4350 0.8497
-32.6886 -5.3125 2.8035 0.8755
-36.5781 -10.5950 3.2237 0.8582
-34.7900 -11.6146 3.1049 0.8631
-34.1779 -12.9620 3.0943 0.8635
-32.9631 -19.0313 3.2221 0.8583
-32.7556 -20.7135 3.2807 0.8559
-32.3496 -22.3293 3.3275 0.8540
-32.2726 -24.2513 3.4173 0.8504
-1.4053 -11.5735 0.9869 0.9543
-1.3959 -17.2919 1.4686 0.9327
-0.6962 -17.2757 1.4636 0.9329
0.0000 -17.2643 1.4615 0.9330
1.3930 -17.2557 1.4655 0.9329
2.8060 -17.2662 1.4808 0.9322
25.6406 -20.9349 2.8021 0.8756
26.5977 -15.3562 2.5999 0.8840
31.0459 -16.2941 2.9680 0.8687
33.0595 -15.6869 3.0977 0.8634
34.2967 -14.6124 3.1558 0.8610
28.5977 -9.5473 2.5522 0.8860
21.7396 2.6397 1.8538 0.9158
13.8153 2.8204 1.1936 0.9450
21.2773 5.2444 1.8551 0.9158
33.7991 19.5139 3.3038 0.8550
25.4502 16.0938 2.5490 0.8861
20.7161 15.5672 2.1936 0.9012
3.2940 2.6894 0.3600 0.9831
16.1961 16.8620 1.9792 0.9104
15.0392 20.0135 2.1192 0.9044
6.3897 10.1043 1.0120 0.9531
5.1661 9.8432 0.9410 0.9564
4.1827 9.8172 0.9033 0.9581
4.4187 15.2551 1.3445 0.9382
3.7583 15.2478 1.3294 0.9389
3.1528 15.4433 1.3343 0.9387
2.5985 15.9894 1.3713 0.9370
1.9406 15.9821 1.3629 0.9374
-0.8325 20.6586 1.7502 0.9204
-1.6667 20.6452 1.7534 0.9202
-4.8470 23.7422 2.0513 0.9073
-14.2931 42.8129 3.8209 0.8343
-18.2131 42.7478 3.9335 0.8298
-2.3561 2.2631 0.2766 0.9870
-36.7716 21.2301 3.5944 0.8433
-44.4932 18.9568 4.0941 0.8235
-39.4276 9.7181 3.4375 0.8496
-40.8403 8.3376 3.5286 0.8459
-37.8498 4.5958 3.2276 0.8581
-38.1251 1.5364 3.2300 0.8580
-49.3033 0.0000 3.0573 0.8207
-39.1250 -4.7507 2.4440 0.8539
-35.7640 -10.3592 2.3089 0.8614
-35.4372 -11.8307 2.3167 0.8609
-36.8387 -17.4802 2.5285 0.8492
-32.8649 -18.9746 2.3532 0.8589
-32.0007 -20.2361 2.3478 0.8592
-32.8448 -22.6711 2.4748 0.8522
-32.6847 -24.5609 2.5352 0.8489
-1.4048 -11.5692 0.7227 0.9544
-0.6660 -16.5267 1.0257 0.9359
0.0000 -16.5168 1.0242 0.9359
1.1856 -14.6868 0.9137 0.9427
2.6830 -16.5093 1.0372 0.9352
4.0730 -16.5250 1.0554 0.9341
14.3119 -19.0457 1.4773 0.9089
15.0252 -16.9599 1.4050 0.9132
19.4927 -17.2691 1.6149 0.9009
25.2979 -17.4619 1.9062 0.8841
26.3454 -15.2105 1.8864 0.8852
27.1835 -12.8987 1.8658 0.8864
43.5023 -14.5232 2.8440 0.8321
45.2179 -13.0975 2.9192 0.8281
28.9839 -7.1439 1.8511 0.8872
30.1644 -6.1581 1.9091 0.8839
30.1664 -3.6629 1.8844 0.8853
20.6560 1.6675 1.2851 0.9203
23.4240 2.8442 1.4632 0.9098
21.9161 3.5617 1.3769 0.9149
13.8153 2.8204 0.8744 0.9451
21.8504 7.2947 1.4285 0.9118
44.6897 16.9486 2.9638 0.8257
44.8794 19.1213 3.0251 0.8224
35.1680 20.3042 2.5181 0.8498
22.3895 15.4544 1.6870 0.8967
20.7161 15.5672 1.6069 0.9014
3.1431 3.0190 0.2703 0.9827
8.6678 9.0240 0.7759 0.9511
7.1524 8.0733 0.6688 0.9577
6.9497 8.5118 0.6814 0.9569
6.0460 9.5608 0.7015 0.9557
5.5313 10.5389 0.7381 0.9534
5.1779 10.9121 0.7490 0.9527
4.2334 11.1626 0.7403 0.9533
3.8074 11.4043 0.7456 0.9530
3.3764 11.6566 0.7525 0.9525
2.8820 11.6926 0.7468 0.9529
3.2654 15.9951 1.0123 0.9367
2.8435 17.4964 1.0992 0.9314
2.1235 17.4884 1.0924 0.9318
1.2776 15.8258 0.9846 0.9384
-0.0000 18.0680 1.1204 0.9301
-0.8325 20.6586 1.2821 0.9205
-2.5056 20.6359 1.2890 0.9201
-4.8470 23.7422 1.5026 0.9075
-37.7096 23.8461 2.7667 0.8363
-38.9009 22.4594 2.7854 0.8353
-37.7459 19.8106 2.6434 0.8430
-45.5868 17.2888 3.0233 0.8225
-46.8804 13.5791 3.0266 0.8223
-39.5510 9.7485 2.5260 0.8494
-38.0149 4.6158 2.3746 0.8577
-48.2691 1.9452 2.9956 0.8240
-41.6803 -3.3648 1.6488 0.8459
-40.3027 -4.8937 1.6008 0.8500
-33.1785 -5.3921 1.3254 0.8741
-32.3104 -6.5963 1.3003 0.8763
-37.2440 -17.6725 1.6255 0.8479
-34.6957 -18.2098 1.5451 0.8548
-32.2007 -18.5911 1.4661 0.8617
-31.6852 -23.8098 1.5628 0.8533
-4.2639 -14.7207 0.6043 0.9405
-1.8590 -11.4391 0.4570 0.9547
-1.4042 -11.5650 0.4594 0.9544
-1.1912 -14.7551 0.5837 0.9425
0.0000 -14.7419 0.5813 0.9427
1.1839 -14.6657 0.5802 0.9428
1.7876 -14.7221 0.5848 0.9424
2.3915 -14.7154 0.5879 0.9421
3.0028 -14.7086 0.5919 0.9417
3.6237 -14.7017 0.5971 0.9412
4.2564 -14.6947 0.6032 0.9406
14.7585 -31.1030 1.3575 0.8713
14.1463 -22.3706 1.0437 0.8995
15.3741 -22.2731 1.0672 0.8973
14.6295 -19.4683 0.9602 0.9071
15.4203 -16.0542 0.8778 0.9147
16.7681 -16.1060 0.9168 0.9111
18.2472 -16.1656 0.9613 0.9070
25.4748 -19.1431 1.2565 0.8802
25.3098 -17.4701 1.2127 0.8842
26.4735 -15.2845 1.2054 0.8848
34.0496 -14.5071 1.4594 0.8623
37.5778 -14.2514 1.5847 0.8514
45.0350 -13.0446 1.8488 0.8289
22.3048 1.8006 0.8824 0.9143
22.0032 3.5759 0.8790 0.9146
45.1132 19.2209 1.9336 0.8218
35.5227 18.6437 1.5819 0.8516
34.6856 20.0257 1.5793 0.8519
23.5004 16.2212 1.1260 0.8920
3.1680 2.8066 0.1669 0.9832
3.1407 3.0167 0.1717 0.9827
15.3507 15.9818 0.8738 0.9151
15.0730 17.0139 0.8963 0.9130
6.1147 8.1372 0.4014 0.9601
4.9330 10.3960 0.4537 0.9550
4.3274 10.1566 0.4353 0.9568
4.6375 16.0103 0.6573 0.9355
3.9443 16.0027 0.6499 0.9362
2.8427 17.4915 0.6988 0.9315
0.9725 8.0089 0.3181 0.9682
0.6375 7.8958 0.3124 0.9688
0.3171 7.8680 0.3105 0.9690
-0.3289 8.1631 0.3221 0.9678
-1.0147 8.3574 0.3320 0.9669
-3.3529 20.6312 0.8242 0.9197
-4.2100 20.6217 0.8299 0.9192
-2.3561 2.2631 0.1288 0.9870
-36.5373 29.8318 1.8599 0.8279
-35.7711 20.6525 1.6287 0.8476
-38.5406 18.2877 1.6821 0.8430
-47.6260 13.7951 1.9551 0.8200
-39.0414 9.6229 1.5855 0.8513
-38.0311 7.7641 1.5305 0.8561
-38.1926 6.2069 1.5257 0.8565
-37.4334 3.0219 1.4808 0.8604
-37.5050 1.5114 1.4801 0.8605
-32.0049 -5.2013 0.5477 0.8783
-31.5365 -6.4382 0.5437 0.8792
-30.5606 -22.9648 0.6457 0.8582
-3.6435 -14.7823 0.2572 0.9409
-1.8578 -11.4316 0.1956 0.9547
-1.1912 -14.7551 0.2501 0.9425
-0.5943 -14.7485 0.2493 0.9427
0.0000 -14.7419 0.2490 0.9427
1.7876 -14.7221 0.2505 0.9424
3.6237 -14.7017 0.2558 0.9412
4.2564 -14.6947 0.2584 0.9406
14.6972 -30.9737 0.5791 0.8718
14.5257 -27.6764 0.5280 0.8825
14.8039 -25.6411 0.5001 0.8883
14.3895 -20.8468 0.4279 0.9036
12.9331 -14.5985 0.3294 0.9249
17.8136 -14.5444 0.3885 0.9121
19.3326 -14.5275 0.4085 0.9078
21.0196 -14.5088 0.4314 0.9029
25.5128 -16.1333 0.5099 0.8862
26.5977 -15.3562 0.5188 0.8844
33.0702 -15.6920 0.6183 0.8638
37.6468 -14.2775 0.6801 0.8512
43.4768 -14.5147 0.7743 0.8325
20.3722 2.4737 0.3467 0.9212
24.0094 3.9019 0.4109 0.9073
22.5405 6.5290 0.3964 0.9104
22.8494 7.6283 0.4069 0.9081
41.9041 21.9930 0.7994 0.8275
34.7848 20.0830 0.6785 0.8516
3.1673 2.8060 0.0715 0.9832
7.5756 10.0812 0.2130 0.9508
4.0461 9.4966 0.1744 0.9595
3.2654 15.9951 0.2758 0.9368
0.9514 7.8352 0.1333 0.9689
0.3107 7.7079 0.1303 0.9696
-0.3235 8.0291 0.1357 0.9684
-30.0140 31.2479 0.7319 0.8409
-36.2539 22.9256 0.7246 0.8423
-37.8658 19.8735 0.7224 0.8428
-39.1432 9.6480 0.6810 0.8511
-40.3699 8.2416 0.6960 0.8480
-37.5590 6.1040 0.6428 0.8588
-31.3709 -7.7323 -0.1819 0.8788
-35.2265 -20.3380 -0.2290 0.8498
-30.7423 -23.1013 -0.2165 0.8574
-4.2639 -14.7207 -0.0863 0.9405
-3.0164 -14.7753 -0.0849 0.9415
-1.1911 -14.7551 -0.0833 0.9425
-0.5943 -14.7485 -0.0831 0.9427
0.0000 -14.7419 -0.0830 0.9427
0.5938 -14.7353 -0.0830 0.9427
1.1839 -14.6657 -0.0828 0.9428
1.7876 -14.7221 -0.0835 0.9424
3.6237 -14.7017 -0.0853 0.9412
4.2564 -14.6947 -0.0861 0.9406
13.2304 -34.8857 -0.2101 0.8614
14.8576 -34.8723 -0.2134 0.8593
14.7787 -23.3706 -0.1557 0.8953
14.7195 -18.0281 -0.1310 0.9111
17.8136 -14.5444 -0.1295 0.9121
19.3326 -14.5275 -0.1362 0.9078
21.0196 -14.5088 -0.1438 0.9029
25.5128 -16.1333 -0.1700 0.8863
26.5978 -15.3562 -0.1729 0.8844
30.4702 -15.9920 -0.1937 0.8714
43.4496 -14.5056 -0.2579 0.8326
24.0044 3.9011 -0.1369 0.9073
13.8153 2.8204 -0.0794 0.9452
44.8564 17.0118 -0.2701 0.8254
35.9888 20.7781 -0.2340 0.8469
25.4502 16.0938 -0.1695 0.8865
22.6225 16.9997 -0.1593 0.8930
3.2892 2.6855 -0.0239 0.9832
3.1666 2.8053 -0.0238 0.9832
7.7623 8.0813 -0.0631 0.9562
7.4063 9.0710 -0.0659 0.9542
6.1870 9.7838 -0.0652 0.9548
4.9741 9.4772 -0.0603 0.9581
4.3516 9.1706 -0.0571 0.9602
4.1396 9.7159 -0.0595 0.9586
3.3910 10.1572 -0.0603 0.9581
3.2654 15.9951 -0.0919 0.9368
0.3046 7.5568 -0.0426 0.9702
0.0001 7.7029 -0.0434 0.9697
-0.9889 8.1445 -0.0462 0.9677
-1.3664 8.4084 -0.0480 0.9665
-36.7100 23.2140 -0.2445 0.8405
-38.4378 20.1737 -0.2444 0.8406
-39.9448 8.1548 -0.2295 0.8495
-38.9753 6.3341 -0.2223 0.8539
-37.6906 3.0427 -0.2129 0.8596
-32.9904 -5.3615 -0.9411 0.8748
-32.2338 -6.5806 -0.9264 0.8767
-36.4682 -21.0549 -1.1857 0.8449
-4.2639 -14.7207 -0.4315 0.9405
-3.0164 -14.7753 -0.4246 0.9414
-1.8554 -11.4167 -0.3257 0.9548
-0.5943 -14.7485 -0.4156 0.9426
0.0000 -14.7419 -0.4151 0.9427
0.5938 -14.7353 -0.4153 0.9427
1.1839 -14.6657 -0.4143 0.9428
1.7876 -14.7221 -0.4176 0.9424
2.3915 -14.7154 -0.4198 0.9421
3.0028 -14.7086 -0.4227 0.9417
3.6237 -14.7017 -0.4264 0.9412
11.6524 -34.9032 -1.0361 0.8631
14.8670 -31.3316 -0.9765 0.8704
14.8039 -25.6411 -0.8337 0.8883
14.6529 -21.2283 -0.7263 0.9019
14.7370 -19.6114 -0.6907 0.9065
14.7195 -18.0281 -0.6553 0.9111
12.9331 -14.5985 -0.5492 0.9249
14.0106 -14.5865 -0.5695 0.9223
15.1728 -14.5737 -0.5924 0.9193
17.8136 -14.5444 -0.6475 0.9121
19.3326 -14.5275 -0.6809 0.9078
21.0196 -14.5088 -0.7192 0.9028
25.4667 -16.1042 -0.8484 0.8864
26.4096 -15.2476 -0.8587 0.8851
32.0398 -15.2031 -0.9986 0.8677
34.1441 -14.5474 -1.0450 0.8620
37.6468 -14.2775 -1.1337 0.8512
28.0499 6.9136 -0.8135 0.8908
21.4792 6.2215 -0.6297 0.9144
17.4913 5.8395 -0.5192 0.9289
15.8767 6.0212 -0.4781 0.9343
34.0793 21.5504 -1.1354 0.8510
3.1658 2.8047 -0.1191 0.9832
5.7473 8.3264 -0.2849 0.9603
5.4795 10.4403 -0.3320 0.9539
4.7248 11.0894 -0.3394 0.9529
3.1921 11.0204 -0.3231 0.9551
3.2654 15.9951 -0.4597 0.9368
1.2975 7.9834 -0.2277 0.9682
-0.3146 7.8084 -0.2200 0.9692
-0.6424 7.9579 -0.2248 0.9686
-0.9828 8.0947 -0.2296 0.9679
-5.1518 20.9014 -0.6061 0.9175
-5.5304 16.5653 -0.4917 0.9325
-5.5691 14.6845 -0.4422 0.9391
-3.7766 3.3458 -0.1421 0.9800
-39.0976 20.5200 -1.2433 0.8380
-48.5540 0.0001 -2.4624 0.8233
-27.9712 -1.1272 -1.4197 0.8939
-48.3958 -3.9069 -2.4623 0.8233
-48.1899 -5.8513 -2.4619 0.8233
-27.8884 -4.5323 -1.4329 0.8930
-27.8761 -5.6910 -1.4429 0.8923
-27.8235 -8.0592 -1.4690 0.8905
-27.7730 -9.2720 -1.4849 0.8893
-27.7947 -13.1887 -1.5602 0.8841
-27.9083 -16.1129 -1.6343 0.8789
-40.5907 -25.6680 -2.4356 0.8250
-28.0221 -19.3423 -1.7268 0.8725
-28.1029 -21.1179 -1.7828 0.8687
-28.3401 -27.2210 -1.9928 0.8544
-28.4326 -29.6015 -2.0815 0.8484
-31.2195 -35.2395 -2.3876 0.8282
-3.0164 -14.7753 -0.7648 0.9414
-1.1911 -14.7551 -0.7507 0.9424
1.1839 -14.6657 -0.7462 0.9428
1.7876 -14.7221 -0.7521 0.9423
3.6237 -14.7017 -0.7679 0.9412
4.2564 -14.6947 -0.7759 0.9406
13.2304 -34.8857 -1.8922 0.8612
14.8577 -34.8723 -1.9224 0.8591
14.8670 -31.3316 -1.7588 0.8703
14.7787 -23.3707 -1.4023 0.8952
14.6529 -21.2283 -1.3082 0.9018
14.7370 -19.6114 -1.2441 0.9064
14.7195 -18.0281 -1.1803 0.9110
12.9331 -14.5985 -0.9891 0.9249
15.1728 -14.5737 -1.0669 0.9192
16.4345 -14.5597 -1.1135 0.9158
17.8136 -14.5444 -1.1663 0.9120
19.3326 -14.5275 -1.2264 0.9077
25.5127 -16.1333 -1.5309 0.8861
28.7708 -15.1001 -1.6478 0.8780
30.2193 -14.3392 -1.6963 0.8746
32.0035 -13.6354 -1.7642 0.8699
37.6468 -14.2775 -2.0419 0.8511
40.5315 -13.5314 -2.1670 0.8427
41.9438 -12.1492 -2.2146 0.8395
45.1504 -11.1286 -2.3583 0.8301
45.7580 -7.4364 -2.3510 0.8305
48.2303 -5.8562 -2.4639 0.8232
49.1633 -3.9689 -2.5014 0.8207
49.2833 -1.9860 -2.5014 0.8207
49.2833 1.9861 -2.5014 0.8207
23.9944 3.8995 -1.2328 0.9072
16.7815 5.6025 -0.8972 0.9316
11.4990 5.4563 -0.6455 0.9503
9.3717 5.4107 -0.5488 0.9576
8.9571 5.6641 -0.5375 0.9584
7.7112 5.7946 -0.4892 0.9621
3.1651 2.8041 -0.2144 0.9832
3.1309 3.0073 -0.2202 0.9828
5.8261 6.0656 -0.4265 0.9669
8.6189 9.7287 -0.6592 0.9493
6.1134 8.8567 -0.5458 0.9578
5.6465 9.7800 -0.5727 0.9558
5.2833 10.0663 -0.5765 0.9555
4.2631 10.0057 -0.5516 0.9574
3.6599 9.6503 -0.5234 0.9595
4.1826 12.5283 -0.6698 0.9485
3.3198 13.4688 -0.7035 0.9460
3.2654 15.9951 -0.8279 0.9367
0.6143 7.6085 -0.3871 0.9699
0.3053 7.5732 -0.3844 0.9701
-0.3150 7.8182 -0.3968 0.9691
-0.9914 8.1658 -0.4172 0.9676
-1.7685 8.6628 -0.4484 0.9652
-2.2173 8.9962 -0.4699 0.9636
-5.0431 15.1058 -0.8076 0.9382
-5.3288 14.0508 -0.7621 0.9416
-5.3703 11.3177 -0.6353 0.9511
-5.3992 7.8221 -0.4820 0.9626
-5.9464 7.9132 -0.5020 0.9611
-5.4325 6.6536 -0.4356 0.9662
-23.1641 26.1469 -1.7715 0.8694
-23.1047 24.0545 -1.6915 0.8750
-3.7764 3.3456 -0.2559 0.9800
-3.8833 3.1706 -0.2542 0.9801
-28.8090 21.6485 -1.8276 0.8656
-28.7358 19.8349 -1.7708 0.8695
-28.6015 16.5131 -1.6749 0.8761
-22.8480 10.8415 -1.2825 0.9037
-23.0953 9.8400 -1.2731 0.9043
-44.8879 17.0237 -2.4347 0.8251
-45.6038 15.2248 -2.4382 0.8248
-28.2651 8.1871 -1.4924 0.8888
-48.3622 3.9042 -2.4606 0.8234
-48.5059 1.9548 -2.4619 0.8233
-32.6951 -2.6394 -2.4051 0.8767
-32.5565 -3.9531 -2.4046 0.8767
-27.7730 -9.2720 -2.1468 0.8892
-27.7426 -10.5214 -2.1755 0.8878
-27.7947 -13.1887 -2.2557 0.8839
-28.8830 -15.1590 -2.3917 0.8774
-27.5316 -17.4099 -2.3884 0.8775
-26.0377 -19.5660 -2.3881 0.8775
-25.2241 -20.5948 -2.3876 0.8776
-24.8873 -22.0482 -2.4379 0.8752
-24.8045 -23.8250 -2.5218 0.8711
-23.9970 -24.9835 -2.5400 0.8703
-21.9088 -26.8334 -2.5400 0.8703
-18.5147 -29.2786 -2.5400 0.8703
-16.0987 -30.6735 -2.5400 0.8703
-10.9698 -32.8587 -2.5400 0.8703
-3.0164 -14.7753 -1.1057 0.9413
-1.1911 -14.7551 -1.0854 0.9424
-0.5943 -14.7485 -1.0823 0.9425
0.0000 -14.7419 -1.0809 0.9426
3.6237 -14.7017 -1.1102 0.9411
12.7145 -29.8421 -2.3784 0.8780
13.9020 -29.2979 -2.3778 0.8780
14.8039 -25.6411 -2.1709 0.8880
14.7787 -23.3707 -2.0275 0.8950
14.6529 -21.2283 -1.8913 0.9017
14.7195 -18.0281 -1.7065 0.9109
14.0106 -14.5865 -1.4830 0.9221
16.4345 -14.5597 -1.6099 0.9157
25.3713 -16.0438 -2.2010 0.8866
29.0735 -13.7955 -2.3595 0.8789
29.5859 -12.6054 -2.3580 0.8790
30.0342 -11.3905 -2.3552 0.8791
33.1238 -8.1643 -2.5014 0.8721
33.6734 -5.4725 -2.5014 0.8721
34.0875 -1.3737 -2.5014 0.8721
34.0875 1.3737 -2.5014 0.8721
34.0045 2.7451 -2.5014 0.8721
23.9893 3.8987 -1.7820 0.9071
26.5530 6.5447 -2.0052 0.8961
16.8157 5.6139 -1.2999 0.9314
14.6730 5.5647 -1.1506 0.9390
13.3931 5.7063 -1.0674 0.9433
10.2408 5.3748 -0.8480 0.9547
7.6587 5.2864 -0.6823 0.9634
7.4817 5.6222 -0.6862 0.9632
3.1284 3.0049 -0.3181 0.9828
4.5838 5.6142 -0.5314 0.9713
4.3598 5.8019 -0.5321 0.9713
3.9359 5.7020 -0.5080 0.9726
3.2922 5.7022 -0.4828 0.9739
3.0619 5.8338 -0.4831 0.9739
2.8258 5.9551 -0.4833 0.9739
2.4280 5.6987 -0.4542 0.9755
2.1905 5.7758 -0.4529 0.9755
1.9478 5.8342 -0.4510 0.9756
4.8670 16.8029 -1.2827 0.9322
1.1678 5.7202 -0.4281 0.9769
1.3036 8.0207 -0.5958 0.9679
0.6135 7.5988 -0.5590 0.9699
0.0000 5.7427 -0.4211 0.9772
-0.3169 7.8663 -0.5772 0.9689
-0.9381 5.7725 -0.4288 0.9768
-1.5363 6.2329 -0.4707 0.9746
-5.2820 18.2356 -1.3920 0.9267
-1.8964 5.6805 -0.4391 0.9763
-5.3589 11.2937 -0.9166 0.9511
-3.1030 5.9123 -0.4896 0.9736
-3.2372 5.6071 -0.4747 0.9744
-3.9146 5.6713 -0.5053 0.9727
-4.2003 5.5895 -0.5127 0.9723
-5.1809 5.8479 -0.5728 0.9692
-2.3561 2.2631 -0.2395 0.9870
-3.7762 3.3454 -0.3699 0.9800
-3.8833 3.1706 -0.3676 0.9801
-22.6717 13.0895 -1.9195 0.9003
-22.6324 11.8784 -1.8741 0.9026
-22.5790 10.7139 -1.8325 0.9046
-28.2651 8.1871 -2.1576 0.8887
-31.7891 7.8353 -2.4006 0.8769
-32.0960 6.5525 -2.4019 0.8769
-32.3485 5.2572 -2.4030 0.8768
-28.0538 2.2647 -2.0637 0.8933
-28.0262 1.1294 -2.0566 0.8936
-25.7160 0.0000 -2.4689 0.9018
-25.5971 -3.1081 -2.4755 0.9016
-25.5557 -4.1532 -2.4857 0.9012
-25.5131 -5.2085 -2.4999 0.9007
-25.4122 -7.3607 -2.5400 0.8991
-25.0952 -8.3780 -2.5400 0.8991
-24.7375 -9.3817 -2.5400 0.8991
-24.3397 -10.3702 -2.5400 0.8991
-21.7735 -15.0292 -2.5400 0.8991
-21.1507 -15.8937 -2.5400 0.8991
-20.4936 -16.7324 -2.5400 0.8991
-19.0807 -18.3273 -2.5400 0.8991
-18.3272 -19.0807 -2.5400 0.8991
-17.5441 -19.8032 -2.5400 0.8991
-12.2951 -23.4263 -2.5400 0.8991
-11.3418 -23.9024 -2.5400 0.8991
-10.3702 -24.3397 -2.5400 0.8991
-7.8760 -23.5914 -2.3878 0.9049
-3.0164 -14.7753 -1.4478 0.9412
-1.8517 -11.3943 -1.1083 0.9547
-1.4011 -11.5394 -1.1160 0.9544
-1.1911 -14.7551 -1.4212 0.9423
-0.5943 -14.7485 -1.4171 0.9424
1.7876 -14.7221 -1.4238 0.9421
2.3915 -14.7154 -1.4313 0.9419
3.0028 -14.7086 -1.4412 0.9415
4.2564 -14.6947 -1.4688 0.9404
9.6750 -22.7081 -2.3697 0.9056
10.5790 -22.2948 -2.3692 0.9056
11.4657 -21.8460 -2.3686 0.9056
12.3331 -21.3615 -2.3681 0.9056
13.1798 -20.8421 -2.3675 0.9057
14.0043 -20.2888 -2.3668 0.9057
14.7370 -19.6114 -2.3551 0.9061
15.1728 -14.5737 -2.0198 0.9189
21.2479 -12.2675 -2.3555 0.9061
22.1271 -10.4994 -2.3513 0.9063
24.7140 -8.2507 -2.5014 0.9006
25.0262 -7.2489 -2.5014 0.9006
25.5283 -5.2117 -2.5014 0.9006
25.7174 -4.1795 -2.5014 0.9006
25.8649 -3.1406 -2.5014 0.9006
25.9703 -2.0965 -2.5014 0.9006
26.0548 0.0000 -2.5014 0.9006
25.9703 2.0966 -2.5014 0.9006
24.2890 2.9492 -2.3490 0.9064
23.9843 3.8978 -2.3328 0.9070
17.0864 5.7043 -1.7294 0.9302
10.2389 5.3738 -1.1102 0.9546
9.2492 5.3400 -1.0253 0.9580
8.8282 5.5826 -1.0028 0.9589
7.5896 5.2388 -0.8854 0.9636
7.3862 5.5504 -0.8870 0.9636
3.2844 2.6817 -0.4071 0.9831
3.1260 3.0026 -0.4161 0.9827
5.3236 5.5424 -0.7378 0.9696
3.8537 5.5829 -0.6513 0.9731
2.9794 5.6767 -0.6155 0.9746
2.5784 5.4337 -0.5774 0.9761
2.2898 5.3744 -0.5608 0.9768
2.0258 5.3416 -0.5485 0.9773
1.8446 5.5251 -0.5592 0.9769
1.3788 5.5938 -0.5531 0.9771
0.6898 5.6805 -0.5494 0.9773
0.4560 5.6476 -0.5440 0.9775
0.2200 5.4576 -0.5244 0.9783
-0.2205 5.4715 -0.5257 0.9782
-0.8828 5.4323 -0.5284 0.9781
-1.1018 5.3972 -0.5288 0.9781
-1.7937 5.3728 -0.5438 0.9775
-2.6820 5.6522 -0.6006 0.9752
-3.2756 5.1799 -0.5884 0.9757
-4.3067 5.2747 -0.6538 0.9730
-2.3561 2.2631 -0.3136 0.9870
-21.1507 15.8937 -2.5400 0.8991
-21.7735 15.0292 -2.5400 0.8991
-22.3610 14.1403 -2.5400 0.8991
-23.9024 11.3419 -2.5400 0.8991
-24.7375 9.3817 -2.5400 0.8991
-25.9033 5.2882 -2.5381 0.8992
-25.8663 4.2037 -2.5159 0.9001
-25.8293 3.1363 -2.4980 0.9007
-25.7919 2.0821 -2.4842 0.9012
-25.7542 1.0379 -2.4745 0.9016
-21.3135 -1.7206 -2.5400 0.9175
-21.2270 -2.5774 -2.5400 0.9175
-21.1060 -3.4301 -2.5400 0.9175
-20.9508 -4.2771 -2.5400 0.9175
-20.7615 -5.1173 -2.5400 0.9175
-20.5386 -5.9491 -2.5400 0.9175
-19.9933 -7.5825 -2.5400 0.9175
-19.3184 -9.1667 -2.5400 0.9175
-18.9336 -9.9371 -2.5400 0.9175
-18.5181 -10.6914 -2.5400 0.9175
-17.0944 -12.8456 -2.5400 0.9175
-15.4214 -14.8124 -2.5400 0.9175
-10.6914 -18.5181 -2.5400 0.9175
-9.9371 -18.9336 -2.5400 0.9175
-6.4975 -15.2501 -1.9691 0.9354
-7.1293 -18.7983 -2.3882 0.9222
-3.0164 -14.7753 -1.7913 0.9411
-1.4006 -11.5351 -1.3803 0.9543
-1.1911 -14.7551 -1.7584 0.9421
-0.5943 -14.7485 -1.7533 0.9423
1.1839 -14.6657 -1.7477 0.9425
1.7876 -14.7221 -1.7616 0.9420
3.0028 -14.7086 -1.7832 0.9413
3.6237 -14.7017 -1.7986 0.9408
6.3054 -18.8871 -2.3652 0.9229
7.0598 -18.6151 -2.3649 0.9229
8.5318 -17.9806 -2.3641 0.9230
10.6301 -16.8102 -2.3626 0.9230
11.9422 -15.8922 -2.3614 0.9230
12.5689 -15.3941 -2.3607 0.9231
15.8406 -11.9034 -2.3537 0.9233
16.2962 -11.2485 -2.3521 0.9233
16.7245 -10.5759 -2.3505 0.9234
19.3729 -8.2540 -2.5014 0.9187
19.6896 -7.4673 -2.5014 0.9187
20.7853 -3.3779 -2.5014 0.9187
21.0409 -0.8479 -2.5014 0.9187
21.0580 0.0000 -2.5014 0.9187
21.0409 0.8479 -2.5014 0.9187
19.9129 2.4179 -2.3827 0.9224
19.5326 3.1744 -2.3506 0.9234
13.8153 2.8204 -1.6749 0.9448
19.2440 4.7432 -2.3543 0.9233
19.0374 5.5143 -2.3543 0.9233
16.9200 5.6487 -2.1189 0.9307
9.2165 5.3211 -1.2642 0.9580
8.8380 5.5888 -1.2421 0.9588
7.3795 5.5453 -1.0965 0.9635
3.2832 2.6807 -0.5035 0.9831
4.7922 5.4092 -0.8584 0.9713
4.4507 5.4510 -0.8359 0.9721
4.2579 5.6662 -0.8419 0.9719
3.7468 5.4281 -0.7835 0.9738
2.8849 5.4966 -0.7374 0.9753
2.0295 5.3512 -0.6798 0.9772
1.6125 5.5669 -0.6885 0.9769
1.0938 5.3574 -0.6495 0.9782
0.8448 5.1982 -0.6256 0.9790
0.4509 5.5853 -0.6656 0.9777
0.2206 5.4729 -0.6506 0.9782
-0.2173 5.3921 -0.6410 0.9785
-0.6780 5.5837 -0.6681 0.9776
-1.0762 5.2718 -0.6391 0.9786
-1.8094 5.4199 -0.6787 0.9772
-2.6480 5.5804 -0.7337 0.9754
-2.8230 5.3788 -0.7216 0.9758
-3.0052 5.2051 -0.7139 0.9761
-3.3460 5.2913 -0.7437 0.9751
-3.8366 5.5582 -0.8022 0.9732
-4.1245 5.4887 -0.8156 0.9727
-4.3189 5.2896 -0.8112 0.9729
-2.3561 2.2631 -0.3881 0.9869
-3.8833 3.1706 -0.5955 0.9800
-17.0944 12.8456 -2.5400 0.9175
-17.5978 12.1469 -2.5400 0.9175
-18.0726 11.4284 -2.5400 0.9175
-18.9336 9.9371 -2.5400 0.9175
-19.6718 8.3814 -2.5400 0.9175
-19.9933 7.5825 -2.5400 0.9175
-20.9507 4.2771 -2.5400 0.9175
-21.2270 2.5774 -2.5400 0.9175
-21.3135 1.7206 -2.5400 0.9175
-21.3655 0.8610 -2.5400 0.9175
-17.9264 0.0000 -2.5400 0.9301
-17.9119 -0.7218 -2.5400 0.9301
-17.8683 -1.4425 -2.5400 0.9301
-17.6943 -2.8756 -2.5400 0.9301
-17.0039 -5.6767 -2.5400 0.9301
-16.7615 -6.3568 -2.5400 0.9301
-16.4920 -7.0266 -2.5400 0.9301
-15.8731 -8.3308 -2.5400 0.9301
-15.5247 -8.9632 -2.5400 0.9301
-15.1512 -9.5811 -2.5400 0.9301
-14.7532 -10.1834 -2.5400 0.9301
-14.3312 -10.7692 -2.5400 0.9301
-13.4181 -11.8874 -2.5400 0.9301
-12.9286 -12.4181 -2.5400 0.9301
-9.0062 -14.2422 -2.3876 0.9342
-7.2251 -15.2265 -2.3880 0.9342
-6.4568 -15.1548 -2.3340 0.9356
-4.2639 -14.7207 -2.1715 0.9400
-3.6293 -14.7248 -2.1488 0.9406
-1.8493 -11.3792 -1.6335 0.9545
-0.5943 -14.7485 -2.0914 0.9421
0.0000 -14.7419 -2.0888 0.9422
0.5938 -14.7353 -2.0895 0.9422
1.1839 -14.6657 -2.0847 0.9423
2.3875 -14.6909 -2.1089 0.9416
3.6098 -14.6457 -2.1372 0.9409
4.2398 -14.6373 -2.1592 0.9403
6.5298 -15.3259 -2.3604 0.9349
8.3253 -14.4199 -2.3592 0.9349
9.4516 -13.6929 -2.3575 0.9350
9.9912 -13.2958 -2.3565 0.9350
11.0189 -12.4378 -2.3544 0.9351
11.5054 -11.9784 -2.3533 0.9351
14.3745 -9.9220 -2.4748 0.9319
15.6319 -8.2042 -2.5014 0.9312
16.2414 -6.9198 -2.5014 0.9312
16.5068 -6.2602 -2.5014 0.9312
7.2504 -1.7871 -1.0581 0.9703
7.4060 -1.5119 -1.0710 0.9699
17.4255 -2.8319 -2.5014 0.9312
17.6398 -0.7108 -2.5014 0.9312
17.6541 0.0000 -2.5014 0.9312
17.5968 1.4206 -2.5014 0.9312
16.3702 2.6604 -2.3499 0.9352
13.7693 2.8110 -1.9912 0.9448
16.1273 3.9750 -2.3535 0.9351
15.9601 4.6229 -2.3543 0.9351
15.7610 5.2618 -2.3543 0.9351
14.6512 5.5565 -2.2202 0.9387
7.6991 5.3143 -1.3255 0.9629
3.2820 2.6797 -0.6003 0.9830
3.1622 2.8015 -0.5986 0.9831
4.5234 5.5402 -1.0134 0.9715
3.7606 5.4481 -0.9380 0.9736
3.3812 5.3468 -0.8964 0.9748
2.5673 5.4104 -0.8485 0.9761
2.0214 5.3298 -0.8077 0.9772
1.0854 5.3163 -0.7688 0.9783
0.6637 5.4654 -0.7801 0.9780
0.4451 5.5129 -0.7837 0.9779
0.0000 5.3824 -0.7626 0.9785
-0.2154 5.3471 -0.7582 0.9786
-0.6682 5.5034 -0.7855 0.9779
-0.8579 5.2786 -0.7577 0.9786
-1.0840 5.3097 -0.7678 0.9783
-1.3410 5.4406 -0.7939 0.9776
-1.8043 5.4044 -0.8073 0.9772
-1.9452 5.1289 -0.7772 0.9781
-2.2322 5.2392 -0.8069 0.9773
-2.9273 5.0702 -0.8295 0.9766
-3.3106 5.2352 -0.8776 0.9753
-3.9170 5.6747 -0.9770 0.9725
-4.0997 5.4556 -0.9669 0.9728
-4.2671 5.2262 -0.9560 0.9731
-3.7756 3.3449 -0.7147 0.9798
-3.8833 3.1706 -0.7103 0.9800
-15.1512 9.5811 -2.5400 0.9301
-15.8731 8.3308 -2.5400 0.9301
-16.1956 7.6849 -2.5400 0.9301
-16.7615 6.3568 -2.5400 0.9301
-17.2187 4.9875 -2.5400 0.9301
-17.4055 4.2901 -2.5400 0.9301
-17.6943 2.8756 -2.5400 0.9301
-17.7957 2.1608 -2.5400 0.9301
-17.8683 1.4425 -2.5400 0.9301
-15.3682 -1.2406 -2.5400 0.9394
-15.3058 -1.8585 -2.5400 0.9394
-15.2185 -2.4733 -2.5400 0.9394
-15.1066 -3.0840 -2.5400 0.9394
-14.4163 -5.4674 -2.5400 0.9394
-14.1844 -6.0434 -2.5400 0.9394
-13.6522 -7.1652 -2.5400 0.9394
-12.6889 -8.7586 -2.5400 0.9394
-12.3260 -9.2624 -2.5400 0.9394
-11.9430 -9.7512 -2.5400 0.9394
-11.1196 -10.6806 -2.5400 0.9394
-10.6806 -11.1197 -2.5400 0.9394
-9.7512 -11.9430 -2.5400 0.9394
-7.6553 -12.1058 -2.3596 0.9436
-6.6431 -12.6575 -2.3549 0.9437
-5.5895 -13.1189 -2.3492 0.9438
-4.5301 -13.5694 -2.3567 0.9437
-3.9808 -13.7433 -2.3571 0.9436
-3.4248 -13.8948 -2.3575 0.9436
-1.3996 -11.5264 -1.9128 0.9540
-0.5765 -14.3054 -2.3586 0.9436
0.5765 -14.3055 -2.3586 0.9436
1.1520 -14.2702 -2.3585 0.9436
2.8630 -14.0237 -2.3579 0.9436
3.9810 -13.7439 -2.3572 0.9436
5.6052 -13.1559 -2.3558 0.9437
8.5752 -11.4116 -2.3516 0.9438
9.0245 -11.0530 -2.3507 0.9438
9.4585 -10.6765 -2.3498 0.9438
11.3654 -10.0688 -2.5014 0.9403
11.7616 -9.6030 -2.5014 0.9403
12.1387 -9.1216 -2.5014 0.9403
13.7180 -6.5092 -2.5014 0.9403
13.9689 -5.9516 -2.5014 0.9403
14.1973 -5.3843 -2.5014 0.9403
6.8413 -1.9816 -1.1734 0.9715
6.8938 -1.6992 -1.1697 0.9716
7.0114 -1.4314 -1.1789 0.9714
8.1183 -1.3194 -1.3550 0.9672
15.1347 -1.2218 -2.5014 0.9403
15.1840 0.0000 -2.5014 0.9403
15.1717 0.6114 -2.5014 0.9403
15.1347 1.2218 -2.5014 0.9403
15.0733 1.8302 -2.5014 0.9403
14.0762 2.2876 -2.3493 0.9438
13.6469 2.7860 -2.2946 0.9451
13.5558 4.5256 -2.3543 0.9437
13.3626 5.0678 -2.3543 0.9437
11.1699 5.3002 -2.0368 0.9511
10.3634 5.4392 -1.9281 0.9537
9.2619 5.3473 -1.7618 0.9576
7.4580 5.6043 -1.5368 0.9629
3.2808 2.6787 -0.6978 0.9830
3.1614 2.8008 -0.6958 0.9830
5.2852 5.5025 -1.2569 0.9695
4.7638 5.3772 -1.1835 0.9713
4.4833 5.4910 -1.1678 0.9717
4.2511 5.6571 -1.1658 0.9717
3.8177 5.5308 -1.1071 0.9731
2.5672 5.4103 -0.9865 0.9760
1.8390 5.5084 -0.9567 0.9767
1.3319 5.4037 -0.9168 0.9777
1.0702 5.2420 -0.8814 0.9785
0.6630 5.4603 -0.9061 0.9779
0.4460 5.5240 -0.9130 0.9778
0.2220 5.5082 -0.9082 0.9779
0.0000 5.3899 -0.8879 0.9784
-0.4218 5.2256 -0.8637 0.9790
-0.6680 5.5016 -0.9130 0.9778
-1.7800 5.3318 -0.9260 0.9775
-1.9704 5.1956 -0.9154 0.9777
-2.5655 5.4066 -0.9859 0.9760
-2.8039 5.3424 -0.9940 0.9758
-3.8249 5.5413 -1.1092 0.9731
-4.0924 5.4459 -1.1222 0.9728
-4.3160 5.2861 -1.1242 0.9727
-5.2370 5.4522 -1.2454 0.9698
-12.3260 9.2624 -2.5400 0.9394
-12.6889 8.7586 -2.5400 0.9394
-13.0313 8.2405 -2.5400 0.9394
-13.3526 7.7091 -2.5400 0.9394
-13.6521 7.1652 -2.5400 0.9394
-14.4163 5.4674 -2.5400 0.9394
-14.8095 4.2896 -2.5400 0.9394
-15.1066 3.0841 -2.5400 0.9394
-15.4057 0.6208 -2.5400 0.9394
-13.5134 0.0000 -2.5400 0.9465
-13.5024 -0.5441 -2.5400 0.9465
-13.4148 -1.6289 -2.5400 0.9465
-13.1207 -3.2340 -2.5400 0.9465
-12.8179 -4.2793 -2.5400 0.9465
-12.2087 -5.7931 -2.5400 0.9465
-11.7029 -6.7567 -2.5400 0.9465
-10.8032 -8.1180 -2.5400 0.9465
-10.1149 -8.9610 -2.5400 0.9465
-9.7459 -9.3610 -2.5400 0.9465
-9.3571 -9.7418 -2.5389 0.9465
-8.9191 -10.0676 -2.5281 0.9467
-8.4715 -10.3757 -2.5177 0.9469
-6.2486 -10.8229 -2.3490 0.9504
-5.8078 -11.0658 -2.3490 0.9504
-4.8985 -11.4972 -2.3490 0.9504
-3.9629 -11.8704 -2.3522 0.9503
-3.4823 -12.0223 -2.3526 0.9503
-2.9958 -12.1546 -2.3530 0.9503
-1.8468 -11.3640 -2.1640 0.9542
-1.3990 -11.5220 -2.1816 0.9539
-1.0077 -12.4823 -2.3538 0.9503
-0.5043 -12.5132 -2.3539 0.9503
0.0000 -12.5236 -2.3539 0.9503
1.0077 -12.4825 -2.3539 0.9503
1.5094 -12.4312 -2.3537 0.9503
2.0086 -12.3594 -2.3536 0.9503
2.9960 -12.1552 -2.3531 0.9503
3.4825 -12.0231 -2.3528 0.9503
4.9038 -11.5095 -2.3515 0.9504
6.6800 -10.5636 -2.3492 0.9504
7.1117 -10.3030 -2.3531 0.9503
8.3479 -10.2243 -2.4810 0.9477
9.2188 -9.5978 -2.5014 0.9473
9.5978 -9.2188 -2.5014 0.9473
10.3085 -8.4166 -2.5014 0.9473
10.9523 -7.5598 -2.5014 0.9473
11.2478 -7.1127 -2.5014 0.9473
11.5251 -6.6540 -2.5014 0.9473
6.4676 -2.4528 -1.3001 0.9722
6.4985 -2.1695 -1.2877 0.9725
6.5369 -1.8934 -1.2792 0.9727
13.2649 -1.0708 -2.5014 0.9473
13.3081 0.0000 -2.5014 0.9473
13.2649 1.0709 -2.5014 0.9473
13.2110 1.6041 -2.5014 0.9473
12.3354 2.0047 -2.3490 0.9504
12.0234 3.4827 -2.3528 0.9503
11.8801 3.9662 -2.3541 0.9503
11.5233 4.9096 -2.3543 0.9503
10.4105 5.4639 -2.2099 0.9533
9.2856 5.3611 -2.0153 0.9573
7.4453 5.5947 -1.7505 0.9628
3.2796 2.6777 -0.7958 0.9829
3.1607 2.8001 -0.7937 0.9830
3.1161 2.9931 -0.8121 0.9826
4.7839 5.3999 -1.3560 0.9711
4.4716 5.4767 -1.3289 0.9716
4.2286 5.6272 -1.3230 0.9718
3.0877 5.3480 -1.1607 0.9752
2.5646 5.4047 -1.1244 0.9759
2.2835 5.3595 -1.0950 0.9766
2.0240 5.3369 -1.0728 0.9770
1.7872 5.3532 -1.0608 0.9773
1.6222 5.6004 -1.0959 0.9765
1.3315 5.4020 -1.0458 0.9776
0.8574 5.2755 -1.0046 0.9785
0.6662 5.4861 -1.0388 0.9778
0.4427 5.4829 -1.0339 0.9779
0.2188 5.4292 -1.0213 0.9781
-0.2150 5.3350 -1.0036 0.9785
-0.6634 5.4639 -1.0345 0.9778
-0.8589 5.2852 -1.0065 0.9784
-1.3378 5.4275 -1.0507 0.9775
-1.7779 5.3253 -1.0553 0.9774
-2.6203 5.5221 -1.1489 0.9754
-2.7925 5.3206 -1.1294 0.9758
-3.8157 5.5280 -1.2625 0.9730
-4.0657 5.4104 -1.2721 0.9728
-4.5751 5.1641 -1.2968 0.9723
-5.3085 5.5267 -1.4404 0.9693
-2.3561 2.2631 -0.6140 0.9868
-3.7755 3.3448 -0.9481 0.9797
-9.8395 8.0337 -2.3876 0.9496
-12.8179 4.2793 -2.5400 0.9465
-12.9798 3.7597 -2.5400 0.9465
-13.2403 2.7030 -2.5400 0.9465
-13.3384 2.1677 -2.5400 0.9465
-13.4148 1.6289 -2.5400 0.9465
-13.5024 0.5442 -2.5400 0.9465
-12.0162 0.0000 -2.5400 0.9521
-12.0065 -0.4838 -2.5400 0.9521
-11.9772 -0.9669 -2.5400 0.9521
-11.8606 -1.9275 -2.5400 0.9521
-11.0547 -4.7099 -2.5400 0.9521
-10.8560 -5.1512 -2.5400 0.9521
-10.6398 -5.5842 -2.5400 0.9521
-10.4063 -6.0081 -2.5400 0.9521
-9.8891 -6.8260 -2.5400 0.9521
-9.6063 -7.2186 -2.5400 0.9521
-8.6019 -8.2623 -2.5212 0.9524
-8.2379 -8.5766 -2.5137 0.9525
-7.4926 -9.1768 -2.5042 0.9527
-7.1117 -9.4640 -2.5024 0.9528
-6.7239 -9.7413 -2.5020 0.9528
-4.9659 -10.4654 -2.4486 0.9537
-4.4583 -10.4639 -2.4043 0.9546
-3.5190 -10.5408 -2.3490 0.9556
-3.0919 -10.6743 -2.3491 0.9556
-1.7833 -10.9728 -2.3499 0.9556
-1.3401 -11.0365 -2.3500 0.9556
-0.4477 -11.1096 -2.3502 0.9556
0.8947 -11.0824 -2.3502 0.9556
2.2236 -10.8917 -2.3498 0.9556
3.9444 -10.4005 -2.3512 0.9555
4.4193 -10.3724 -2.3832 0.9550
5.9168 -10.2482 -2.5014 0.9528
6.3247 -10.0017 -2.5014 0.9528
6.7223 -9.7389 -2.5014 0.9528
7.1090 -9.4603 -2.5014 0.9528
7.4841 -9.1664 -2.5014 0.9528
8.1975 -8.5345 -2.5014 0.9528
9.1664 -7.4841 -2.5014 0.9528
9.4603 -7.1090 -2.5014 0.9528
10.4782 -5.4994 -2.5014 0.9528
6.1230 -2.3221 -1.3842 0.9736
6.1381 -2.0492 -1.3679 0.9739
6.1878 -1.7923 -1.3617 0.9740
6.2671 -1.5447 -1.3644 0.9740
6.7335 -1.0943 -1.4420 0.9725
11.8241 -0.4765 -2.5014 0.9528
11.8336 0.0000 -2.5014 0.9528
11.8241 0.4765 -2.5014 0.9528
11.7953 0.9522 -2.5014 0.9528
11.7474 1.4264 -2.5014 0.9528
11.2388 1.8265 -2.4068 0.9545
10.7981 2.6615 -2.3508 0.9556
10.5594 3.5252 -2.3531 0.9555
10.4140 3.9495 -2.3543 0.9555
9.8621 5.1760 -2.3543 0.9555
7.6803 5.3013 -1.9726 0.9626
7.4979 5.6344 -1.9825 0.9624
3.1599 2.7995 -0.8924 0.9829
3.1136 2.9907 -0.9126 0.9825
5.2344 5.4496 -1.5972 0.9696
4.7764 5.3914 -1.5226 0.9710
4.2165 5.6111 -1.4836 0.9717
3.3238 5.2560 -1.3145 0.9749
1.8056 5.4083 -1.2052 0.9770
0.2191 5.4373 -1.1503 0.9780
0.0000 5.3673 -1.1345 0.9783
-0.4377 5.4218 -1.1498 0.9780
-0.6709 5.5256 -1.1766 0.9775
-0.8578 5.2785 -1.1304 0.9784
-1.7955 5.3782 -1.1985 0.9771
-1.9848 5.2333 -1.1831 0.9774
-2.2270 5.2268 -1.2009 0.9770
-2.7548 5.2488 -1.2530 0.9761
-3.8141 5.5257 -1.4193 0.9729
-4.7161 5.3233 -1.5033 0.9713
-5.3191 5.5377 -1.6231 0.9691
-2.3561 2.2631 -0.6906 0.9867
-9.2958 6.4164 -2.3876 0.9549
-11.2353 4.2610 -2.5400 0.9521
-11.3978 3.8052 -2.5400 0.9521
-11.7734 2.4036 -2.5400 0.9521
-11.9772 0.9669 -2.5400 0.9521
-10.8074 0.0000 -2.5400 0.9566
-10.5890 -2.1617 -2.5400 0.9566
-10.4933 -2.5864 -2.5400 0.9566
-10.1051 -3.8324 -2.5400 0.9566
-9.9426 -4.2361 -2.5400 0.9566
-9.7639 -4.6330 -2.5400 0.9566
-9.5673 -5.0213 -2.5394 0.9566
-9.1071 -5.7589 -2.5324 0.9567
-8.5759 -6.4444 -2.5212 0.9569
-8.2905 -6.7690 -2.5154 0.9570
-7.6930 -7.3892 -2.5070 0.9571
-7.3813 -7.6848 -2.5043 0.9572
-7.0620 -7.9713 -2.5029 0.9572
-6.7344 -8.2482 -2.5026 0.9572
-6.3961 -8.5116 -2.5023 0.9572
-6.0474 -8.7612 -2.5020 0.9572
-4.1718 -9.7915 -2.5014 0.9572
-2.5471 -10.3339 -2.5014 0.9572
-2.1289 -10.4281 -2.5014 0.9572
-1.6978 -10.4469 -2.4875 0.9574
-1.2685 -10.4468 -2.4733 0.9577
0.4205 -10.4349 -2.4544 0.9580
0.8419 -10.4282 -2.4588 0.9579
1.2653 -10.4207 -2.4671 0.9578
2.1237 -10.4027 -2.4953 0.9573
2.5471 -10.3339 -2.5014 0.9572
2.9611 -10.2230 -2.5014 0.9572
3.7741 -9.9516 -2.5014 0.9572
4.1718 -9.7915 -2.5014 0.9572
4.5627 -9.6156 -2.5014 0.9572
4.9461 -9.4241 -2.5014 0.9572
5.3216 -9.2173 -2.5014 0.9572
5.6884 -8.9955 -2.5014 0.9572
6.3938 -8.5086 -2.5014 0.9572
6.7312 -8.2443 -2.5014 0.9572
7.6759 -7.3728 -2.5014 0.9572
7.9665 -7.0577 -2.5014 0.9572
8.2443 -6.7312 -2.5014 0.9572
8.7592 -6.0460 -2.5014 0.9572
9.4241 -4.9461 -2.5014 0.9572
9.6156 -4.5627 -2.5014 0.9572
6.0413 -2.5739 -1.5433 0.9734
5.9261 -2.2475 -1.4896 0.9743
5.9388 -1.7202 -1.4531 0.9749
6.0150 -1.4825 -1.4560 0.9749
6.1106 -1.2475 -1.4657 0.9747
6.4030 -1.0406 -1.5246 0.9737
10.5656 -1.2829 -2.5014 0.9572
10.5054 1.7073 -2.5014 0.9572
9.7935 1.9994 -2.3492 0.9598
9.2158 3.9265 -2.3543 0.9597
9.0503 4.2944 -2.3543 0.9597
8.6754 5.0087 -2.3543 0.9597
8.4666 5.3540 -2.3543 0.9597
7.6900 5.3080 -2.1961 0.9623
3.2771 2.6757 -0.9943 0.9828
3.1592 2.7988 -0.9919 0.9828
3.1111 2.9882 -1.0138 0.9824
4.6964 5.3011 -1.6645 0.9713
3.3731 5.3341 -1.4833 0.9744
2.0050 5.2866 -1.3288 0.9770
1.8379 5.5051 -1.3640 0.9764
1.3389 5.4317 -1.3148 0.9773
0.8563 5.2688 -1.2546 0.9783
0.0000 5.3681 -1.2616 0.9782
-1.2870 5.2215 -1.2639 0.9781
-1.6102 5.5590 -1.3602 0.9765
-1.7819 5.3373 -1.3224 0.9771
-1.9789 5.2179 -1.3116 0.9773
-2.2086 5.1838 -1.3243 0.9771
-2.5778 5.4325 -1.4132 0.9756
-2.7776 5.2923 -1.4047 0.9757
-2.9943 5.1862 -1.4074 0.9757
-4.6966 5.3014 -1.6646 0.9713
-5.2881 5.5055 -1.7941 0.9691
-2.3561 2.2631 -0.7678 0.9867
-8.1215 6.1029 -2.3876 0.9591
-8.3606 5.7709 -2.3876 0.9591
-8.5862 5.4296 -2.3876 0.9591
-8.9953 4.7211 -2.3876 0.9591
-10.2512 3.4224 -2.5400 0.9566
-10.7723 0.8696 -2.5400 0.9566
-10.7986 0.4352 -2.5400 0.9566
-9.8020 -0.3950 -2.5400 0.9603
-9.7385 -1.1825 -2.5400 0.9603
-9.6815 -1.5734 -2.5396 0.9603
-9.6101 -1.9619 -2.5396 0.9603
-9.4148 -2.7270 -2.5379 0.9603
-9.2895 -3.1013 -2.5357 0.9603
-8.6279 -4.5283 -2.5229 0.9605
-8.4243 -4.8638 -2.5186 0.9606
-7.4960 -6.1202 -2.5056 0.9608
-7.2377 -6.4121 -2.5036 0.9608
-6.9729 -6.6975 -2.5033 0.9608
-6.6968 -6.9721 -2.5030 0.9608
-5.8056 -7.7259 -2.5022 0.9609
-5.4892 -7.9525 -2.5019 0.9609
-4.8305 -8.3666 -2.5014 0.9609
-4.4897 -8.5544 -2.5014 0.9609
-3.4258 -9.0332 -2.5014 0.9609
-3.0593 -9.1638 -2.5014 0.9609
-2.6879 -9.2795 -2.5014 0.9609
-0.3890 -9.6531 -2.5014 0.9609
0.3890 -9.6531 -2.5014 0.9609
0.7774 -9.6296 -2.5014 0.9609
1.5497 -9.5358 -2.5014 0.9609
1.9324 -9.4657 -2.5014 0.9609
2.3120 -9.3802 -2.5014 0.9609
3.7868 -8.8879 -2.5014 0.9609
4.4897 -8.5544 -2.5014 0.9609
4.8305 -8.3666 -2.5014 0.9609
5.1635 -8.1653 -2.5014 0.9609
5.4881 -7.9508 -2.5014 0.9609
5.8037 -7.7234 -2.5014 0.9609
6.4064 -7.2313 -2.5014 0.9609
6.6924 -6.9675 -2.5014 0.9609
6.9675 -6.6924 -2.5014 0.9609
7.4834 -6.1100 -2.5014 0.9609
7.7234 -5.8037 -2.5014 0.9609
8.1653 -5.1635 -2.5014 0.9609
8.3666 -4.8305 -2.5014 0.9609
8.5544 -4.4897 -2.5014 0.9609
8.7282 -4.1416 -2.5014 0.9609
5.8472 -1.9521 -1.5961 0.9749
5.8795 -1.7030 -1.5849 0.9750
5.9421 -1.4646 -1.5845 0.9750
6.2112 -1.0094 -1.6293 0.9743
9.5905 -1.1645 -2.5014 0.9609
9.6610 0.0000 -2.5014 0.9609
9.6531 0.3890 -2.5014 0.9609
9.5905 1.1645 -2.5014 0.9609
8.8890 1.8147 -2.3490 0.9632
8.8116 2.1719 -2.3498 0.9632
8.7205 2.5259 -2.3507 0.9632
8.4958 3.2220 -2.3526 0.9632
8.3625 3.5629 -2.3535 0.9631
8.2150 3.8981 -2.3543 0.9631
7.6853 4.8599 -2.3543 0.9631
3.2759 2.6747 -1.0950 0.9827
3.1584 2.7981 -1.0925 0.9827
5.2775 5.4944 -1.9726 0.9690
4.7720 5.3864 -1.8632 0.9707
4.2506 5.6565 -1.8320 0.9712
3.3732 5.3342 -1.6341 0.9743
2.2776 5.3457 -1.5045 0.9763
2.0342 5.3636 -1.4853 0.9766
1.3242 5.3723 -1.4326 0.9774
0.2167 5.3777 -1.3935 0.9780
0.0000 5.3485 -1.3848 0.9781
-0.2119 5.2580 -1.3625 0.9785
-0.6560 5.4024 -1.4090 0.9778
-0.8658 5.3277 -1.3975 0.9779
-1.3328 5.4072 -1.4419 0.9773
-1.6213 5.5973 -1.5088 0.9762
-1.9927 5.2542 -1.4550 0.9770
-2.8009 5.3366 -1.5605 0.9754
-3.2249 5.0997 -1.5623 0.9754
-3.9500 5.7226 -1.8004 0.9717
-4.3059 5.2738 -1.7628 0.9723
-3.7758 3.3450 -1.3061 0.9794
-7.1429 5.8320 -2.3876 0.9626
-7.3720 5.5397 -2.3876 0.9626
-7.7938 4.9285 -2.3876 0.9626
-7.9860 4.6107 -2.3876 0.9626
-8.3269 3.9512 -2.3864 0.9626
-8.4749 3.6108 -2.3852 0.9627
-9.4171 2.7277 -2.5385 0.9603
-9.5221 2.3470 -2.5392 0.9603
-9.6097 1.9618 -2.5394 0.9603
-9.7378 1.1824 -2.5398 0.9603
-9.7779 0.7894 -2.5399 0.9603
-8.9401 0.0000 -2.5309 0.9635
-8.9082 -0.7191 -2.5300 0.9635
-8.8690 -1.0769 -2.5292 0.9635
-8.8138 -1.4324 -2.5279 0.9636
-8.5576 -2.4787 -2.5222 0.9636
-8.4426 -2.8186 -2.5197 0.9637
-8.3153 -3.1536 -2.5176 0.9637
-8.0167 -3.8039 -2.5120 0.9638
-7.8508 -4.1204 -2.5100 0.9638
-6.6192 -5.8641 -2.5034 0.9639
-5.5905 -6.8472 -2.5024 0.9639
-5.3097 -7.0660 -2.5022 0.9639
-5.0204 -7.2733 -2.5019 0.9639
-4.7225 -7.4681 -2.5014 0.9639
-4.1063 -7.8238 -2.5014 0.9639
-3.7879 -7.9829 -2.5014 0.9639
-3.4634 -8.1289 -2.5014 0.9639
-2.7981 -8.3812 -2.5014 0.9639
-2.1146 -8.5792 -2.5014 0.9639
-1.7674 -8.6574 -2.5014 0.9639
-1.4174 -8.7215 -2.5014 0.9639
-0.3558 -8.8288 -2.5014 0.9639
0.3558 -8.8288 -2.5014 0.9639
0.7110 -8.8073 -2.5014 0.9639
1.4174 -8.7215 -2.5014 0.9639
2.1146 -8.5792 -2.5014 0.9639
2.7981 -8.3812 -2.5014 0.9639
3.1333 -8.2618 -2.5014 0.9639
3.7879 -7.9829 -2.5014 0.9639
5.3081 -7.0638 -2.5014 0.9639
5.5882 -6.8444 -2.5014 0.9639
6.3725 -6.1209 -2.5014 0.9639
6.8444 -5.5882 -2.5014 0.9639
7.4681 -4.7225 -2.5014 0.9639
7.6522 -4.4180 -2.5014 0.9639
5.8170 -2.4784 -1.7900 0.9741
5.8783 -1.4489 -1.7139 0.9751
8.8288 -0.3558 -2.5014 0.9639
8.8360 0.0000 -2.5014 0.9639
8.7215 1.4174 -2.5014 0.9639
8.2765 1.6897 -2.3913 0.9655
7.9742 2.3097 -2.3502 0.9661
7.8776 2.6299 -2.3511 0.9661
7.7681 2.9461 -2.3519 0.9661
7.5112 3.5641 -2.3536 0.9660
7.3639 3.8648 -2.3543 0.9660
7.2023 4.1582 -2.3543 0.9660
7.0290 4.4449 -2.3543 0.9660
6.8443 4.7243 -2.3543 0.9660
3.1060 2.9833 -1.2192 0.9823
4.2145 5.6085 -1.9861 0.9713
3.8181 5.5315 -1.9027 0.9724
3.3956 5.3696 -1.7985 0.9739
1.3289 5.3915 -1.5720 0.9772
0.8594 5.2877 -1.5166 0.9780
0.6577 5.4159 -1.5445 0.9776
0.2197 5.4507 -1.5443 0.9776
0.0000 5.3635 -1.5184 0.9779
-0.2136 5.3017 -1.5021 0.9782
-0.6576 5.4160 -1.5445 0.9776
-1.6246 5.6088 -1.6531 0.9760
-1.7731 5.3111 -1.5851 0.9770
-2.2452 5.2697 -1.6216 0.9765
-2.8316 5.3951 -1.7249 0.9750
-3.0214 5.2332 -1.7107 0.9752
-3.2746 5.1784 -1.7345 0.9749
-4.0996 5.4556 -1.9319 0.9720
-4.3483 5.3256 -1.9463 0.9718
-4.8469 5.4710 -2.0692 0.9701
-5.3053 5.5234 -2.1681 0.9687
-2.3561 2.2631 -0.9248 0.9865
-6.9228 4.7785 -2.3813 0.9656
-7.1065 4.4939 -2.3803 0.9656
-7.5834 3.5984 -2.3762 0.9657
-7.9368 2.6497 -2.3687 0.9658
-8.5759 2.4840 -2.5276 0.9636
-8.7477 1.7859 -2.5275 0.9636
-8.8713 1.0772 -2.5298 0.9635
-8.9099 0.7193 -2.5305 0.9635
-8.9327 0.3600 -2.5308 0.9635
-8.0040 -1.6340 -2.5127 0.9664
-7.9287 -1.9542 -2.5117 0.9664
-7.6231 -2.8910 -2.5077 0.9665
-7.4948 -3.1932 -2.5057 0.9665
-7.3573 -3.4911 -2.5048 0.9665
-7.0514 -4.0711 -2.5044 0.9665
-6.8811 -4.3514 -2.5042 0.9665
-6.5076 -4.8901 -2.5037 0.9665
-6.0919 -5.3969 -2.5033 0.9665
-5.3954 -6.0902 -2.5026 0.9665
-5.1445 -6.3009 -2.5019 0.9665
-4.8856 -6.5014 -2.5014 0.9665
-4.3466 -6.8735 -2.5014 0.9665
-3.1877 -7.4818 -2.5014 0.9665
-2.8838 -7.6040 -2.5014 0.9665
-2.5753 -7.7140 -2.5014 0.9665
-1.6267 -7.9682 -2.5014 0.9665
-1.3046 -8.0272 -2.5014 0.9665
-0.9803 -8.0732 -2.5014 0.9665
-0.3275 -8.1259 -2.5014 0.9665
0.6544 -8.1062 -2.5014 0.9665
0.9803 -8.0733 -2.5014 0.9665
1.6267 -7.9682 -2.5014 0.9665
1.9462 -7.8962 -2.5014 0.9665
2.2626 -7.8114 -2.5014 0.9665
2.5753 -7.7140 -2.5014 0.9665
2.8838 -7.6041 -2.5014 0.9665
3.1877 -7.4818 -2.5014 0.9665
3.7794 -7.2010 -2.5014 0.9665
4.3466 -6.8735 -2.5014 0.9665
4.6198 -6.6929 -2.5014 0.9665
5.3929 -6.0873 -2.5014 0.9665
6.0873 -5.3929 -2.5014 0.9665
6.2995 -5.1434 -2.5014 0.9665
6.6929 -4.6198 -2.5014 0.9665
6.8735 -4.3466 -2.5014 0.9665
7.0430 -4.0663 -2.5014 0.9665
7.2010 -3.7794 -2.5014 0.9665
5.7278 -2.1723 -1.8842 0.9747
6.0553 -0.9841 -1.8869 0.9747
8.1259 -0.3275 -2.5014 0.9665
8.1325 -0.0000 -2.5014 0.9665
8.1259 0.3275 -2.5014 0.9665
8.0272 1.3046 -2.5014 0.9665
7.9682 1.6267 -2.5014 0.9665
7.1480 2.7109 -2.3514 0.9685
7.0354 2.9975 -2.3521 0.9685
6.6289 3.8272 -2.3543 0.9685
6.2994 4.3482 -2.3543 0.9685
4.7867 5.4031 -2.2203 0.9702
3.9311 5.6951 -2.1285 0.9715
3.0624 5.3041 -1.8838 0.9747
1.6018 5.5297 -1.7708 0.9762
1.3206 5.3578 -1.6973 0.9772
0.8529 5.2481 -1.6354 0.9780
0.0000 5.3692 -1.6515 0.9778
-1.3327 5.4069 -1.7128 0.9770
-1.6187 5.5883 -1.7895 0.9759
-2.0044 5.2852 -1.7386 0.9766
-4.3697 5.3519 -2.1251 0.9715
-4.9564 5.5945 -2.2989 0.9692
-2.3561 2.2631 -1.0048 0.9864
-3.7759 3.3452 -1.5516 0.9791
-5.9361 4.8467 -2.3571 0.9684
-6.3125 4.3572 -2.3592 0.9684
-6.4846 4.1006 -2.3599 0.9684
-6.6441 3.8359 -2.3597 0.9684
-6.7915 3.5645 -2.3592 0.9684
-7.2673 2.4262 -2.3565 0.9684
-7.3556 2.1306 -2.3554 0.9685
-7.9368 1.9563 -2.5142 0.9664
-8.0063 1.6345 -2.5134 0.9664
-8.1176 0.9856 -2.5151 0.9664
-8.1734 0.3294 -2.5160 0.9663
-7.5396 0.0000 -2.5062 0.9687
-7.5332 -0.3036 -2.5061 0.9687
-7.4835 -0.9087 -2.5058 0.9687
-7.2391 -2.0968 -2.5052 0.9687
-7.1483 -2.3865 -2.5051 0.9687
-6.9322 -2.9535 -2.5047 0.9687
-6.6710 -3.5012 -2.5044 0.9687
-6.5242 -3.7667 -2.5042 0.9687
-6.3667 -4.0261 -2.5040 0.9687
-6.1989 -4.2788 -2.5038 0.9687
-6.0211 -4.5246 -2.5036 0.9688
-5.4284 -5.2143 -2.5020 0.9688
-5.2128 -5.4272 -2.5014 0.9688
-4.9901 -5.6326 -2.5014 0.9688
-4.7592 -5.8290 -2.5014 0.9688
-3.7626 -6.5169 -2.5014 0.9688
-3.4971 -6.6632 -2.5014 0.9688
-2.9496 -6.9230 -2.5014 0.9688
-2.3830 -7.1379 -2.5014 0.9688
-2.0936 -7.2280 -2.5014 0.9688
-0.6055 -7.5007 -2.5014 0.9688
-0.0000 -7.5251 -2.5014 0.9688
0.3030 -7.5190 -2.5014 0.9688
0.9071 -7.4703 -2.5014 0.9688
1.5052 -7.3730 -2.5014 0.9688
1.8009 -7.3065 -2.5014 0.9688
2.0936 -7.2280 -2.5014 0.9688
2.3830 -7.1379 -2.5014 0.9688
2.6684 -7.0361 -2.5014 0.9688
2.9496 -6.9230 -2.5014 0.9688
3.2260 -6.7986 -2.5014 0.9688
4.0219 -6.3602 -2.5014 0.9688
4.2748 -6.1931 -2.5014 0.9688
4.7592 -5.8290 -2.5014 0.9688
4.9901 -5.6326 -2.5014 0.9688
5.6326 -4.9901 -2.5014 0.9688
6.5169 -3.7626 -2.5014 0.9688
5.7177 -2.1684 -2.0327 0.9746
5.7574 -1.6676 -1.9924 0.9751
6.0170 -0.9779 -2.0263 0.9746
7.5007 -0.6055 -2.5014 0.9688
7.5251 0.0000 -2.5014 0.9688
7.5007 0.6055 -2.5014 0.9688
7.3731 1.5052 -2.5014 0.9688
6.7889 1.9664 -2.3494 0.9706
6.7063 2.2389 -2.3502 0.9706
6.6127 2.5079 -2.3509 0.9706
6.5084 2.7729 -2.3516 0.9706
5.8289 4.0234 -2.3543 0.9706
5.6622 4.2549 -2.3543 0.9706
4.9064 5.1081 -2.3543 0.9706
3.7306 5.4047 -2.1830 0.9727
3.3638 5.3193 -2.0921 0.9738
2.5992 5.4776 -2.0154 0.9748
2.3154 5.4344 -1.9636 0.9754
1.5853 5.4729 -1.8940 0.9763
0.8475 5.2147 -1.7561 0.9780
0.6685 5.5051 -1.8434 0.9769
0.2190 5.4339 -1.8077 0.9773
0.0000 5.3738 -1.7863 0.9776
-0.2162 5.3649 -1.7848 0.9776
-0.4286 5.3101 -1.7708 0.9778
-0.6529 5.3770 -1.8005 0.9774
-0.8547 5.2594 -1.7712 0.9778
-1.0675 5.2291 -1.7740 0.9778
-1.3192 5.3522 -1.8323 0.9770
-1.6272 5.6178 -1.9441 0.9756
-3.0477 5.2787 -2.0261 0.9746
-3.9452 5.7157 -2.3086 0.9711
-4.0994 5.4552 -2.2683 0.9716
-4.6967 5.3015 -2.3543 0.9706
-2.3561 2.2631 -1.0859 0.9863
-3.7760 3.3453 -1.6769 0.9790
-5.4863 4.4794 -2.3543 0.9706
-5.6494 4.2453 -2.3490 0.9707
-5.8157 4.0143 -2.3490 0.9707
-5.9727 3.7769 -2.3490 0.9707
-6.2587 3.2848 -2.3496 0.9706
-6.5038 2.7710 -2.3499 0.9706
-6.6102 2.5069 -2.3500 0.9706
-6.7056 2.2387 -2.3499 0.9706
-7.3837 1.5074 -2.5050 0.9687
-7.4409 1.2093 -2.5059 0.9687
-7.4856 0.9089 -2.5065 0.9687
-7.5158 0.6067 -2.5064 0.9687
-7.5338 0.3036 -2.5063 0.9687
-7.0033 0.0000 -2.5044 0.9707
-6.9999 -0.2821 -2.5053 0.9707
-6.9153 -1.1238 -2.5054 0.9707
-6.8017 -1.6765 -2.5051 0.9707
-6.5488 -2.4836 -2.5047 0.9707
-6.4431 -2.7451 -2.5045 0.9707
-6.3269 -3.0021 -2.5043 0.9707
-6.0639 -3.5010 -2.5040 0.9707
-5.9161 -3.7411 -2.5031 0.9707
-5.7584 -3.9748 -2.5022 0.9707
-5.5924 -4.2024 -2.5016 0.9707
-5.4182 -4.4238 -2.5014 0.9707
-5.0447 -4.8454 -2.5014 0.9707
-4.8455 -5.0447 -2.5014 0.9707
-4.4238 -5.4182 -2.5014 0.9707
-3.7385 -5.9119 -2.5014 0.9707
-3.4974 -6.0577 -2.5014 0.9707
-3.2506 -6.1936 -2.5014 0.9707
-2.9986 -6.3195 -2.5014 0.9707
-2.7417 -6.4351 -2.5014 0.9707
-2.2150 -6.6348 -2.5014 0.9707
-1.9461 -6.7186 -2.5014 0.9707
-0.8431 -6.9438 -2.5014 0.9707
-0.2817 -6.9891 -2.5014 0.9707
0.0000 -6.9948 -2.5014 0.9707
0.2816 -6.9891 -2.5014 0.9707
0.5628 -6.9721 -2.5014 0.9707
1.6740 -6.7916 -2.5014 0.9707
2.7417 -6.4351 -2.5014 0.9707
3.4974 -6.0577 -2.5014 0.9707
3.9735 -5.7566 -2.5014 0.9707
4.2021 -5.5920 -2.5014 0.9707
4.6384 -5.2357 -2.5014 0.9707
5.0447 -4.8455 -2.5014 0.9707
5.2357 -4.6384 -2.5014 0.9707
5.5920 -4.2021 -2.5014 0.9707
6.0577 -3.4974 -2.5014 0.9707
6.3195 -2.9986 -2.5014 0.9707
5.7083 -2.1649 -2.1832 0.9744
5.7272 -1.9120 -2.1592 0.9747
5.7971 -1.4288 -2.1351 0.9750
