ply
format ascii 1.0
element vertex 1520
property float32 x
property float32 y
property float32 z
property float32 I
end_header
-1.3318 -10.9681 0.4357 0.9567
-0.5709 -14.1658 0.5590 0.9448
1.6625 -13.6917 0.5438 0.9463
2.7481 -13.4613 0.5417 0.9465
4.3785 -13.1152 0.5452 0.9462
4.9296 -12.9983 0.5482 0.9459
18.5588 -24.6973 1.2182 0.8837
17.1555 -21.0117 1.0696 0.8971
16.2091 -18.2963 0.9638 0.9068
15.6358 -13.8521 0.8237 0.9198
14.5144 -10.9069 0.7159 0.9299
18.3817 -11.6239 0.8576 0.9166
19.7550 -11.4056 0.8995 0.9127
26.3799 -12.5174 1.1514 0.8897
27.1640 -9.0687 1.1292 0.8917
33.3435 -8.2184 1.3541 0.8716
42.7730 -5.1936 1.6990 0.8416
29.2708 -2.3630 1.1579 0.8891
48.7669 -1.9653 1.9245 0.8225
27.9279 -0.0000 1.1012 0.8942
18.8745 8.0417 0.8090 0.9212
17.8716 8.4802 0.7800 0.9239
39.4434 24.9425 1.8402 0.8296
38.3962 28.8528 1.8938 0.8251
29.0316 25.7196 1.5294 0.8562
28.6044 27.4749 1.5639 0.8532
27.8854 29.0318 1.5873 0.8512
18.7785 21.1966 1.1166 0.8928
15.5014 20.6286 1.0175 0.9019
14.0222 20.3146 0.9733 0.9059
12.6639 20.0263 0.9343 0.9095
10.1517 19.3424 0.8614 0.9163
9.0525 21.2469 0.9107 0.9117
3.5549 12.2727 0.5038 0.9501
2.8923 11.7342 0.4765 0.9528
0.8429 4.1289 0.1662 0.9833
0.3245 4.0201 0.1590 0.9840
0.0000 11.5575 0.4557 0.9548
-0.4362 10.8259 0.4272 0.9576
-2.8514 8.5412 0.3551 0.9646
-3.5895 8.4250 0.3611 0.9640
-17.6087 30.4991 1.3887 0.8685
-40.1952 27.7448 1.9258 0.8224
-40.0736 23.1366 1.8246 0.8309
-41.9861 12.1615 1.7236 0.8395
-43.8538 10.8090 1.7809 0.8346
-43.5022 3.5119 1.7209 0.8397
-40.0498 -3.2331 0.6787 0.8515
-31.9257 -26.0665 0.6962 0.8480
-2.3640 -14.5464 0.2489 0.9427
-1.1536 -14.2895 0.2422 0.9443
-0.5709 -14.1658 0.2395 0.9449
-0.0000 -14.0446 0.2372 0.9454
0.5612 -13.9255 0.2354 0.9458
2.2064 -13.5763 0.2323 0.9465
2.7481 -13.4613 0.2321 0.9465
3.2896 -13.3464 0.2322 0.9465
3.8324 -13.2311 0.2327 0.9464
18.4897 -26.7869 0.5498 0.8779
16.2184 -16.8851 0.3955 0.9106
15.7692 -13.9703 0.3559 0.9192
14.5734 -10.9512 0.3079 0.9297
15.5617 -10.7415 0.3194 0.9271
16.6283 -10.5151 0.3323 0.9243
19.0538 -10.0002 0.3635 0.9175
27.2651 -9.1024 0.4855 0.8914
33.3055 -8.2091 0.5794 0.8718
37.4459 -6.0856 0.6408 0.8592
43.0358 -5.2255 0.7323 0.8408
29.2477 -2.3611 0.4957 0.8892
48.9358 -1.9721 0.8273 0.8221
22.3904 5.5187 0.3895 0.9119
18.5734 11.7451 0.3712 0.9158
34.4728 30.5402 0.7780 0.8317
18.7785 21.1966 0.4783 0.8929
15.5014 20.6286 0.4359 0.9019
12.6639 20.0263 0.4003 0.9096
12.3269 21.3508 0.4164 0.9061
10.1517 19.3424 0.3690 0.9163
9.3706 19.7482 0.3692 0.9163
4.8777 11.4481 0.2102 0.9514
3.3865 11.6914 0.2056 0.9525
0.6285 3.8670 0.0662 0.9844
0.4685 3.8587 0.0657 0.9846
-0.9600 11.8925 0.2015 0.9534
-2.0523 16.9026 0.2876 0.9342
-3.6932 18.0904 0.3119 0.9288
-4.0258 16.3331 0.2842 0.9349
-2.5491 8.8006 0.1548 0.9640
-2.8126 8.4248 0.1500 0.9651
-3.9639 8.3538 0.1562 0.9637
-4.9405 8.5574 0.1669 0.9612
-39.2064 24.7927 0.7836 0.8306
-43.3153 12.5464 0.7617 0.8349
-44.0434 10.8557 0.7662 0.8340
-42.4038 1.7089 0.7169 0.8439
-43.3377 0.0000 -0.2440 0.8408
-39.8051 -3.2134 -0.2248 0.8524
-33.6934 -11.2485 -0.2000 0.8675
-32.4687 -12.3138 -0.1955 0.8703
-29.4641 -26.1029 -0.2216 0.8543
-28.9598 -27.8162 -0.2261 0.8516
-27.3173 -28.4403 -0.2220 0.8541
-27.4858 -31.0249 -0.2334 0.8472
-2.9971 -14.6808 -0.0844 0.9418
-2.3640 -14.5464 -0.0830 0.9428
-1.1536 -14.2895 -0.0807 0.9443
0.5612 -13.9255 -0.0785 0.9458
2.2064 -13.5763 -0.0774 0.9465
2.7481 -13.4613 -0.0774 0.9465
3.8324 -13.2311 -0.0776 0.9464
4.3785 -13.1152 -0.0778 0.9462
4.9296 -12.9983 -0.0783 0.9459
17.8464 -30.9110 -0.2010 0.8670
18.4897 -26.7869 -0.1833 0.8779
17.6933 -23.5455 -0.1658 0.8889
16.8381 -19.0063 -0.1430 0.9034
16.2184 -16.8851 -0.1318 0.9106
16.0828 -15.4477 -0.1256 0.9147
15.7692 -13.9703 -0.1186 0.9192
15.5617 -10.7415 -0.1065 0.9272
20.4503 -9.7038 -0.1274 0.9134
37.4459 -6.0856 -0.2136 0.8592
48.9358 -1.9721 -0.2757 0.8221
38.3477 26.4694 -0.2623 0.8300
38.1625 28.6772 -0.2688 0.8262
18.4012 22.5374 -0.1638 0.8901
16.2233 21.5893 -0.1520 0.8976
14.5466 21.0744 -0.1442 0.9026
12.6639 20.0263 -0.1334 0.9096
12.3249 21.3474 -0.1388 0.9061
10.1517 19.3424 -0.1230 0.9163
4.7077 11.0492 -0.0676 0.9531
3.8296 10.0976 -0.0608 0.9577
3.1923 11.0211 -0.0646 0.9551
0.4684 3.8576 -0.0219 0.9846
0.3243 4.0176 -0.0227 0.9840
-0.4479 11.1150 -0.0626 0.9565
-1.5719 12.9463 -0.0734 0.9492
-3.6931 18.0901 -0.1040 0.9288
-3.0930 8.1558 -0.0491 0.9657
-3.4170 8.0201 -0.0491 0.9657
-3.8879 8.1937 -0.0511 0.9644
-4.8515 8.4032 -0.0546 0.9619
-13.8734 12.2907 -0.1044 0.9285
-4.9037 2.3268 -0.0306 0.9785
-42.5730 16.1458 -0.2564 0.8335
-43.7453 14.6044 -0.2597 0.8315
-43.7747 12.6795 -0.2566 0.8334
-42.5730 3.4369 -0.2405 0.8429
-33.3144 -11.1220 -0.9890 0.8689
-32.8282 -13.9868 -1.0048 0.8669
-31.9087 -26.0527 -1.1599 0.8480
-27.2930 -39.5407 -1.3529 0.8251
-5.7970 -15.2853 -0.4603 0.9367
-2.9971 -14.6808 -0.4219 0.9418
-1.3306 -10.9583 -0.3108 0.9568
1.1147 -13.8080 -0.3901 0.9461
2.2064 -13.5763 -0.3873 0.9464
2.7481 -13.4613 -0.3869 0.9465
3.2896 -13.3464 -0.3871 0.9465
3.8324 -13.2311 -0.3879 0.9464
4.9296 -12.9983 -0.3914 0.9459
13.5917 -31.9009 -0.9764 0.8704
14.9957 -31.6029 -0.9850 0.8694
17.8464 -30.9110 -1.0050 0.8669
19.3967 -30.6735 -1.0219 0.8648
18.4897 -26.7869 -0.9165 0.8779
17.6933 -23.5455 -0.8293 0.8888
17.3018 -21.1909 -0.7703 0.8963
13.6523 -11.1468 -0.4963 0.9319
19.0538 -10.0002 -0.6059 0.9175
34.1800 -6.9779 -0.9823 0.8697
37.5002 -6.0944 -1.0698 0.8590
29.2017 -2.3574 -0.8249 0.8894
20.3760 11.7640 -0.6625 0.9101
16.6830 10.5496 -0.5558 0.9241
13.2122 9.9283 -0.4654 0.9360
16.2233 21.5893 -0.7604 0.8976
12.6639 20.0263 -0.6672 0.9095
11.5623 22.0301 -0.7006 0.9052
9.8580 20.7752 -0.6475 0.9121
9.1123 21.3874 -0.6546 0.9112
8.7008 22.9421 -0.6909 0.9065
3.2533 9.7446 -0.2893 0.9597
2.9076 10.0380 -0.2943 0.9590
2.5385 10.2987 -0.2987 0.9584
0.3242 4.0164 -0.1135 0.9840
0.4873 12.0924 -0.3408 0.9527
-0.7250 17.9919 -0.5070 0.9305
-4.2342 17.1790 -0.4982 0.9316
-3.4165 8.0189 -0.2454 0.9657
-3.8549 8.1242 -0.2532 0.9647
-4.3304 8.2510 -0.2624 0.9634
-10.8207 15.6765 -0.5364 0.9266
-32.6181 31.3301 -1.2735 0.8345
-4.9037 2.3268 -0.1529 0.9785
-48.3024 0.0001 -2.4496 0.8241
-48.2038 -3.8913 -2.4526 0.8239
-28.8386 -8.3532 -1.5226 0.8867
-28.5706 -9.5383 -1.5275 0.8864
-45.2320 -17.1542 -2.4533 0.8239
-42.7559 -22.4400 -2.4488 0.8242
-27.1790 -15.6918 -1.5916 0.8819
-39.6178 -27.3462 -2.4413 0.8246
-26.4827 -19.9004 -1.6800 0.8757
-25.9717 -23.0089 -1.7597 0.8703
-25.7125 -24.6972 -1.8081 0.8669
-24.8007 -30.3752 -1.9887 0.8547
-21.8789 -41.6868 -2.3876 0.8282
-5.7965 -15.2840 -0.8290 0.9366
-2.9971 -14.6808 -0.7599 0.9418
-2.3640 -14.5464 -0.7474 0.9427
-1.3302 -10.9550 -0.5597 0.9568
-1.1536 -14.2895 -0.7270 0.9442
-0.0000 -14.0446 -0.7123 0.9453
0.5612 -13.9255 -0.7068 0.9457
1.6625 -13.6917 -0.6995 0.9463
2.2064 -13.5763 -0.6975 0.9464
2.7481 -13.4613 -0.6968 0.9465
13.5917 -31.9009 -1.7586 0.8703
14.9957 -31.6029 -1.7740 0.8693
16.4270 -31.2991 -1.7926 0.8680
17.8464 -30.9110 -1.8101 0.8668
18.4897 -26.7869 -1.6507 0.8778
17.6933 -23.5456 -1.4936 0.8887
16.8381 -19.0063 -1.2877 0.9033
16.2184 -16.8851 -1.1873 0.9105
16.0828 -15.4477 -1.1309 0.9146
15.7692 -13.9703 -1.0684 0.9191
13.6523 -11.1468 -0.8938 0.9318
14.5734 -10.9512 -0.9245 0.9296
15.5617 -10.7415 -0.9589 0.9271
16.6283 -10.5151 -0.9978 0.9242
20.4503 -9.7038 -1.1480 0.9133
25.9312 -11.0483 -1.4295 0.8932
37.4459 -6.0856 -1.9240 0.8590
40.3117 -4.8947 -2.0594 0.8499
48.6846 7.9120 -2.5014 0.8207
47.8901 11.8038 -2.5014 0.8207
46.7849 15.6191 -2.5014 0.8207
40.2499 15.2647 -2.1831 0.8416
42.7086 18.1964 -2.3543 0.8303
33.0899 15.7013 -1.8575 0.8636
20.3427 11.7448 -1.1913 0.9102
16.6858 10.5514 -1.0012 0.9240
14.3882 9.9315 -0.8866 0.9324
8.7204 8.3761 -0.6132 0.9527
7.1100 8.0256 -0.5438 0.9580
6.6542 8.1499 -0.5336 0.9587
5.5417 8.0285 -0.4947 0.9617
5.1856 8.2003 -0.4920 0.9619
11.5638 22.0329 -1.2619 0.9051
3.4704 8.1452 -0.4490 0.9652
4.4784 11.8083 -0.6405 0.9507
3.9832 11.9310 -0.6379 0.9509
2.3310 9.4570 -0.4940 0.9617
0.8362 4.0961 -0.2120 0.9834
0.6280 3.8642 -0.1985 0.9844
0.4681 3.8553 -0.1970 0.9846
0.3241 4.0151 -0.2043 0.9840
-0.4328 10.7407 -0.5451 0.9579
-0.8297 10.2783 -0.5230 0.9595
-3.8317 18.7688 -0.9715 0.9261
-2.3266 9.4396 -0.4930 0.9618
-2.7686 8.2931 -0.4434 0.9656
-3.4278 8.0454 -0.4435 0.9656
-4.3692 8.3249 -0.4768 0.9630
-4.8824 8.4567 -0.4952 0.9616
-5.4832 8.6710 -0.5203 0.9597
-6.1625 8.9281 -0.5502 0.9575
-9.6663 10.9110 -0.7393 0.9433
-6.9545 5.6781 -0.4553 0.9647
-7.5074 5.6414 -0.4762 0.9631
-7.8941 5.4488 -0.4864 0.9623
-8.5804 4.9539 -0.5025 0.9611
-4.9037 2.3268 -0.2753 0.9785
-33.0609 9.5762 -1.7456 0.8712
-32.6918 8.0578 -1.7076 0.8738
-26.3390 5.3771 -1.3633 0.8979
-26.0859 4.2394 -1.3403 0.8996
-31.6802 3.8467 -1.6184 0.8800
-31.0494 1.2513 -1.5759 0.8830
-32.2736 -5.2450 -2.3974 0.8771
-28.8386 -8.3532 -2.2014 0.8865
-28.8986 -15.1672 -2.3930 0.8773
-27.1790 -15.6918 -2.3011 0.8817
-26.9425 -17.0374 -2.3373 0.8800
-26.7063 -18.4340 -2.3793 0.8780
-26.0382 -19.5664 -2.3881 0.8775
-25.2286 -20.5985 -2.3881 0.8775
-24.3781 -21.5971 -2.3880 0.8775
-23.4859 -22.5586 -2.3877 0.8776
-22.7659 -23.7018 -2.4097 0.8765
-14.8505 -31.2968 -2.5400 0.8703
-8.2902 -33.6348 -2.5400 0.8703
-2.3640 -14.5464 -1.0806 0.9426
-1.3298 -10.9517 -0.8089 0.9567
-1.1536 -14.2895 -1.0511 0.9441
-0.5709 -14.1658 -1.0395 0.9447
-0.0000 -14.0446 -1.0298 0.9452
0.5612 -13.9255 -1.0219 0.9456
1.1147 -13.8080 -1.0157 0.9460
1.6625 -13.6917 -1.0113 0.9462
2.7481 -13.4613 -1.0074 0.9464
3.2896 -13.3464 -1.0079 0.9464
3.8324 -13.2311 -1.0100 0.9463
4.3785 -13.1152 -1.0138 0.9461
4.9296 -12.9983 -1.0193 0.9458
12.7335 -29.8866 -2.3820 0.8778
16.2346 -28.1192 -2.3807 0.8779
17.3498 -27.4365 -2.3802 0.8779
17.6933 -23.5456 -2.1595 0.8886
16.8381 -19.0063 -1.8618 0.9032
16.2184 -16.8851 -1.7166 0.9104
15.7692 -13.9703 -1.5447 0.9190
13.6523 -11.1468 -1.2923 0.9318
14.5734 -10.9512 -1.3366 0.9295
15.5617 -10.7415 -1.3864 0.9270
16.6283 -10.5151 -1.4425 0.9241
26.1394 -9.9134 -2.0498 0.8939
27.2651 -9.1024 -2.1076 0.8911
31.5285 -6.4366 -2.3594 0.8789
31.7406 -5.1583 -2.3578 0.8790
31.8850 -3.8716 -2.3550 0.8791
34.1151 -0.0000 -2.5014 0.8721
15.7780 1.9158 -1.1654 0.9382
32.7682 9.4914 -2.5014 0.8721
29.0092 13.7651 -2.3543 0.8792
16.6251 10.5131 -1.4423 0.9241
14.4551 9.9776 -1.2878 0.9320
7.8296 8.1515 -0.8287 0.9557
7.0126 7.9156 -0.7754 0.9585
6.2242 7.6232 -0.7216 0.9613
3.3489 7.0576 -0.5728 0.9692
2.8117 7.4138 -0.5814 0.9687
2.4090 7.2157 -0.5578 0.9700
2.0284 7.0028 -0.5346 0.9712
1.7393 7.0566 -0.5329 0.9713
0.8346 4.0880 -0.3059 0.9834
0.2788 6.9164 -0.5075 0.9726
-0.7994 6.5838 -0.4863 0.9738
-1.0738 6.6074 -0.4908 0.9735
-1.3311 6.5202 -0.4879 0.9737
-1.9374 6.6887 -0.5106 0.9725
-2.3773 6.2685 -0.4916 0.9735
-2.7351 6.4195 -0.5116 0.9724
-3.4035 5.8951 -0.4991 0.9731
-3.8990 6.1657 -0.5349 0.9712
-4.0561 5.8762 -0.5235 0.9718
-4.2663 5.6774 -0.5207 0.9719
-6.0214 5.3345 -0.5898 0.9683
-7.1801 5.3955 -0.6585 0.9646
-7.2810 5.0256 -0.6487 0.9651
-8.6590 4.5446 -0.7170 0.9615
-31.3087 11.8739 -2.4552 0.8743
-30.9589 10.3356 -2.3931 0.8773
-26.3818 6.5025 -1.9923 0.8968
-26.0938 5.3271 -1.9527 0.8987
-25.7990 4.1928 -1.9165 0.9005
-26.9690 3.2746 -1.9919 0.8968
-31.3606 2.5317 -2.3070 0.8814
-26.3710 -2.1289 -2.5400 0.8991
-25.9221 -5.2920 -2.5400 0.8991
-25.6880 -6.3315 -2.5400 0.8991
-25.4122 -7.3607 -2.5400 0.8991
-24.3397 -10.3709 -2.5400 0.8991
-23.4263 -12.2951 -2.5400 0.8991
-22.9123 -13.2284 -2.5400 0.8991
-22.3610 -14.1402 -2.5400 0.8991
-21.7736 -15.0292 -2.5400 0.8991
-16.7325 -20.4935 -2.5400 0.8991
-15.0292 -21.7735 -2.5400 0.8991
-14.1403 -22.3610 -2.5400 0.8991
-13.2284 -22.9123 -2.5400 0.8991
-11.3418 -23.9024 -2.5400 0.8991
-5.7955 -15.2814 -1.5691 0.9364
-8.3780 -25.0953 -2.5400 0.8991
-2.3640 -14.5464 -1.4148 0.9425
-1.3294 -10.9484 -1.0588 0.9566
-1.1536 -14.2895 -1.3763 0.9440
0.5612 -13.9255 -1.3380 0.9455
1.1147 -13.8080 -1.3300 0.9459
1.6625 -13.6917 -1.3241 0.9461
4.3785 -13.1152 -1.3274 0.9460
10.5934 -22.3251 -2.3724 0.9055
11.4824 -21.8779 -2.3721 0.9055
14.0286 -20.3239 -2.3709 0.9055
14.8324 -19.7384 -2.3704 0.9055
15.6116 -19.1208 -2.3698 0.9056
16.2184 -16.8851 -2.2477 0.9102
16.0828 -15.4477 -2.1409 0.9143
14.5734 -10.9512 -1.7501 0.9294
16.6283 -10.5151 -1.8888 0.9240
17.7867 -10.2692 -1.9718 0.9208
23.2982 -7.7781 -2.3581 0.9060
23.8069 -5.8679 -2.3540 0.9062
25.2901 -3.0708 -2.4458 0.9027
26.0337 -1.0491 -2.5014 0.9006
26.0337 1.0491 -2.5014 0.9006
14.8230 1.7998 -1.4335 0.9418
22.8931 8.6822 -2.3506 0.9063
22.5308 9.5995 -2.3512 0.9063
16.6715 10.5424 -1.8937 0.9238
12.3834 9.3055 -1.4871 0.9397
8.6944 8.3511 -1.1574 0.9527
6.9626 7.8592 -1.0080 0.9587
5.7035 7.5899 -0.9115 0.9626
4.2009 7.2763 -0.8066 0.9668
2.7175 7.1653 -0.7357 0.9697
2.0444 7.0579 -0.7054 0.9709
1.6893 6.8538 -0.6777 0.9720
0.8329 4.0798 -0.3998 0.9834
0.3239 4.0127 -0.3865 0.9840
0.2639 6.5479 -0.6291 0.9740
-0.2662 6.6065 -0.6348 0.9738
-0.5251 6.5043 -0.6265 0.9741
-1.5882 6.4439 -0.6372 0.9737
-1.8136 6.2615 -0.6258 0.9741
-3.6118 5.7116 -0.6488 0.9732
-3.9985 5.7929 -0.6758 0.9721
-4.6572 5.7040 -0.7070 0.9708
-4.9329 5.5681 -0.7142 0.9705
-5.0711 5.2795 -0.7028 0.9710
-5.9537 5.2745 -0.7636 0.9685
-6.1586 5.0283 -0.7633 0.9686
-7.2710 5.0187 -0.8482 0.9651
-7.8106 4.9391 -0.8872 0.9635
-4.9037 2.3268 -0.5211 0.9784
-24.3397 10.3702 -2.5400 0.8991
-24.7375 9.3817 -2.5400 0.8991
-25.6880 6.3315 -2.5400 0.8991
-25.9221 5.2920 -2.5400 0.8991
-25.7990 4.1928 -2.5093 0.9003
-26.2639 3.1890 -2.5400 0.8991
-21.3655 -0.8610 -2.5400 0.9175
-21.2270 -2.5774 -2.5400 0.9175
-21.1060 -3.4300 -2.5400 0.9175
-20.9508 -4.2771 -2.5400 0.9175
-20.2824 -6.7713 -2.5400 0.9175
-19.9933 -7.5825 -2.5400 0.9175
-19.6718 -8.3814 -2.5400 0.9175
-19.3184 -9.1667 -2.5400 0.9175
-18.0726 -11.4284 -2.5400 0.9175
-16.5633 -13.5235 -2.5400 0.9175
-14.1795 -16.0053 -2.5400 0.9175
-11.4284 -18.0726 -2.5400 0.9175
-10.6915 -18.5181 -2.5400 0.9175
-9.9371 -18.9336 -2.5400 0.9175
-8.3813 -19.6721 -2.5400 0.9175
-5.5931 -19.3096 -2.3880 0.9222
-2.9971 -14.6808 -1.7798 0.9414
-1.3290 -10.9452 -1.3097 0.9566
-1.1536 -14.2895 -1.7029 0.9439
1.6625 -13.6917 -1.6383 0.9460
2.2064 -13.5763 -1.6338 0.9461
2.7481 -13.4613 -1.6320 0.9462
3.2896 -13.3464 -1.6328 0.9461
3.8324 -13.2311 -1.6363 0.9460
4.3785 -13.1152 -1.6424 0.9458
4.9296 -12.9983 -1.6513 0.9455
7.8120 -18.3354 -2.3674 0.9229
9.2602 -17.6437 -2.3669 0.9229
12.5920 -15.4224 -2.3650 0.9229
13.7860 -14.3528 -2.3640 0.9230
14.8887 -13.1902 -2.3628 0.9230
16.3156 -11.2618 -2.3549 0.9232
16.7916 -10.6183 -2.3599 0.9231
17.1997 -9.9303 -2.3592 0.9231
17.5759 -9.2245 -2.3578 0.9232
17.9216 -8.5039 -2.3563 0.9232
18.2374 -7.7702 -2.3548 0.9233
18.5229 -7.0248 -2.3532 0.9233
18.7777 -6.2689 -2.3515 0.9234
20.6324 -4.2121 -2.5014 0.9187
20.7853 -3.3780 -2.5014 0.9187
20.9045 -2.5383 -2.5014 0.9187
21.0409 -0.8479 -2.5014 0.9187
14.9758 1.2090 -1.7847 0.9413
14.6500 1.7788 -1.7530 0.9423
20.4461 5.0395 -2.5014 0.9187
20.2266 5.8587 -2.5014 0.9187
19.6896 7.4673 -2.5014 0.9187
17.5479 9.2098 -2.3541 0.9233
8.7573 8.4116 -1.4424 0.9523
7.7411 8.0593 -1.3274 0.9560
6.9507 7.8457 -1.2451 0.9587
5.3768 7.7896 -1.1243 0.9626
4.6554 7.3619 -1.0347 0.9655
0.6275 3.8614 -0.4647 0.9844
-0.2619 6.5005 -0.7728 0.9741
-1.2669 6.2060 -0.7524 0.9748
-1.8145 6.2644 -0.7747 0.9741
-2.0108 6.0231 -0.7543 0.9747
-2.5161 5.9056 -0.7625 0.9745
-6.9448 5.2187 -1.0319 0.9656
-7.2500 5.0043 -1.0464 0.9651
-7.7064 4.8732 -1.0831 0.9639
-8.4452 4.8758 -1.1583 0.9615
-8.6369 4.5330 -1.1587 0.9615
-4.9037 2.3268 -0.6447 0.9784
-19.9933 7.5825 -2.5400 0.9175
-20.5386 5.9491 -2.5400 0.9175
-21.3135 1.7206 -2.5400 0.9175
-17.9264 0.0000 -2.5400 0.9301
-17.9119 -0.7218 -2.5400 0.9301
-17.7957 -2.1608 -2.5400 0.9301
-17.5642 -3.5857 -2.5400 0.9301
-17.2187 -4.9874 -2.5400 0.9301
-17.0039 -5.6767 -2.5400 0.9301
-15.8731 -8.3308 -2.5400 0.9301
-15.5247 -8.9632 -2.5400 0.9301
-15.1512 -9.5810 -2.5400 0.9301
-13.4181 -11.8874 -2.5400 0.9301
-12.9286 -12.4180 -2.5400 0.9301
-11.8874 -13.4181 -2.5400 0.9301
-11.3375 -13.8859 -2.5400 0.9301
-10.7692 -14.3312 -2.5400 0.9301
-10.1834 -14.7531 -2.5400 0.9301
-7.2238 -15.2239 -2.3876 0.9342
-6.6050 -15.5024 -2.3876 0.9342
-5.7355 -15.1233 -2.2917 0.9367
-4.6887 -16.1874 -2.3879 0.9342
-3.5514 -14.4088 -2.1027 0.9418
-2.9888 -14.6401 -2.1171 0.9414
-2.3640 -14.5464 -2.0881 0.9422
-1.3286 -10.9418 -1.5617 0.9564
-0.0000 -14.0446 -1.9900 0.9448
1.1147 -13.8080 -1.9628 0.9456
1.6625 -13.6917 -1.9542 0.9458
2.2064 -13.5763 -1.9489 0.9459
2.7481 -13.4613 -1.9467 0.9460
3.2896 -13.3464 -1.9476 0.9460
6.5372 -15.3433 -2.3631 0.9348
7.1491 -15.0664 -2.3629 0.9348
7.7492 -14.7649 -2.3627 0.9349
8.9101 -14.0902 -2.3621 0.9349
9.4689 -13.7181 -2.3618 0.9349
10.5386 -12.9075 -2.3610 0.9349
11.0478 -12.4704 -2.3606 0.9349
12.0106 -11.5363 -2.3596 0.9349
12.4627 -11.0410 -2.3591 0.9349
13.2991 -9.9936 -2.3571 0.9350
14.0467 -8.8826 -2.3548 0.9351
14.3857 -8.3056 -2.3536 0.9351
14.7007 -7.7155 -2.3524 0.9351
14.9914 -7.1135 -2.3511 0.9352
16.6928 -5.5729 -2.4935 0.9314
16.9571 -4.9117 -2.5014 0.9312
17.1411 -4.2249 -2.5014 0.9312
17.2973 -3.5312 -2.5014 0.9312
17.4255 -2.8319 -2.5014 0.9312
17.5968 -1.4206 -2.5014 0.9312
17.6541 0.0000 -2.5014 0.9312
16.5068 6.2602 -2.5014 0.9312
15.2519 6.4982 -2.3490 0.9352
14.3886 8.3072 -2.3541 0.9351
14.0438 8.8808 -2.3543 0.9351
13.6748 9.4390 -2.3543 0.9351
10.8482 8.8573 -1.9843 0.9450
9.9121 8.7814 -1.8763 0.9479
7.8094 8.1305 -1.5973 0.9555
6.9558 7.8515 -1.4862 0.9585
5.7668 7.6742 -1.3601 0.9620
4.7353 7.4883 -1.2553 0.9648
4.2318 7.3298 -1.1992 0.9664
3.8892 7.4102 -1.1858 0.9668
3.3053 6.9656 -1.0924 0.9693
3.0364 7.1265 -1.0976 0.9692
2.0380 7.0360 -1.0379 0.9708
1.6705 6.7775 -0.9890 0.9722
0.6274 3.8605 -0.5542 0.9843
0.3237 4.0101 -0.5700 0.9839
0.2663 6.6061 -0.9368 0.9736
0.0000 6.4740 -0.9173 0.9742
-0.2660 6.6016 -0.9361 0.9737
-0.5269 6.5273 -0.9279 0.9739
-0.7711 6.3511 -0.9065 0.9745
-1.5851 6.4311 -0.9385 0.9736
-2.2374 5.8997 -0.8940 0.9748
-2.5806 6.0571 -0.9329 0.9738
-3.1174 5.9397 -0.9505 0.9733
-3.5760 5.6550 -0.9480 0.9733
-3.9460 5.7168 -0.9842 0.9723
-4.1025 5.4594 -0.9676 0.9728
-4.5931 5.6255 -1.0290 0.9711
-4.9358 5.5713 -1.0546 0.9704
-5.0872 5.2964 -1.0405 0.9708
-5.5216 5.3035 -1.0848 0.9695
-6.0964 4.9775 -1.1151 0.9687
-6.9733 5.2401 -1.2359 0.9654
-8.6317 4.5302 -1.3812 0.9614
-16.4919 7.0266 -2.5400 0.9301
-16.7615 6.3568 -2.5400 0.9301
-17.5642 3.5857 -2.5400 0.9301
-17.8683 1.4425 -2.5400 0.9301
-17.9119 0.7219 -2.5400 0.9301
-15.4182 0.0000 -2.5400 0.9394
-15.3058 -1.8585 -2.5400 0.9394
-15.2186 -2.4732 -2.5400 0.9394
-14.9702 -3.6898 -2.5400 0.9394
-14.4163 -5.4674 -2.5400 0.9394
-13.3526 -7.7091 -2.5400 0.9394
-11.9430 -9.7512 -2.5400 0.9394
-11.1196 -10.6806 -2.5400 0.9394
-9.2624 -12.3260 -2.5400 0.9394
-8.7303 -12.6480 -2.5318 0.9396
-8.1771 -12.9310 -2.5204 0.9399
-6.6390 -12.6495 -2.3534 0.9437
-6.1204 -12.8984 -2.3520 0.9438
-5.0564 -13.3326 -2.3491 0.9438
-3.9805 -13.7423 -2.3570 0.9436
-2.8634 -14.0257 -2.3582 0.9436
-1.3282 -10.9385 -1.8152 0.9563
-1.1526 -14.2768 -2.3596 0.9436
-0.5768 -14.3128 -2.3598 0.9436
-0.0000 -14.3254 -2.3600 0.9436
0.5768 -14.3146 -2.3601 0.9436
1.7270 -14.2229 -2.3603 0.9436
2.2983 -14.1421 -2.3603 0.9436
2.8659 -14.0381 -2.3603 0.9436
3.4288 -13.9113 -2.3603 0.9436
3.9861 -13.7616 -2.3603 0.9436
4.5368 -13.5895 -2.3602 0.9436
5.0801 -13.3952 -2.3601 0.9436
5.6151 -13.1790 -2.3599 0.9436
6.6563 -12.6825 -2.3596 0.9436
7.1609 -12.4030 -2.3594 0.9436
8.1325 -11.7820 -2.3584 0.9436
8.5982 -11.4421 -2.3579 0.9436
9.4857 -10.7072 -2.3565 0.9437
9.9061 -10.3134 -2.3558 0.9437
10.3100 -9.9029 -2.3550 0.9437
11.0655 -9.0347 -2.3534 0.9437
12.0592 -7.6258 -2.3505 0.9438
12.3511 -7.1309 -2.3495 0.9438
13.9689 -5.9516 -2.5014 0.9403
14.4025 -4.8083 -2.5014 0.9403
14.5845 -4.2244 -2.5014 0.9403
15.0733 -1.8302 -2.5014 0.9403
15.1347 -1.2218 -2.5014 0.9403
15.1717 -0.6114 -2.5014 0.9403
15.1717 0.6114 -2.5014 0.9403
15.1347 1.2218 -2.5014 0.9403
15.0733 1.8302 -2.5014 0.9403
14.9873 2.4357 -2.5014 0.9403
14.7427 3.6337 -2.5014 0.9403
14.5845 4.2245 -2.5014 0.9403
14.4026 4.8083 -2.5014 0.9403
13.9689 5.9516 -2.5014 0.9403
12.8851 6.1141 -2.3495 0.9438
12.6366 6.6322 -2.3510 0.9438
12.3671 7.1402 -2.3525 0.9438
11.7615 8.1184 -2.3543 0.9437
10.9729 8.9591 -2.3337 0.9442
9.9380 8.8043 -2.1873 0.9476
6.5429 8.0136 -1.7043 0.9589
5.7463 7.6469 -1.5758 0.9620
3.8519 7.3390 -1.3654 0.9670
3.3402 7.0391 -1.2835 0.9689
3.0146 7.0753 -1.2670 0.9693
2.7224 7.1782 -1.2647 0.9694
2.3577 7.0622 -1.2265 0.9703
1.6915 6.8624 -1.1644 0.9718
0.3236 4.0089 -0.6626 0.9838
0.0000 6.4731 -1.0664 0.9741
-0.2633 6.5344 -1.0773 0.9738
-0.5206 6.4492 -1.0659 0.9741
-1.0094 6.2114 -1.0367 0.9748
-1.5860 6.4349 -1.0918 0.9735
-2.2473 5.9257 -1.0440 0.9746
-2.4677 5.7921 -1.0372 0.9748
-2.8338 5.9722 -1.0890 0.9736
-3.0766 5.8619 -1.0906 0.9735
-3.5796 5.6607 -1.1033 0.9732
-3.8797 5.6207 -1.1251 0.9727
-4.1494 5.5219 -1.1379 0.9724
-5.5036 5.2863 -1.2572 0.9695
-5.8623 5.1936 -1.2902 0.9687
-6.9139 5.1955 -1.4247 0.9655
-7.2436 4.9998 -1.4500 0.9649
-7.4843 4.7327 -1.4588 0.9647
-8.6346 4.5318 -1.6065 0.9612
-4.9037 2.3268 -0.8942 0.9782
-14.6247 4.8825 -2.5400 0.9394
-14.9702 3.6898 -2.5400 0.9394
-15.2186 2.4733 -2.5400 0.9394
-15.3058 1.8585 -2.5400 0.9394
-15.3682 1.2407 -2.5400 0.9394
-13.5134 0.0000 -2.5400 0.9465
-13.5024 -0.5441 -2.5400 0.9465
-13.4696 -1.0874 -2.5400 0.9465
-12.2087 -5.7931 -2.5400 0.9465
-11.7029 -6.7567 -2.5400 0.9465
-11.1213 -7.6765 -2.5400 0.9465
-10.8032 -8.1180 -2.5400 0.9465
-10.1149 -8.9611 -2.5400 0.9465
-9.3300 -9.7136 -2.5316 0.9467
-8.9025 -10.0488 -2.5234 0.9468
-8.4629 -10.3652 -2.5151 0.9470
-6.6546 -11.5261 -2.5016 0.9473
-5.8078 -11.0658 -2.3490 0.9504
-4.4362 -11.6974 -2.3515 0.9504
-3.9628 -11.8700 -2.3521 0.9503
-2.5050 -12.2703 -2.3539 0.9503
-2.0093 -12.3638 -2.3544 0.9503
-1.3278 -10.9351 -2.0705 0.9562
-1.0083 -12.4898 -2.3552 0.9503
-0.5046 -12.5221 -2.3556 0.9503
-0.0000 -12.5338 -2.3559 0.9503
0.5047 -12.5250 -2.3561 0.9503
1.0087 -12.4955 -2.3563 0.9503
2.0111 -12.3750 -2.3565 0.9503
2.5078 -12.2842 -2.3566 0.9503
3.4881 -12.0421 -2.3565 0.9503
3.9699 -11.8913 -2.3564 0.9503
4.4452 -11.7210 -2.3562 0.9503
5.3728 -11.3230 -2.3557 0.9503
7.1149 -10.3077 -2.3542 0.9503
7.5226 -10.0107 -2.3537 0.9503
7.9177 -9.6974 -2.3531 0.9503
8.2996 -9.3684 -2.3525 0.9503
8.6678 -9.0241 -2.3519 0.9503
9.0215 -8.6653 -2.3512 0.9504
9.3603 -8.2925 -2.3505 0.9504
9.6835 -7.9063 -2.3497 0.9504
9.9908 -7.5076 -2.3490 0.9504
10.4757 -7.2308 -2.3925 0.9495
11.5251 -6.6540 -2.5014 0.9473
11.7837 -6.1846 -2.5014 0.9473
12.0232 -5.7051 -2.5014 0.9473
12.2431 -5.2163 -2.5014 0.9473
12.4432 -4.7191 -2.5014 0.9473
12.7826 -3.7025 -2.5014 0.9473
13.0391 -2.6620 -2.5014 0.9473
13.1357 -2.1348 -2.5014 0.9473
13.2110 -1.6041 -2.5014 0.9473
13.3081 -0.0000 -2.5014 0.9473
13.2110 1.6041 -2.5014 0.9473
12.9214 3.1848 -2.5014 0.9473
12.7826 3.7025 -2.5014 0.9473
12.6232 4.2142 -2.5014 0.9473
12.4433 4.7191 -2.5014 0.9473
12.2431 5.2163 -2.5014 0.9473
9.7024 7.9218 -2.3543 0.9503
9.3756 8.3060 -2.3543 0.9503
8.7455 8.4002 -2.2793 0.9518
6.9844 7.8837 -1.9797 0.9580
6.5606 8.0353 -1.9498 0.9587
3.8863 7.4046 -1.5718 0.9665
3.3686 7.0990 -1.4769 0.9685
3.0552 7.1707 -1.4650 0.9688
0.6271 3.8586 -0.7348 0.9842
0.4673 3.8483 -0.7286 0.9843
0.3235 4.0076 -0.7557 0.9838
0.0000 6.4161 -1.2060 0.9742
-0.2639 6.5499 -1.2321 0.9737
-0.5166 6.3993 -1.2067 0.9742
-0.7729 6.3652 -1.2052 0.9742
-1.2545 6.1451 -1.1789 0.9748
-1.5893 6.4483 -1.2483 0.9733
-2.2393 5.9047 -1.1870 0.9746
-3.1089 5.9235 -1.2574 0.9731
-3.3226 5.7550 -1.2491 0.9733
-4.1728 5.5530 -1.3056 0.9721
-5.1116 5.3217 -1.3870 0.9704
-6.2175 5.0764 -1.5087 0.9679
-7.6210 4.8192 -1.6948 0.9640
-8.5053 4.9105 -1.8460 0.9608
-8.6561 4.5430 -1.8375 0.9610
-11.8771 4.5044 -2.3876 0.9496
-13.2403 2.7030 -2.5400 0.9465
-13.3384 2.1677 -2.5400 0.9465
-13.5024 0.5441 -2.5400 0.9465
-12.0153 -0.0003 -2.5398 0.9521
-11.9772 -0.9669 -2.5400 0.9521
-11.7734 -2.4035 -2.5400 0.9521
-9.8519 -6.8002 -2.5304 0.95220-9.5526 -7.1783 -2.5258 0.9523
-8.2164 -8.5541 -2.5072 0.9527
-7.4882 -9.1713 -2.5027 0.9527
-6.7241 -9.7416 -2.5021 0.9528
-5.4994 -10.4782 -2.5014 0.9528
-5.0730 -10.6911 -2.5014 0.9528
-4.5043 -10.5721 -2.4291 0.9541
-3.9737 -10.4778 -2.3687 0.9552
-2.2243 -10.8951 -2.3505 0.9556
-1.7841 -10.9779 -2.3510 0.9555
-0.8952 -11.0894 -2.3517 0.9555
-0.5410 -13.4247 -2.8400 0.9466
-0.0000 -11.1282 -2.3523 0.9555
1.7856 -10.9869 -2.3529 0.9555
2.2265 -10.9063 -2.3529 0.9555
3.0968 -10.6915 -2.3529 0.9555
3.9467 -10.4065 -2.3526 0.9555
5.1707 -9.8520 -2.3519 0.9555
5.5625 -9.6345 -2.3516 0.9555
5.9450 -9.4012 -2.3512 0.9555
6.3176 -9.1527 -2.3508 0.9556
7.0308 -8.6112 -2.3499 0.9556
7.3702 -8.3193 -2.3494 0.9556
7.6980 -8.0145 -2.3490 0.9556
8.1322 -7.8111 -2.3835 0.9549
9.1664 -7.4841 -2.5014 0.9528
9.4603 -7.1090 -2.5014 0.9528
10.8867 -4.6384 -2.5014 0.9528
11.0646 -4.1963 -2.5014 0.9528
11.2246 -3.7473 -2.5014 0.9528
11.4898 -2.8320 -2.5014 0.9528
11.5945 -2.3670 -2.5014 0.9528
11.6804 -1.8982 -2.5014 0.9528
11.7953 -0.9522 -2.5014 0.9528
11.8240 -0.4765 -2.5014 0.9528
11.8336 0.0000 -2.5014 0.9528
11.7953 0.9522 -2.5014 0.9528
11.4898 2.8320 -2.5014 0.9528
11.0646 4.1963 -2.5014 0.9528
10.8867 4.6384 -2.5014 0.9528
9.6294 5.5595 -2.3503 0.9556
9.4023 5.9457 -2.3515 0.9555
9.1597 6.3225 -2.3526 0.9555
8.9019 6.6893 -2.3537 0.9555
8.6275 7.0441 -2.3543 0.9555
8.3368 7.3858 -2.3543 0.9555
7.7155 8.0327 -2.3543 0.9555
6.6122 8.0984 -2.2100 0.9582
5.3996 7.8226 -2.0092 0.9619
4.7948 7.5823 -1.8963 0.9640
3.0745 7.2161 -1.6580 0.9684
2.7361 7.2145 -1.6310 0.9689
1.9959 6.8907 -1.5164 0.9711
1.6565 6.7205 -1.4631 0.9721
0.6269 3.8576 -0.8261 0.9841
0.4671 3.8471 -0.8192 0.9843
0.3234 4.0063 -0.8496 0.9837
0.0000 6.3435 -1.3409 0.9744
-0.2638 6.5483 -1.3853 0.9736
-0.5246 6.4992 -1.3783 0.9737
-1.2563 6.1541 -1.3277 0.9746
-1.5867 6.4375 -1.4015 0.9733
-2.0150 6.0357 -1.3450 0.9743
-2.8467 5.9993 -1.4036 0.9732
-3.0764 5.8616 -1.3993 0.9733
-4.1559 5.5305 -1.4623 0.9721
-4.5418 5.5626 -1.5180 0.9711
-5.0500 5.2576 -1.5410 0.9706
-5.9849 5.3022 -1.6901 0.9678
-6.2028 5.0644 -1.6927 0.9678
-6.6964 5.0320 -1.7706 0.9663
-7.2086 4.9757 -1.8515 0.9648
-8.4739 4.8924 -2.0683 0.9608
-8.6806 4.5559 -2.0723 0.9607
-4.9037 2.3268 -1.1473 0.9781
-10.3914 4.4274 -2.3876 0.9549
-10.5612 4.0054 -2.3876 0.9549
-10.7139 3.5768 -2.3876 0.9549
-10.9556 2.7003 -2.3851 0.9549
-11.0424 2.2543 -2.3823 0.9550
-11.9743 0.9667 -2.5394 0.9521
-12.0059 0.4838 -2.5399 0.9521
-10.7342 0.0000 -2.5228 0.9569
-10.7314 -0.4325 -2.5242 0.9568
-10.6698 -1.2955 -2.5261 0.9568
-10.5329 -2.1503 -2.5265 0.9568
-10.4361 -2.5723 -2.5261 0.9568
-10.1872 -3.4010 -2.5241 0.9568
-9.8671 -4.2040 -2.5207 0.9569
-9.2636 -5.3483 -2.5140 0.9570
-9.0297 -5.7100 -2.5109 0.9571
-8.7860 -6.0645 -2.5090 0.9571
-8.5258 -6.4067 -2.5065 0.9571
-8.2556 -6.7405 -2.5048 0.9572
-7.9736 -7.0640 -2.5036 0.9572
-6.7341 -8.2478 -2.5025 0.9572
-6.3958 -8.5113 -2.5022 0.9572
-6.0472 -8.7608 -2.5019 0.9572
-5.6888 -8.9961 -2.5016 0.9572
-5.3216 -9.2173 -2.5014 0.9572
-4.5627 -9.6156 -2.5014 0.9572
-3.3704 -10.0955 -2.5014 0.9572
-2.5062 -10.1680 -2.4612 0.9579
-1.2058 -9.9305 -2.3510 0.9597
-0.8042 -9.9623 -2.3490 0.9598
1.2052 -9.9256 -2.3499 0.9597
2.0000 -9.7969 -2.3500 0.9597
2.3929 -9.7084 -2.3500 0.9597
3.1662 -9.4838 -2.3498 0.9597
3.9185 -9.1971 -2.3496 0.9598
4.9974 -8.6557 -2.3490 0.9598
5.7777 -8.3704 -2.3904 0.9591
6.2093 -8.2631 -2.4292 0.9584
6.6531 -8.1486 -2.4724 0.9577
7.3728 -7.6759 -2.5014 0.9572
7.6759 -7.3728 -2.5014 0.9572
7.9665 -7.0577 -2.5014 0.9572
8.7592 -6.0460 -2.5014 0.9572
9.2173 -5.3216 -2.5014 0.9572
9.6156 -4.5627 -2.5014 0.9572
9.7915 -4.1718 -2.5014 0.9572
10.2230 -2.9611 -2.5014 0.9572
10.3339 -2.5471 -2.5014 0.9572
10.6087 -0.8564 -2.5014 0.9572
10.6346 -0.4286 -2.5014 0.9572
10.6346 0.4286 -2.5014 0.9572
10.6087 0.8564 -2.5014 0.9572
10.5656 1.2829 -2.5014 0.9572
10.5054 1.7073 -2.5014 0.9572
10.3339 2.5471 -2.5014 0.9572
9.9516 3.7741 -2.5014 0.9572
9.7915 4.1718 -2.5014 0.9572
9.6156 4.5627 -2.5014 0.9572
8.9265 4.6850 -2.3693 0.9594
8.4531 5.3454 -2.3506 0.9597
8.2346 5.6839 -2.3516 0.9597
8.0025 6.0135 -2.3526 0.9597
7.4982 6.6428 -2.3543 0.9597
7.2246 6.9393 -2.3543 0.9597
6.6428 7.4982 -2.3543 0.9597
5.4213 7.8541 -2.2429 0.9615
3.0491 7.1563 -1.8282 0.9685
2.7054 7.1334 -1.7930 0.9691
2.3794 7.1271 -1.7659 0.9696
0.8229 4.0306 -0.9668 0.9832
0.6268 3.8566 -0.9183 0.9841
0.4670 3.8459 -0.9105 0.9842
0.2609 6.4737 -1.5227 0.9737
0.0000 6.3319 -1.4881 0.9743
-0.7789 6.4154 -1.5188 0.9738
-1.0137 6.2376 -1.4852 0.9744
-1.2662 6.2024 -1.4878 0.9743
-1.8094 6.2468 -1.5285 0.9736
-2.0141 6.0332 -1.4949 0.9742
-2.2491 5.9304 -1.4907 0.9743
-2.5884 6.0753 -1.5520 0.9732
-4.9131 5.5458 -1.7413 0.9700
-5.5206 5.3026 -1.7990 0.9690
-5.9475 5.2691 -1.8675 0.9679
-6.1812 5.0468 -1.8754 0.9677
-7.2960 5.0360 -2.0836 0.9642
-7.7155 4.8789 -2.1455 0.9632
-8.5713 4.9486 -2.3261 0.9601
-4.9037 2.3268 -1.2756 0.9779
-9.2863 3.9566 -2.3723 0.9594
-9.5478 3.1875 -2.3657 0.9595
-9.6624 2.7988 -2.3642 0.9595
-9.8403 2.0089 -2.3604 0.9596
-9.9083 1.6103 -2.3592 0.9596
-10.7176 0.4319 -2.5209 0.9569
-9.6808 0.0000 -2.5065 0.9608
-9.5619 -1.5540 -2.5082 0.9608
-9.4060 -2.3183 -2.5083 0.9608
-9.3037 -2.6949 -2.5079 0.9608
-9.1854 -3.0665 -2.5073 0.9608
-9.0513 -3.4327 -2.5064 0.9608
-8.9018 -3.7927 -2.5053 0.9608
-8.5655 -4.4955 -2.5046 0.9608
-8.3768 -4.8364 -2.5044 0.9608
-8.1746 -5.1693 -2.5042 0.9608
-7.9591 -5.4937 -2.5040 0.9608
-7.4898 -6.1152 -2.5035 0.9608
-7.2367 -6.4112 -2.5033 0.9608
-6.6960 -6.9713 -2.5028 0.9608
-6.1121 -7.4859 -2.5022 0.9609
-5.4887 -7.9517 -2.5017 0.9609
-5.1635 -8.1654 -2.5014 0.9609
-4.8305 -8.3666 -2.5014 0.9609
-4.4897 -8.5544 -2.5014 0.9609
-4.1416 -8.7282 -2.5014 0.9609
-3.7868 -8.8879 -2.5014 0.9609
-1.9324 -9.4657 -2.5014 0.9609
0.3853 -9.5603 -2.4773 0.9612
0.7654 -9.4812 -2.4628 0.9615
1.1416 -9.4022 -2.4523 0.9616
2.2579 -9.1606 -2.4428 0.9618
3.0020 -8.9922 -2.4546 0.9616
3.3776 -8.9061 -2.4662 0.9614
3.7572 -8.8183 -2.4818 0.9612
4.1415 -8.7280 -2.5013 0.9609
4.4897 -8.5544 -2.5014 0.9609
5.1635 -8.1653 -2.5014 0.9609
5.4880 -7.9508 -2.5014 0.9609
5.8037 -7.7234 -2.5014 0.9609
6.9675 -6.6924 -2.5014 0.9609
7.2313 -6.4064 -2.5014 0.9609
7.4834 -6.1100 -2.5014 0.9609
8.1653 -5.1635 -2.5014 0.9609
8.3666 -4.8305 -2.5014 0.9609
8.5544 -4.4897 -2.5014 0.9609
9.1638 -3.0593 -2.5014 0.9609
9.5358 -1.5497 -2.5014 0.9609
9.6296 -0.7774 -2.5014 0.9609
9.6531 0.3890 -2.5014 0.9609
9.6296 0.7774 -2.5014 0.9609
9.5905 1.1645 -2.5014 0.9609
9.4657 1.9325 -2.5014 0.9609
9.2795 2.6879 -2.5014 0.9609
9.0331 3.4258 -2.5014 0.9609
8.8879 3.7868 -2.5014 0.9609
8.7282 4.1416 -2.5014 0.9609
7.8569 4.5362 -2.3490 0.9632
7.6705 4.8505 -2.3498 0.9632
7.4719 5.1575 -2.3507 0.9632
6.5577 6.2988 -2.3543 0.9631
4.0133 7.6466 -2.2360 0.9649
3.3987 7.1624 -2.0527 0.9678
3.0833 7.2365 -2.0367 0.9680
2.7254 7.1863 -1.9900 0.9687
2.3342 6.9917 -1.9085 0.9700
2.0178 6.9662 -1.8778 0.9705
1.6924 6.8664 -1.8310 0.9712
0.8211 4.0223 -1.0629 0.9832
0.6266 3.8556 -1.0114 0.9840
0.4668 3.8447 -1.0028 0.9841
0.3232 4.0037 -1.0400 0.9835
0.2642 6.5539 -1.6983 0.9733
0.0000 6.4766 -1.6769 0.9736
-0.7678 6.3238 -1.6494 0.9740
-1.0241 6.3015 -1.6530 0.9740
-1.2785 6.2628 -1.6550 0.9739
-1.5684 6.3636 -1.6970 0.9733
-2.2632 5.9676 -1.6525 0.9740
-2.5803 6.0564 -1.7045 0.9732
-2.8441 5.9938 -1.7177 0.9730
-3.0977 5.9021 -1.7259 0.9728
-3.3270 5.7625 -1.7228 0.9729
-3.9249 5.6861 -1.7889 0.9719
-4.9103 5.5426 -1.9172 0.9699
-5.1001 5.3098 -1.9062 0.9700
-5.7226 5.4967 -2.0545 0.9677
-5.9857 5.3029 -2.0705 0.9675
-6.2997 5.1435 -2.1057 0.9670
-7.1024 5.3371 -2.3003 0.9640
-7.2841 5.0278 -2.2916 0.9641
-7.6853 4.8599 -2.3543 0.9631
-8.0514 4.2257 -2.3543 0.9631
-4.9037 2.3268 -1.4053 0.9778
-8.4828 3.2171 -2.3490 0.9632
-8.7142 2.5241 -2.3490 0.9632
-8.8087 2.1712 -2.3490 0.9632
-8.9553 1.4554 -2.3491 0.9632
-9.0069 1.0936 -2.3492 0.9632
-8.8302 -0.3558 -2.5018 0.9639
-8.7322 -1.4191 -2.5045 0.9639
-8.6713 -1.7702 -2.5054 0.9639
-8.5925 -2.1179 -2.5053 0.9639
-8.4997 -2.4620 -2.5051 0.9639
-8.2730 -3.1375 -2.5048 0.9639
-7.9926 -3.7925 -2.5044 0.9639
-7.6603 -4.4227 -2.5041 0.9639
-7.2784 -5.0239 -.15036 0.9639
-7.0696 -5.3124 -2.5034 0.9639
-6.8493 -5.5923 -2.5032 0.9639
-6.1233 -6.3751 -2.5024 0.9639
-5.8594 -6.6138 -2.5014 0.9639
-5.3081 -7.0638 -2.5014 0.9639
-4.7225 -7.4681 -2.5014 0.9639
-4.4180 -7.6522 -2.5014 0.9639
-3.4634 -8.1289 -2.5014 0.9639
-3.1333 -8.2618 -2.5014 0.9639
-2.4583 -8.4871 -2.5014 0.9639
-2.1146 -8.5792 -2.5014 0.9639
-1.4174 -8.7215 -2.5014 0.9639
-0.3558 -8.8288 -2.5014 0.9639
0.7110 -8.8073 -2.5014 0.9639
1.4174 -8.7215 -2.5014 0.9639
2.7981 -8.3812 -2.5014 0.9639
3.1333 -8.2618 -2.5014 0.9639
3.4634 -8.1289 -2.5014 0.9639
4.1063 -7.8238 -2.5014 0.9639
4.4180 -7.6522 -2.5014 0.9639
4.7225 -7.4681 -2.5014 0.9639
5.3081 -7.0638 -2.5014 0.9639
5.5883 -6.8444 -2.5014 0.9639
7.8238 -4.1063 -2.5014 0.9639
8.2618 -3.1333 -2.5014 0.9639
8.5792 -2.1146 -2.5014 0.9639
8.6574 -1.7674 -2.5014 0.9639
8.7715 -1.0651 -2.5014 0.9639
8.8073 0.7110 -2.5014 0.9639
8.7715 1.0651 -2.5014 0.9639
8.6574 1.7674 -2.5014 0.9639
8.5792 2.1146 -2.5014 0.9639
8.4871 2.4583 -2.5014 0.9639
7.9828 3.7879 -2.5014 0.9639
7.4366 4.2935 -2.4309 0.9649
7.0135 4.4351 -2.3492 0.9661
6.6386 4.9886 -2.3508 0.9661
5.2597 6.4420 -2.3543 0.9660
4.9960 6.6485 -2.3543 0.9660
4.7243 6.8443 -2.3543 0.9660
3.3612 7.0834 -2.2196 0.9679
1.7097 6.9366 -2.0225 0.9707
0.0000 6.3511 -1.7980 0.9739
-0.5213 6.4581 -1.8342 0.9734
-0.7756 6.3875 -1.8215 0.9736
-1.0236 6.2985 -1.8065 0.9738
-1.2750 6.2454 -1.8045 0.9738
-1.5741 6.3863 -1.8620 0.9730
-1.7961 6.2010 -1.8276 0.9735
-2.0316 6.0856 -1.8163 0.9737
-2.2614 5.9628 -1.8053 0.9738
-2.5885 6.0755 -1.8695 0.9729
-2.8612 6.0300 -1.8895 0.9726
-3.0975 5.9018 -1.8869 0.9727
-3.3342 5.7750 -1.8878 0.9727
-3.6292 5.7392 -1.9223 0.9722
-3.9351 5.7010 -1.9610 0.9716
-4.7304 5.7937 -2.1174 0.9694
-6.0321 5.3440 -2.2814 0.9671
-6.6485 4.9960 -2.3543 0.9660
-7.2023 4.1582 -2.3543 0.9660
-7.3638 3.8648 -2.3543 0.9660
-4.9037 2.3268 -1.5366 0.9777
-7.6510 3.2598 -2.3543 0.9660
-7.9810 2.3117 -2.3522 0.9660
-8.0565 1.9858 -2.3490 0.9661
-8.8288 0.3558 -2.5014 0.9639
-8.1325 0.0000 -2.5014 0.9665
-8.1260 -0.3275 -2.5014 0.9665
-8.0733 -0.9803 -2.5014 0.9665
-8.0272 -1.3046 -2.5014 0.9665
-7.8116 -2.2627 -2.5014 0.9665
-7.6046 -2.8840 -2.5016 0.9665
-7.4824 -3.1880 -2.5016 0.9665
-7.3480 -3.4866 -2.5016 0.9665
-7.0433 -4.0665 -2.5015 0.9665
-6.5016 -4.8853 -2.5014 0.9665
-5.6336 -5.8652 -2.5014 0.9665
-4.3466 -6.8735 -2.5014 0.9665
-4.0663 -7.0430 -2.5014 0.9665
-3.7794 -7.2010 -2.5014 0.9665
-3.1877 -7.4818 -2.5014 0.9665
-2.5753 -7.7140 -2.5014 0.9665
-2.2626 -7.8114 -2.5014 0.9665
-1.9462 -7.8962 -2.5014 0.9665
-1.6267 -7.9682 -2.5014 0.9665
-0.9803 -8.0732 -2.5014 0.9665
-0.6544 -8.1062 -2.5014 0.9665
1.6267 -7.9682 -2.5014 0.9665
1.9462 -7.8962 -2.5014 0.9665
3.1877 -7.4818 -2.5014 0.9665
3.4863 -7.3473 -2.5014 0.9665
4.0663 -7.0430 -2.5014 0.9665
4.8856 -6.5015 -2.5014 0.9665
5.3929 -6.0873 -2.5014 0.9665
5.6336 -5.8652 -2.5014 0.9665
5.8652 -5.6336 -2.5014 0.9665
6.0873 -5.3929 -2.5014 0.9665
6.2995 -5.1434 -2.5014 0.9665
7.3473 -3.4864 -2.5014 0.9665
7.8115 -2.2626 -2.5014 0.9665
7.8962 -1.9462 -2.5014 0.9665
7.9682 -1.6267 -2.5014 0.9665
8.0272 -1.3046 -2.5014 0.9665
8.1062 -0.6544 -2.5014 0.9665
7.8962 1.9462 -2.5014 0.9665
7.7140 2.5753 -2.5014 0.9665
7.4818 3.1877 -2.5014 0.9665
7.3473 3.4864 -2.5014 0.9665
7.0430 4.0663 -2.5014 0.9665
6.2862 4.3390 -2.3494 0.9685
6.1084 4.5901 -2.3501 0.9685
5.9205 4.8339 -2.3509 0.9685
5.2995 5.5174 -2.3531 0.9685
5.0745 5.7280 -2.3537 0.9685
4.8410 5.9291 -2.3543 0.9685
4.5983 6.1193 -2.3543 0.9685
4.3482 6.2994 -2.3543 0.9685
3.8272 6.6289 -2.3543 0.9685
3.2814 6.9154 -2.3543 0.9685
3.0003 7.0419 -2.3543 0.9685
0.3230 4.0010 -1.2346 0.9833
0.2663 6.6080 -2.0341 0.9727
0.0000 6.4261 -1.9765 0.9735
-0.5240 6.4911 -2.0030 0.9731
-0.7822 6.4418 -1.9959 0.9732
-1.0199 6.2756 -1.9556 0.9737
-1.2665 6.2037 -1.9475 0.9739
-1.5772 6.3991 -2.0271 0.9728
-2.0209 6.0534 -1.9629 0.9736
-2.6642 6.2531 -2.0906 0.9720
-2.8585 6.0243 -2.0510 0.9725
-3.0927 5.8928 -2.0470 0.9725
-3.3423 5.7890 -2.0560 0.9724
-4.8195 5.9028 -2.3439 0.9686
-4.9096 5.5418 -2.2772 0.9695
-5..388 5.4333 -2.3172 0.9690
-5.5204 5.3024 -2.3543 0.9685
-5.7294 5.0758 -2.3543 0.9685
-6.4694 4.0910 -2.3543 0.9685
-6.7776 3.5572 -2.3543 0.9685
-7.4858 1.5282 -2.3499 0.9685
-7.5387 1.2252 -2.3492 0.9685
-8.1260 0.3275 -2.5014 0.9665
-7.5190 -0.3030 -2.5014 0.9688
-7.4703 -0.9071 -2.5014 0.9688
-7.3730 -1.5052 -2.5014 0.9688
-7.3065 -1.8009 -2.5014 0.9688
-7.2280 -2.0936 -2.5014 0.9688
-7.1379 -2.3830 -2.5014 0.9688
-7.0361 -2.6684 -2.5014 0.9688
-6.9230 -2.9496 -2.5014 0.9688
-6.7986 -3.2260 -2.5014 0.9688
-6.1931 -4.2748 -2.5014 0.9688
-5.8290 -4.7592 -2.5014 0.9688
-5.6327 -4.9901 -2.5014 0.9688
-5.4271 -5.2128 -2.5014 0.9688
-4.9901 -5.6326 -2.5014 0.9688
-4.7592 -5.8290 -2.5014 0.9688
-4.2748 -6.1931 -2.5014 0.9688
-4.0219 -6.3602 -2.5014 0.9688
-3.7626 -6.5170 -2.5014 0.9688
-3.4971 -6.6632 -2.5014 0.9688
-3.2260 -6.7986 -2.5014 0.9688
-2.9496 -6.9230 -2.5014 0.9688
-2.6685 -7.0361 -2.5014 0.9688
-2.3830 -7.1379 -2.5014 0.9688
-1.8009 -7.3065 -2.5014 0.9688
-1.5052 -7.3730 -2.5014 0.9688
-0.3030 -7.5190 -2.5014 0.9688
-0.0000 -7.5251 -2.5014 0.9688
0.3030 -7.5190 -2.5014 0.9688
0.9070 -7.4703 -2.5014 0.9688
2.0936 -7.2280 -2.5014 0.9688
2.3830 -7.1379 -2.5014 0.9688
2.6684 -7.0361 -2.5014 0.9688
3.2260 -6.7986 -2.5014 0.9688
3.7626 -6.5170 -2.5014 0.9688
4.0219 -6.3602 -2.5014 0.9688
4.7592 -5.8290 -2.5014 0.9688
4.9901 -5.6326 -2.5014 0.9688
5.8290 -4.7592 -2.5014 0.9688
6.0159 -4.5207 -2.5014 0.9688
6.1931 -4.2748 -2.5014 0.9688
6.5169 -3.7626 -2.5014 0.9688
6.6632 -3.4971 -2.5014 0.9688
6.9230 -2.9496 -2.5014 0.9688
7.1379 -2.3830 -2.5014 0.9688
7.3065 -1.8009 -2.5014 0.9688
7.3730 -1.5052 -2.5014 0.9688
7.4703 -0.9071 -2.5014 0.9688
7.5190 -0.3030 -2.5014 0.9688
7.5251 0.0000 -2.5014 0.9688
6.9230 2.9496 -2.5014 0.9688
6.7986 3.2260 -2.5014 0.9688
6.6632 3.4971 -2.5014 0.9688
6.5170 3.7626 -2.5014 0.9688
6.3415 4.0102 -2.4941 0.9689
5.6507 4.2462 -2.3495 0.9706
5.4768 4.4716 -2.3502 0.9706
5.2938 4.6899 -2.3509 0.9706
4.4778 5.4843 -2.3535 0.9706
4.2544 5.6616 -2.3541 0.9706
4.0234 5.8289 -2.3543 0.9706
3.7855 5.9862 -2.3543 0.9706
3.5413 6.1338 -2.3543 0.9706
3.2915 6.2714 -2.3543 0.9706
3.0363 6.3989 -2.3543 0.9706
2.5116 6.6224 -2.3543 0.9706
2.2429 6.7182 -2.3543 0.9706
1.6944 6.8746 -2.3535 0.9706
0.3229 3.9997 -1.3338 0.9832
0.2656 6.5891 -2.1920 0.9726
-0.5325 6.5964 -2.1998 0.9725
-1.2672 6.2073 -2.1059 0.9736
-1.6045 6.5097 -2.2286 0.9721
-1.8223 6.2915 -2.1773 0.9728
-2.2452 5.9202 -2.1047 0.9737
-2.6036 6.1109 -2.2080 0.9724
-2.9057 6.1236 -2.2531 0.9718
-3.1105 5.9266 -2.2249 0.9722
-3.3572 5.8149 -2.2319 0.9721
-3.6029 5.6976 -2.2408 0.9720
-4.2527 5.6593 -2.3531 0.9706
-4.4794 5.4863 -2.3543 0.9706
-4.9064 5.1081 -2.3543 0.9706
-5.1081 4.9064 -2.3543 0.9706
-5.3015 4.6967 -2.3543 0.9706
-5.4863 4.4794 -2.3543 0.9706
-5.6622 4.2549 -2.3543 0.9706
-5.8289 4.0234 -2.3543 0.9706
-6.1338 3.5413 -2.3543 0.9706
-6.2704 3.2910 -2.3539 0.9706
-4.9037 2.3268 -1.8042 0.9774
-6.5114 2.7743 -2.3527 0.9706
-6.7099 2.2401 -2.3514 0.9706
-6.7927 1.9675 -2.3507 0.9706
-6.8644 1.6919 -2.3501 0.9706
-6.9751 1.1336 -2.3490 0.9707
-6.9891 -0.2816 -2.5014 0.9707
-6.9438 -0.8431 -2.5014 0.9707
-6.7916 -1.6740 -2.5014 0.9707
-6.7186 -1.9461 -2.5014 0.9707
-6.6348 -2.2150 -2.5014 0.9707
-6.5403 -2.4804 -2.5014 0.9707
-6.1936 -3.2507 -2.5014 0.9707
-6.0577 -3.4974 -2.5014 0.9707
-5.7566 -3.9735 -2.5014 0.9707
-5.4182 -4.4238 -2.5014 0.9707
-5.2357 -4.6384 -2.5014 0.9707
-4.8455 -5.0447 -2.5014 0.9707
-4.4238 -5.4182 -2.5014 0.9707
-4.2021 -5.5920 -2.5014 0.9707
-3.9735 -5.7566 -2.5014 0.9707
-3.4974 -6.0577 -2.5014 0.9707
-3.2507 -6.1936 -2.5014 0.9707
-2.2150 -6.6348 -2.5014 0.9707
-1.9461 -6.7186 -2.5014 0.9707
-1.3991 -6.8534 -2.5014 0.9707
-1.1221 -6.9042 -2.5014 0.9707
-0.5629 -6.9721 -2.5014 0.9707
-0.0000 -6.9948 -2.5014 0.9707
0.2816 -6.9891 -2.5014 0.9707
0.5628 -6.9721 -2.5014 0.9707
0.8431 -6.9438 -2.5014 0.9707
1.1220 -6.9042 -2.5014 0.9707
1.3991 -6.8535 -2.5014 0.9707
1.6740 -6.7915 -2.5014 0.9707
1.9461 -6.7186 -2.5014 0.9707
2.4804 -6.5403 -2.5014 0.9707
2.7417 -6.4351 -2.5014 0.9707
2.9986 -6.3195 -2.5010 0.9707
3.2506 -6.1936 -2.5014 0.9707
3.4974 -6.0577 -2.5014 0.9707
3.7385 -5.9119 -2.5014 0.9707
3.9735 -5.7566 -2.5014 0.9707
4.8455 -5.0447 -2.5014 0.9707
6.0577 -3.4974 -2.5014 0.9707
6.3195 -2.9986 -2.5014 0.9707
6.5403 -2.4804 -2.5014 0.9707
6.7186 -1.9461 -2.5014 0.9707
6.7915 -1.6740 -2.5014 0.9707
6.9438 -0.8431 -2.5014 0.9707
6.9948 -0.0000 -2.5014 0.9707
6.9891 0.2817 -2.5014 0.9707
6.8535 1.3991 -2.5014 0.9707
6.5402 2.4804 -2.5014 0.9707
6.4351 2.7417 -2.5014 0.9707
6.3195 2.9986 -2.5014 0.9707
6.1936 3.2507 -2.5014 0.9707
6.0577 3.4974 -2.5014 0.9707
5.9119 3.7385 -2.5014 0.9707
5.5481 3.8296 -2.4108 0.9718
5.2513 3.9461 -2.3490 0.9725
5.0895 4.1555 -2.3497 0.9725
4.9194 4.3582 -2.3503 0.9725
4.1608 5.0961 -2.3527 0.9724
3.9532 5.2607 -2.3532 0.9724
3.7390 5.4169 -2.3538 0.9724
3.2918 5.7015 -2.3543 0.9724
2.5805 6.0567 -2.3543 0.9724
2.3346 6.1557 -2.3543 0.9724
2.0848 6.2447 -2.3543 0.9724
1.8317 6.3236 -2.3543 0.9724
1.5755 6.3923 -2.3543 0.9724
0.8142 3.9882 -1.4556 0.9829
0.6259 3.8516 -1.3954 0.9836
0.3228 3.9983 -1.4345 0.9831
0.2651 6.5782 -2.3543 0.9724
0.0000 6.4275 -2.2985 0.9731
-0.2651 6.5782 -2.3543 0.9724
-1.0333 6.3580 -2.3035 0.9730
-1.2760 6.2505 -2.2813 0.9733
-1.5755 6.3923 -2.3543 0.9724
-2.8223 5.9479 -2.3543 0.9724
-3.9550 5.2632 -2.3543 0.9724
-4.3657 4.9279 -2.3543 0.9724
-4.5606 4.7481 -2.3543 0.9724
-4.7481 4.5606 -2.3543 0.9724
-5.0997 4.1637 -2.3543 0.9724
-5.5640 3.5184 -2.3542 0.9724
-5.8264 3.0579 -2.3531 0.9724
-6.3123 1.8284 -2.3501 0.9725
-6.4359 1.3139 -2.3490 0.9725
-6.8084 1.1065 -2.4667 0.9711
-3.5921 -0.4362 -1.3867 0.9846
-6.3377 -1.5621 -2.5014 0.9724
-6.1914 -2.0670 -2.5014 0.9724
-5.8971 -2.7982 -2.5014 0.9724
-5.7797 -3.0334 -2.5014 0.9724
-5.3719 -3.7080 -2.5014 0.9724
-5.2182 -3.9212 -2.5014 0.9724
-5.0561 -4.1282 -2.5014 0.9724
-4.7075 -4.5217 -2.5014 0.9724
-4.1282 -5.0561 -2.5014 0.9724
-3.9212 -5.2182 -2.5014 0.9724
-3.7080 -5.3719 -2.5014 0.9724
-3.2637 -5.6528 -2.5014 0.9724
-2.7982 -5.8971 -2.5014 0.9724
-2.5585 -6.0050 -2.5014 0.9724
-2.0670 -6.1914 -2.5014 0.9724
-1.8160 -6.2696 -2.5014 0.9724
-1.3056 -6.3954 -2.5014 0.9724
-1.0471 -6.4428 -2.5014 0.9724
-0.7868 -6.4797 -2.5014 0.9724
-0.5252 -6.5062 -2.5014 0.9724
-0.2628 -6.5220 -2.5014 0.9724
-0.0000 -6.5273 -2.5014 0.9724
0.7868 -6.4797 -2.5014 0.9724
1.0471 -6.4428 -2.5014 0.9724
1.3056 -6.3954 -2.5014 0.9724
2.0670 -6.1914 -2.5014 0.9724
2.3146 -6.1032 -2.5014 0.9724
2.5585 -6.0050 -2.5014 0.9724
3.7079 -5.3719 -2.5014 0.9724
4.7075 -4.5217 -2.5014 0.9724
4.8858 -4.3284 -2.5014 0.9724
5.0561 -4.1282 -2.5014 0.9724
5.2182 -3.9212 -2.5014 0.9724
5.5168 -3.4887 -2.5014 0.9724
5.6528 -3.2637 -2.5014 0.9724
6.0050 -2.5585 -2.5014 0.9724
6.1914 -2.0670 -2.5014 0.9724
6.2696 -1.8160 -2.5014 0.9724
6.3377 -1.5621 -2.5014 0.9724
6.5220 -0.2628 -2.5014 0.9724
6.5273 0.0000 -2.5014 0.9724
6.5220 0.2628 -2.5014 0.9724
6.3954 1.3056 -2.5014 0.9724
6.3377 1.5621 -2.5014 0.9724
6.2696 1.8160 -2.5014 0.9724
6.1914 2.0670 -2.5014 0.9724
6.0050 2.5585 -2.5014 0.9724
5.8971 2.7982 -2.5014 0.9724
5.7797 3.0334 -2.5014 0.9724
5.3719 3.7079 -2.5014 0.9724
4.7484 3.8769 -2.3491 0.9741
4.2496 4.4243 -2.3509 0.9741
4.0689 4.5929 -2.3514 0.9741
3.6878 4.9076 -2.3525 0.9740
3.4880 5.0532 -2.3530 0.9740
3.2823 5.1906 -2.3535 0.9740
3.0713 5.3196 -2.3539 0.9740
2.8551 5.4399 -2.3543 0.9740
2.4081 5.6520 -2.3543 0.9740
1.7093 5.9010 -2.3543 0.9740
1.4703 5.9650 -2.3543 0.9740
0.8124 3.9795 -1.5565 0.9828
0.4661 3.8384 -1.4817 0.9836
0.0000 6.1436 -2.3543 0.9740
-0.2474 6.1386 -2.3543 0.9740
-0.7405 6.0988 -2.3543 0.9740
-0.9855 6.0640 -2.3543 0.9740
-1.2289 6.0194 -2.3543 0.9740
-1.4702 5.9651 -2.3543 0.9740
-1.9455 5.8274 -2.3543 0.9740
-2.6337 5.5504 -2.3543 0.9740
-2.8551 5.4399 -2.3543 0.9740
-3.0718 5.3205 -2.3543 0.9740
-3.2835 5.1925 -2.3543 0.9740
-3.4899 5.0561 -2.3543 0.9740
-3.6907 4.9114 -2.3543 0.9740
-4.0739 4.5985 -2.3543 0.9740
-4.2558 4.4308 -2.3543 0.9740
-4.9113 3.6906 -2.3543 0.9740
-5.1903 3.2822 -2.3533 0.9740
-5.4353 2.8527 -2.3523 0.9740
-4.8430 2.2980 -2.0543 0.9773
-5.7356 2.1752 -2.3507 0.9741
-5..971 1.9420 -2.3502 0.9741
-6.1367 1.2528 -2.4002 0.9735
-6.4428 1.0471 -2.5014 0.9724
-3.5921 0.4362 -1.3867 0.9846
-3.5589 0.1434 -1.3649 0.9849
-2.8160 0.0000 -1.1525 0.9879
-2.8096 -0.2268 -1.1536 0.9879
-3.0246 -0.4915 -1.2541 0.9868
-3.0070 -0.6139 -1.2561 0.9868
-5.8705 -1.7004 -2.5014 0.9739
-5.5217 -2.6201 -2.5014 0.9739
-5.4117 -2.8403 -2.5014 0.9739
-5.2930 -3.0559 -2.5014 0.9739
-4.8860 -3.6716 -2.5014 0.9739
-4.5747 -4.0529 -2.5014 0.9739
-4.4078 -4.2338 -2.5014 0.9739
-4.2338 -4.4078 -2.5014 0.9739
-3.8654 -4.7342 -2.5014 0.9739
-3.6716 -4.8860 -2.5014 0.9739
-3.2665 -5.1656 -2.5014 0.9739
-3.0559 -5.2930 -2.5014 0.9739
-2.8403 -5.4117 -2.5014 0.9739
-1.9354 -5.7972 -2.5014 0.9739
-1.7004 -5.8705 -2.5014 0.9739
-1.4626 -5.9342 -2.5014 0.9739
-0.9804 -6.0326 -2.5014 0.9739
-0.7367 -6.0672 -2.5014 0.9739
-0.4918 -6.0919 -2.5014 0.9739
-0.2461 -6.1068 -2.5014 0.9739
0.4918 -6.0920 -2.5014 0.9739
0.7367 -6.0672 -2.5014 0.9739
0.9804 -6.0326 -2.5014 0.9739
1.2225 -5.9883 -2.5014 0.9739
1.4626 -5.9342 -2.5014 0.9739
1.7004 -5.8705 -2.5014 0.9739
1.9354 -5.7972 -2.5014 0.9739
2.1673 -5.7146 -2.5014 0.9739
2.3956 -5.6227 -2.5014 0.9739
2.6201 -5.5217 -2.5014 0.9739
2.8403 -5.4117 -2.5014 0.9739
3.6716 -4.8860 -2.5014 0.9739
3.8654 -4.7342 -2.5014 0.9739
4.2338 -4.4078 -2.5014 0.9739
4.4078 -4.2338 -2.5014 0.9739
4.8860 -3.6716 -2.5014 0.9739
5.2929 -3.0559 -2.5014 0.9739
5.5217 -2.6201 -2.5014 0.9739
5.6227 -2.3956 -2.5014 0.9739
5.7146 -2.1673 -2.5014 0.9739
5.9342 -1.4626 -2.5014 0.9739
6.0672 -0.7367 -2.5014 0.9739
6.0919 -0.4918 -2.5014 0.9739
6.1068 -0.2461 -2.5014 0.9739
6.1068 0.2461 -2.5014 0.9739
6.0920 0.4918 -2.5014 0.9739
6.0672 0.7367 -2.5014 0.9739
6.0326 0.9804 -2.5014 0.9739
5.8705 1.7004 -2.5014 0.9739
5.6227 2.3956 -2.5014 0.9739
5.5217 2.6200 -2.5014 0.9739
5.4117 2.8403 -2.5014 0.9739
5.2930 3.0559 -2.5014 0.9739
