ply
format ascii 1.0
element vertex 1568
property float32 x
property float32 y
property float32 z
property float32 I
end_header
-32.3279 6.5998 3.5430 0.8757
-43.2144 -22.6806 4.1315 0.8221
-42.1206 -24.3183 4.1172 0.8226
-21.9422 -16.4884 2.3235 0.8957
-20.7574 -18.3895 2.3476 0.8946
-18.7079 -19.4769 2.2862 0.8973
-15.0709 -20.0557 2.1237 0.9042
-18.5166 -29.2816 2.9328 0.8702
-21.2606 -36.8243 3.5995 0.8431
-13.4751 -28.3982 2.6609 0.8815
-10.7991 -37.2826 3.2858 0.8557
-5.3545 -26.2278 2.2661 0.8981
-3.4438 -21.1902 1.8173 0.9174
-4.8946 -40.3105 3.4375 0.8496
-1.6036 -19.8644 1.6870 0.9231
-0.8027 -19.9187 1.6875 0.9231
0.8635 -21.4269 1.8153 0.9175
1.6077 -19.9154 1.6914 0.9229
2.1574 -17.7674 1.5151 0.9307
3.2395 -19.9332 1.7095 0.9221
4.6089 -18.6991 1.6303 0.9256
12.8918 -44.5076 3.9226 0.8303
12.4096 -32.7214 2.9625 0.8689
8.5674 -18.0556 1.6918 0.9229
10.7523 -17.0034 1.7030 0.9224
11.8508 -15.7706 1.6699 0.9239
17.3949 -21.3049 2.3283 0.8955
18.5424 -16.4272 2.0968 0.9053
25.5911 7.4126 2.2554 0.8986
18.2336 9.5697 1.7432 0.9207
10.6490 8.0022 1.1276 0.9479
9.1411 8.7801 1.0730 0.9504
11.5024 11.9753 1.4056 0.9355
11.4517 12.9263 1.4619 0.9330
8.3029 10.1692 1.1113 0.9487
8.0341 10.6914 1.1321 0.9477
6.1781 9.7699 0.9785 0.9547
3.4753 8.1568 0.7506 0.9650
3.1652 8.3460 0.7556 0.9648
2.8943 8.6695 0.7737 0.9640
2.6204 9.0466 0.7973 0.9629
2.3723 9.6247 0.8391 0.9610
1.9649 9.6248 0.8316 0.9613
1.5642 9.6247 0.8255 0.9616
1.1755 9.6811 0.8256 0.9616
0.7826 9.6951 0.8234 0.9617
0.3901 9.6811 0.8202 0.9619
-0.3862 9.5829 0.8119 0.9622
-0.7827 9.6951 0.8234 0.9617
-1.1755 9.6811 0.8256 0.9616
-2.3723 9.6247 0.8391 0.9610
-2.6368 9.1033 0.8023 0.9627
-3.4875 8.1853 0.7532 0.9649
-3.9265 8.2749 0.7754 0.9639
-4.3040 8.2006 0.7840 0.9635
-4.8548 8.4087 0.8219 0.9618
-2.3594 3.4181 0.3516 0.9835
-23.4111 24.3735 2.8609 0.8731
-25.5995 24.5887 3.0048 0.8672
-30.4682 26.9924 3.4458 0.8492
-32.3625 26.4232 3.5367 0.8456
-21.4765 14.8241 2.2091 0.9005
-22.2162 11.6599 2.1239 0.9042
-40.8221 4.9567 3.4811 0.8478
-40.9341 -23.6333 2.9310 0.8274
-21.5042 -17.5576 1.7215 0.8947
-20.5873 -23.2382 1.9252 0.8830
-17.8285 -28.1936 2.0685 0.8749
-17.7058 -30.6675 2.1959 0.8677
-12.0008 -28.1670 1.8986 0.8845
-16.3762 -43.1804 2.8637 0.8310
-6.4195 -26.0447 1.6634 0.8981
-3.4104 -20.9847 1.3183 0.9183
0.9661 -23.9727 1.4878 0.9083
2.9656 -24.4238 1.5257 0.9061
3.2387 -19.9284 1.2520 0.9223
9.4202 -38.2193 2.4409 0.8541
12.7247 -43.9306 2.8361 0.8325
8.9994 -17.1470 1.2008 0.9253
10.8065 -17.0891 1.2538 0.9222
12.6918 -16.8898 1.3101 0.9188
17.0019 -20.8235 1.6670 0.8979
17.4286 -19.6728 1.6298 0.9000
18.4112 2.9921 1.1567 0.9280
25.5911 7.4126 1.6521 0.8987
19.9095 8.4826 1.3420 0.9169
19.4131 9.2116 1.3325 0.9175
13.0857 8.2749 0.9601 0.9398
11.8536 8.9074 0.9194 0.9423
11.5480 9.4287 0.9245 0.9420
11.6197 11.1609 0.9991 0.9375
11.5146 12.9973 1.0768 0.9328
6.7500 10.6743 0.7832 0.9506
4.2813 8.1574 0.5713 0.9638
3.4753 8.1568 0.5498 0.9651
3.1652 8.3460 0.5535 0.9649
2.3723 9.6247 0.6147 0.9611
1.9649 9.6248 0.6091 0.9614
1.1755 9.6811 0.6047 0.9617
0.3901 9.6811 0.6008 0.9619
-0.7816 9.6811 0.6023 0.9618
-1.5642 9.6247 0.6047 0.9617
-2.3723 9.6247 0.6147 0.9611
-2.6368 9.1033 0.5877 0.9627
-3.1779 8.3793 0.5557 0.9647
-2.3594 3.4181 0.2576 0.9835
-30.4682 26.9924 2.5241 0.8495
-23.5995 17.7338 1.8305 0.8884
-23.7497 12.4648 1.6632 0.8981
-31.8439 13.5674 2.1464 0.8705
-35.7743 13.5674 2.3726 0.8578
-31.2705 9.0576 2.0188 0.8777
-31.3014 6.3902 1.9810 0.8798
-42.9670 -22.5508 1.9134 0.8235
-21.2543 -17.3536 1.0819 0.8960
-20.1678 -17.8671 1.0624 0.8978
-19.6622 -18.8858 1.0750 0.8966
-20.0539 -22.6361 1.1925 0.8860
-19.3081 -23.6481 1.2038 0.8850
-21.4789 -40.9245 1.8224 0.8311
-12.2636 -28.7836 1.2337 0.8823
-15.9433 -42.0388 1.7728 0.8353
-6.7615 -27.4324 1.1141 0.8931
-4.1905 -25.7849 1.0301 0.9007
-3.2601 -26.8496 1.0665 0.8974
-1.7195 -21.2992 0.8426 0.9180
0.9809 -24.3406 0.9606 0.9071
1.8950 -23.4734 0.9286 0.9100
6.6293 -26.8962 1.0923 0.8950
6.8614 -20.5524 0.8544 0.9169
7.5487 -19.9044 0.8394 0.9183
7.9007 -16.6504 0.7267 0.9289
9.8847 -15.6314 0.7293 0.9286
15.0111 -19.9761 0.9853 0.9048
16.3820 -20.0643 1.0214 0.9015
18.4549 -20.8313 1.0974 0.8946
18.5404 -16.4254 0.9766 0.9056
25.5911 7.4126 1.0506 0.8988
19.8581 8.4608 0.8511 0.9172
19.4131 9.2116 0.8473 0.9176
18.2797 9.5939 0.8140 0.9207
16.6001 9.5841 0.7558 0.9261
11.8536 8.9074 0.5847 0.9424
11.5480 9.4287 0.5878 0.9421
11.5146 10.2010 0.6066 0.9403
11.6197 11.1609 0.6353 0.9375
2.8943 8.6695 0.3604 0.9641
2.6204 9.0466 0.3714 0.9630
1.9649 9.6248 0.3873 0.9614
0.3901 9.6811 0.3820 0.9620
-0.0000 9.6247 0.3795 0.9622
-1.5642 9.6248 0.3845 0.9617
-1.9649 9.6247 0.3873 0.9614
-2.3723 9.6247 0.3909 0.9611
-2.9189 8.7431 0.3635 0.9638
-3.1779 8.3793 0.3534 0.9648
-4.3040 8.2006 0.3652 0.9636
-23.9910 24.9772 1.3656 0.8705
-24.2664 23.3082 1.3267 0.8740
-21.3831 17.4588 1.0885 0.8954
-30.0933 15.7942 1.3401 0.8728
-31.8400 13.5657 1.3647 0.8706
-46.2209 13.3880 1.8975 0.8248
-31.3542 6.4010 1.2618 0.8798
-33.1786 5.3921 1.3254 0.8741
-41.4722 -23.9440 0.8089 0.8257
-21.5286 -16.1777 0.4549 0.8979
-20.4907 -18.1532 0.4624 0.8963
-21.4155 -24.1732 0.5455 0.8788
-15.4217 -20.5225 0.4336 0.9024
-15.8456 -27.4455 0.5353 0.8809
-16.8964 -35.6084 0.6658 0.8541
-12.2512 -28.7547 0.5280 0.8825
-11.2459 -29.6531 0.5357 0.8808
-8.3797 -25.1001 0.4470 0.8995
-3.1912 -26.2815 0.4472 0.8995
-2.0628 -25.5520 0.4330 0.9025
-0.0000 -20.4943 0.3462 0.9213
1.8705 -23.1705 0.3927 0.9112
2.5783 -15.8649 0.2715 0.9377
5.0544 -24.7581 0.4268 0.9039
6.0122 -24.3922 0.4244 0.9044
8.3191 -17.5321 0.3278 0.9253
8.1467 -15.5222 0.2961 0.9323
8.8840 -15.3875 0.3001 0.9314
10.6766 -16.8837 0.3374 0.9232
11.3931 -15.1615 0.3204 0.9269
13.5988 -16.6555 0.3632 0.9176
16.7704 -18.9299 0.4272 0.9038
25.5911 7.4126 0.4500 0.8989
19.8581 8.4608 0.3646 0.9173
16.6001 9.5841 0.3238 0.9262
13.0857 8.2749 0.2615 0.9399
12.1787 8.4064 0.2500 0.9425
11.5480 9.4287 0.2518 0.9421
11.6197 11.1609 0.2722 0.9376
11.6197 12.0974 0.2833 0.9351
11.6197 15.4630 0.3267 0.9255
6.8040 9.8574 0.2023 0.9532
6.4247 10.1599 0.2031 0.9530
2.8943 8.6695 0.1544 0.9641
2.3723 9.6247 0.1674 0.9611
1.5642 9.6247 0.1647 0.9617
1.1755 9.6811 0.1647 0.9617
0.7815 9.6811 0.1641 0.9619
0.3901 9.6811 0.1637 0.9620
-0.7816 9.6811 0.1641 0.9619
-4.3040 8.2006 0.1564 0.9636
-4.8548 8.4087 0.1640 0.9619
-31.7495 33.0547 0.7742 0.8325
-31.6543 30.4044 0.7414 0.8390
-30.4764 26.9997 0.6878 0.8497
-32.3759 26.4341 0.7060 0.8460
-11.1530 7.6984 0.2289 0.9472
-30.1224 14.2932 0.5632 0.8751
-31.8696 13.5783 0.5852 0.8706
-35.8032 13.5784 0.6468 0.8580
-30.8266 7.5981 0.5363 0.8807
-40.4744 -19.2053 -0.2522 0.8359
-39.6400 -20.8046 -0.2521 0.8360
-35.4817 -24.4913 -0.2427 0.8416
-15.6032 -16.2446 -0.1268 0.9138
-18.7261 -21.1374 -0.1590 0.8932
-17.2784 -36.4135 -0.2269 0.8511
-7.5534 -22.6251 -0.1343 0.9090
-5.2574 -25.7522 -0.1480 0.9002
-2.1465 -26.5890 -0.1502 0.8988
0.9821 -24.3711 -0.1373 0.9070
1.8857 -23.3581 -0.1319 0.9105
2.5716 -15.8239 -0.0903 0.9379
8.1896 -40.1154 -0.2305 0.8489
14.6200 -43.7923 -0.2599 0.8314
8.1279 -19.0770 -0.1167 0.9204
8.6515 -16.4841 -0.1048 0.9282
9.7163 -16.8291 -0.1094 0.9252
10.3127 -16.3082 -0.1086 0.9257
10.7831 -14.3498 -0.1011 0.9307
17.6828 -21.6575 -0.1574 0.8942
18.5364 -16.4218 -0.1394 0.9057
20.7313 -15.5786 -0.1460 0.9015
25.5911 7.4126 -0.1500 0.8989
19.8581 8.4608 -0.1215 0.9173
19.4131 9.2116 -0.1210 0.9176
18.2816 9.5949 -0.1162 0.9207
16.6001 9.5841 -0.1079 0.9262
13.0857 8.2749 -0.0872 0.9399
12.1787 8.4064 -0.0833 0.9425
10.0494 9.6526 -0.0785 0.9458
7.8811 9.6526 -0.0702 0.9514
7.2534 9.6526 -0.0680 0.9529
6.6627 9.6526 -0.0660 0.9542
5.2417 9.0790 -0.0590 0.9589
3.4753 8.1568 -0.0499 0.9652
2.3723 9.6247 -0.0558 0.9611
1.9649 9.6248 -0.0553 0.9615
1.1755 9.6811 -0.0549 0.9617
0.3901 9.6811 -0.0546 0.9620
-0.0000 9.6247 -0.0542 0.9622
-0.3862 9.5829 -0.0540 0.9624
-2.3723 9.6247 -0.0558 0.9611
-2.6368 9.1033 -0.0534 0.9628
-3.1779 8.3793 -0.0505 0.9648
-4.3040 8.2006 -0.0521 0.9636
-31.6542 30.4043 -0.2471 0.8390
-10.2447 7.6983 -0.0721 0.9500
-11.1530 7.6984 -0.0763 0.9472
-31.4229 18.1420 -0.2043 0.8649
-30.0933 15.7942 -0.1914 0.8729
-30.1224 14.2932 -0.1877 0.8751
-31.8696 13.5783 -0.1950 0.8706
-29.7569 9.9344 -0.1766 0.8821
-29.7569 8.6192 -0.1744 0.8834
-37.5261 6.0986 -0.2141 0.8589
-47.5386 5.7722 -0.2696 0.8257
-44.6692 -16.9408 -1.3452 0.8260
-39.2332 -16.7157 -1.2008 0.8431
-35.2220 -16.7130 -1.0977 0.8556
-36.5920 -23.1395 -1.2191 0.8409
-22.6724 -17.0372 -0.7986 0.8927
-23.5063 -19.1923 -0.8545 0.8857
-18.9411 -18.1932 -0.7395 0.9002
-15.5467 -16.1859 -0.6319 0.9141
-18.5463 -22.7151 -0.8257 0.8893
-19.2053 -25.5576 -0.9002 0.8799
-16.5467 -23.9719 -0.8202 0.8900
-19.4866 -37.1286 -1.1807 0.8455
-16.9743 -35.7726 -1.1149 0.8535
-8.5294 -22.4902 -0.6773 0.9082
-7.4780 -22.3996 -0.6649 0.9098
-6.5316 -22.5496 -0.6610 0.9103
-4.3733 -26.9101 -0.7677 0.8966
-3.6168 -29.7871 -0.8449 0.8869
0.0000 -24.8559 -0.6999 0.9053
3.3597 -27.6691 -0.7848 0.8945
2.5650 -15.7830 -0.4502 0.9380
8.0605 -39.4829 -1.1347 0.8511
5.7206 -19.7499 -0.5790 0.9210
6.3889 -19.1371 -0.5681 0.9224
10.0101 -26.3944 -0.7949 0.8932
9.0576 -15.6882 -0.5101 0.9301
25.5976 -37.0844 -1.2688 0.8350
15.9982 -19.5942 -0.7123 0.9037
18.6897 -21.0962 -0.7936 0.8933
25.6530 -24.6400 -1.0016 0.8673
18.5343 -16.4200 -0.6972 0.9057
19.8581 8.4608 -0.6078 0.9172
15.1526 8.7483 -0.4927 0.9324
12.7785 8.0807 -0.4257 0.9413
11.6797 8.7767 -0.4114 0.9432
11.4587 9.3557 -0.4165 0.9425
9.2714 9.6526 -0.3769 0.9479
6.1039 9.6526 -0.3216 0.9553
3.9265 8.2749 -0.2579 0.9640
3.1652 8.3460 -0.2513 0.9649
2.3723 9.6247 -0.2791 0.9611
1.9649 9.6248 -0.2766 0.9615
1.5642 9.6247 -0.2746 0.9617
0.7815 9.6811 -0.2735 0.9619
0.3901 9.6811 -0.2728 0.9620
-0.0000 9.6247 -0.2710 0.9622
-1.1764 9.6881 -0.2748 0.9617
-1.5642 9.6247 -0.2746 0.9617
-1.9649 9.6247 -0.2766 0.9615
-2.3723 9.6247 -0.2791 0.9611
-3.1779 8.3793 -0.2523 0.9648
-4.3040 8.2006 -0.2608 0.9636
-2.3594 3.4181 -0.1169 0.9835
-29.6288 33.4440 -1.2581 0.8363
-30.4764 26.9997 -1.1465 0.8497
-32.3760 26.4341 -1.1769 0.8460
-11.1530 7.6984 -0.3816 0.9472
-29.8208 17.2170 -0.9696 0.8713
-30.1224 14.2932 -0.9388 0.8751
-31.8697 13.5784 -0.9754 0.8706
-29.7569 8.6192 -0.8723 0.8834
-48.9361 -5.9419 -2.5000 0.8208
-48.6571 -7.9076 -2.5000 0.8208
-48.2993 -9.8604 -2.5000 0.8208
-45.6581 -13.2250 -2.4107 0.8266
-43.9220 -14.6633 -2.3483 0.8307
-35.2220 -16.7130 -1.9772 0.8554
-31.6890 -16.6316 -1.8150 0.8665
-26.0971 -16.5028 -1.5659 0.8837
-23.8554 -16.4662 -1.4700 0.8904
-16.9622 -16.2924 -1.1928 0.9101
-15.5439 -16.1829 -1.1380 0.9140
-13.4066 -16.4201 -1.0750 0.9186
-20.5622 -29.7894 -1.8357 0.8650
-21.3168 -40.6158 -2.3263 0.8322
-11.8873 -25.0520 -1.4063 0.8949
-10.1269 -23.7687 -1.3103 0.9017
-8.4439 -22.2648 -1.2076 0.9090
-7.4476 -22.3085 -1.1927 0.9101
-6.4546 -22.2836 -1.1765 0.9113
-5.5725 -22.6086 -1.1809 0.9110
-7.3448 -45.1941 -2.3221 0.8324
-5.5186 -45.4495 -2.3219 0.8325
-3.6839 -45.6327 -2.3218 0.8325
0.0000 -36.0404 -1.8278 0.8656
9.1629 -44.8826 -2.3231 0.8324
9.2449 -27.6917 -1.4806 0.8897
10.0550 -26.5127 -1.4380 0.8926
12.5432 -26.4342 -1.4839 0.8894
21.3337 -40.6483 -2.3281 0.8321
23.0308 -39.8905 -2.3360 0.8315
11.6892 -15.5556 -0.9868 0.9250
17.4944 -15.4987 -1.1853 0.9106
18.9417 -15.4654 -1.2401 0.9067
20.6557 -15.5217 -1.3103 0.9017
44.0465 -20.9003 -2.4725 0.8226
44.0522 -18.7689 -2.4284 0.8255
44.1705 -16.7516 -2.3958 0.8276
45.0152 -15.0283 -2.4068 0.8269
48.6571 -7.9076 -2.5000 0.8208
49.2555 -1.9849 -2.5000 0.8208
49.2955 0.0000 -2.5000 0.8208
45.9529 5.5797 -2.3476 0.8308
45.3552 9.2593 -2.3476 0.8308
44.9852 11.0879 -2.3497 0.8306
43.9113 14.6598 -2.3478 0.8308
15.1910 8.7705 -0.8896 0.9322
13.0857 8.2749 -0.7852 0.9399
12.1787 8.4064 -0.7505 0.9425
11.8536 8.9074 -0.7520 0.9423
9.5964 9.2175 -0.6748 0.9481
9.2714 9.6526 -0.6788 0.9478
7.8811 9.6526 -0.6320 0.9513
6.6627 9.6526 -0.5948 0.9541
6.1039 9.6526 -0.5792 0.9553
3.8428 8.0986 -0.4546 0.9647
3.1652 8.3460 -0.4527 0.9649
2.5638 8.8515 -0.4673 0.9638
1.9647 9.6237 -0.4981 0.9614
1.4725 9.0608 -0.4655 0.9639
0.7815 9.6811 -0.4926 0.9618
0.3901 9.6811 -0.4914 0.9619
-0.0000 8.6897 -0.4407 0.9658
-0.3862 9.5829 -0.4864 0.9623
-0.7816 9.6811 -0.4926 0.9618
-1.7740 8.6895 -0.4498 0.9651
-2.3723 9.6245 -0.5027 0.9611
-3.1779 8.3793 -0.4545 0.9647
-29.5480 33.3527 -2.2598 0.8366
-29.7217 30.9436 -2.1759 0.8421
-31.3475 30.1097 -2.2043 0.8402
-32.3760 26.4341 -2.1197 0.8459
-29.9035 22.4710 -1.8970 0.8609
-11.1530 7.6984 -0.6873 0.9472
-29.8874 17.2555 -1.7502 0.8709
-31.8697 13.5784 -1.7568 0.8704
-29.7569 11.2853 -1.6140 0.8803
-29.7569 8.6192 -1.5711 0.8833
-37.5261 6.0986 -1.9281 0.8588
-46.1520 3.7258 -2.3482 0.8307
-49.2555 1.9849 -2.5000 0.8208
-34.0960 -0.0000 -2.5000 0.8722
-34.0682 -1.3729 -2.5000 0.8722
-33.8473 -4.1098 -2.5000 0.8722
-33.1051 -8.1597 -2.5000 0.8722
-32.3412 -10.7971 -2.5000 0.8722
-28.9285 -13.7267 -2.3478 0.8795
-28.3549 -14.8818 -2.3480 0.8795
-27.7391 -16.0152 -2.3485 0.8794
-27.0824 -17.1259 -2.3495 0.8794
-26.3740 -18.2047 -2.3497 0.8794
-20.0415 -16.3633 -1.8971 0.9014
-15.5732 -16.2134 -1.6484 0.9138
-21.1984 -23.9280 -2.3439 0.8797
-11.1535 -16.1586 -1.4396 0.9243
-10.2043 -16.1368 -1.3999 0.9263
-6.8422 -16.0593 -1.2799 0.9324
-5.3499 -16.0249 -1.2387 0.9345
-4.6369 -16.0085 -1.2220 0.9353
-3.2617 -15.9768 -1.1956 0.9367
-1.9362 -15.9463 -1.1778 0.9376
-0.0000 -15.9017 -1.1659 0.9382
2.5670 -15.7955 -1.1734 0.9378
3.8973 -15.8119 -1.1941 0.9368
5.2682 -15.7804 -1.2198 0.9355
6.7092 -15.7472 -1.2550 0.9337
7.4639 -15.7298 -1.2766 0.9326
9.0833 -15.7328 -1.3320 0.9297
9.9377 -15.7152 -1.3633 0.9281
19.2052 -25.5575 -2.3440 0.8797
14.8704 -15.4818 -1.5740 0.9175
20.5320 -15.4288 -1.8831 0.9021
26.3936 -18.2182 -2.3515 0.8793
30.1904 -15.8452 -2.5000 0.8722
31.8803 -12.0906 -2.5000 0.8722
32.3413 -10.7971 -2.5000 0.8722
32.7498 -9.4861 -2.5000 0.8722
33.1052 -8.1597 -2.5000 0.8722
33.4069 -6.8201 -2.5000 0.8722
33.6544 -5.4694 -2.5000 0.8722
33.8474 -4.1098 -2.5000 0.8722
34.0683 1.3729 -2.5000 0.8722
33.8473 4.1098 -2.5000 0.8722
33.4070 6.8201 -2.5000 0.8722
25.5911 7.4126 -1.9535 0.8987
32.3414 10.7971 -2.5000 0.8722
18.4337 7.8538 -1.4692 0.9228
16.7084 7.9282 -1.3560 0.9285
15.1908 8.7704 -1.2861 0.9321
12.9068 8.1618 -1.1197 0.9406
12.1787 8.4064 -1.0850 0.9424
11.7610 8.8378 -1.0787 0.9427
10.3517 8.4519 -0.9799 0.9478
8.5514 9.6526 -0.9455 0.9496
6.9665 8.5325 -0.8077 0.9568
6.4599 8.5966 -0.7885 0.9578
5.6288 8.9012 -0.7722 0.9586
5.2417 9.0789 -0.7687 0.9588
4.2813 8.1574 -0.6755 0.9637
2.8943 8.6695 -0.6702 0.9640
2.6204 9.0466 -0.6906 0.9629
1.4724 9.0602 -0.6730 0.9639
-0.3862 9.5829 -0.7032 0.9623
-0.7816 9.6811 -0.7122 0.9618
-1.1755 9.6811 -0.7151 0.9616
-2.3723 9.6245 -0.7268 0.9610
-2.6368 9.1032 -0.6949 0.9627
-3.1779 8.3793 -0.6571 0.9647
-3.9265 8.2749 -0.6716 0.9639
-4.3040 8.2006 -0.6791 0.9635
-4.8548 8.4087 -0.7119 0.9618
-17.9418 28.3727 -2.4614 0.8740
-2.3594 3.4181 -0.3045 0.9835
-21.2309 26.0032 -2.4614 0.8740
-23.2545 24.2105 -2.4614 0.8740
-23.8605 22.9183 -2.4258 0.8757
-23.8068 21.0909 -2.3320 0.8802
-24.4060 19.9268 -2.3102 0.8813
-25.2121 18.9457 -2.3124 0.8812
-25.9785 17.9317 -2.3145 0.8811
-28.2116 14.8066 -2.3361 0.8800
-28.8061 13.6686 -2.3378 0.8800
-29.7569 11.2853 -2.3335 0.8802
-29.7569 9.9344 -2.3002 0.8818
-29.7569 8.6192 -2.2715 0.8832
-29.7569 7.3345 -2.2471 0.8843
-31.6115 5.1374 -2.3482 0.8795
-33.3153 2.6895 -2.4507 0.8745
-34.0683 1.3729 -2.5000 0.8722
-26.0315 0.0000 -2.4992 0.9007
-25.9557 -2.0954 -2.5000 0.9006
-25.8503 -3.1388 -2.5000 0.9006
-25.7030 -4.1771 -2.5000 0.9006
-25.2835 -6.2318 -2.5000 0.9006
-25.0120 -7.2448 -2.5000 0.9006
-24.3480 -9.2340 -2.5000 0.9006
-23.9564 -10.2068 -2.5000 0.9006
-23.5260 -11.1632 -2.5000 0.9006
-18.9421 -15.4658 -2.3477 0.9064
-18.3105 -16.2216 -2.3485 0.9064
-15.5313 -16.1697 -2.1525 0.9138
-12.1598 -16.1818 -1.9433 0.9219
-10.2043 -16.1368 -1.8330 0.9261
-9.3538 -16.2012 -1.7960 0.9276
-11.3599 -21.6445 -2.3468 0.9064
-7.6288 -16.0774 -1.7085 0.9310
-6.8422 -16.0593 -1.6759 0.9323
-6.0839 -16.0418 -1.6471 0.9334
-6.4453 -22.2517 -2.2241 0.9111
-5.5224 -22.4052 -2.2154 0.9114
-3.2617 -15.9768 -1.5655 0.9366
-1.9362 -15.9463 -1.5422 0.9375
-1.2861 -15.9313 -1.5345 0.9378
-0.0000 -15.9017 -1.5266 0.9381
0.6402 -15.8870 -1.5265 0.9381
1.2813 -15.8722 -1.5288 0.9380
1.9254 -15.8574 -1.5336 0.9378
3.2312 -15.8273 -1.5508 0.9371
5.9785 -15.7640 -1.6186 0.9345
6.7092 -15.7472 -1.6433 0.9335
11.3649 -21.6540 -2.3478 0.9064
9.9406 -15.7198 -1.7856 0.9280
11.7460 -15.6311 -1.8771 0.9244
12.7436 -15.6082 -1.9345 0.9222
16.2425 -18.3340 -2.3516 0.9063
14.8589 -15.4697 -2.0593 0.9174
18.3033 -16.2152 -2.3476 0.9064
19.5486 -14.6898 -2.3476 0.9064
20.1242 -13.8907 -2.3476 0.9064
22.5515 -13.0201 -2.5000 0.9006
23.0574 -12.1014 -2.5000 0.9006
24.7000 -8.2461 -2.5000 0.9006
25.0120 -7.2448 -2.5000 0.9006
25.2835 -6.2318 -2.5000 0.9006
25.5139 -5.2087 -2.5000 0.9006
25.7029 -4.1771 -2.5000 0.9006
25.9557 -2.0954 -2.5000 0.9006
26.0190 -1.0485 -2.5000 0.9006
26.0401 0.0000 -2.5000 0.9006
26.0190 1.0486 -2.5000 0.9006
25.9557 2.0954 -2.5000 0.9006
24.2744 2.9475 -2.3476 0.9064
23.7422 5.8519 -2.3476 0.9064
23.4873 6.8032 -2.3476 0.9064
23.2071 7.7477 -2.3489 0.9064
22.9000 8.6848 -2.3513 0.9063
16.7068 7.1181 -1.7435 0.9296
15.1920 7.9734 -1.6472 0.9334
15.1908 8.7704 -1.6840 0.9319
11.8536 8.9074 -1.4235 0.9422
9.5397 8.4515 -1.2236 0.9501
7.2759 8.2128 -1.0534 0.9569
6.7055 8.2128 -1.0179 0.9583
6.1720 8.2135 -0.9864 0.9596
5.6905 8.2442 -0.9617 0.9605
5.0223 8.6989 -0.9643 0.9604
4.2813 8.1574 -0.8845 0.9637
2.8423 8.5138 -0.8617 0.9646
2.5638 8.8515 -0.8847 0.9636
2.3723 9.6247 -0.9517 0.9609
1.6742 8.2007 -0.8036 0.9669
1.4722 9.0588 -0.8811 0.9638
0.3901 9.6811 -0.9302 0.9618
-0.3862 9.5828 -0.9207 0.9622
-1.1755 9.6811 -0.9363 0.9616
-2.3723 9.6245 -0.9517 0.9610
-2.5921 8.9491 -0.8945 0.9633
-2.8619 8.5722 -0.8676 0.9643
-3.4875 8.1853 -0.8542 0.9649
-3.8483 8.1101 -0.8618 0.9646
-4.2743 8.1439 -0.8830 0.9637
-13.7028 21.6692 -2.4614 0.9021
-16.2148 19.8595 -2.4614 0.9021
-17.0013 19.1905 -2.4614 0.9021
-17.7602 18.4903 -2.4614 0.9021
-19.1904 17.0013 -2.4614 0.9021
-19.8595 16.2147 -2.4614 0.9021
-20.4963 15.4019 -2.4614 0.9021
-21.0998 14.5641 -2.4614 0.9021
-21.6692 13.7028 -2.4614 0.9021
-22.2034 12.8191 -2.4614 0.9021
-22.7015 11.9147 -2.4614 0.9021
-23.5294 5.7995 -2.3265 0.9072
-24.7122 4.0161 -2.4036 0.9043
-25.8503 3.1388 -2.5000 0.9006
-21.0462 0.0000 -2.5000 0.9187
-21.0291 -0.8475 -2.5000 0.9187
-20.8927 -2.5368 -2.5000 0.9187
-20.7736 -3.3760 -2.5000 0.9187
-20.4346 -5.0367 -2.5000 0.9187
-19.3620 -8.2494 -2.5000 0.9187
-19.0142 -9.0223 -2.5000 0.9187
-18.6354 -9.7806 -2.5000 0.9187
-16.8252 -12.6433 -2.5000 0.9187
-16.1678 -13.2005 -2.4793 0.9194
-14.9230 -13.2206 -2.3682 0.9228
-13.6904 -14.2532 -2.3476 0.9235
-13.1054 -14.7929 -2.3476 0.9235
-11.8748 -15.8025 -2.3480 0.9235
-11.2303 -16.2699 -2.3483 0.9235
-9.8865 -17.1243 -2.3488 0.9234
-9.1987 -17.5267 -2.3512 0.9234
-7.6288 -16.0774 -2.1139 0.9308
-4.6369 -16.0085 -1.9797 0.9351
-3.9418 -15.9925 -1.9565 0.9358
-1.2861 -15.9313 -1.8986 0.9376
-0.6414 -15.9165 -1.8922 0.9378
1.2813 -15.8722 -1.8915 0.9379
2.5670 -15.7955 -1.9009 0.9376
3.8973 -15.8119 -1.9344 0.9365
4.5755 -15.7963 -1.9535 0.9359
5.2682 -15.7804 -1.9762 0.9352
7.7587 -18.2104 -2.3513 0.9234
9.8838 -17.1193 -2.3481 0.9235
10.5643 -16.7061 -2.3479 0.9235
11.2269 -16.2650 -2.3476 0.9235
11.8726 -15.7996 -2.3476 0.9235
12.4991 -15.3086 -2.3476 0.9235
13.1054 -14.7929 -2.3476 0.9235
13.6904 -14.2532 -2.3476 0.9235
16.8252 -12.6433 -2.5000 0.9187
17.3206 -11.9556 -2.5000 0.9187
17.7880 -11.2484 -2.5000 0.9187
18.6354 -9.7806 -2.5000 0.9187
19.0143 -9.0223 -2.5000 0.9187
19.3620 -8.2494 -2.5000 0.9187
19.9630 -6.6646 -2.5000 0.9187
20.7736 -3.3760 -2.5000 0.9187
21.0291 0.8474 -2.5000 0.9187
19.1888 4.7296 -2.3476 0.9235
18.9829 5.4984 -2.3476 0.9235
18.7461 6.2583 -2.3476 0.9235
18.4586 7.0004 -2.3450 0.9236
15.1931 7.2092 -1.9976 0.9345
13.0857 8.2749 -1.8391 0.9395
11.8536 8.9074 -1.7613 0.9420
10.3450 8.4465 -1.5864 0.9476
9.5331 9.1567 -1.5702 0.9481
7.2759 8.2128 -1.3033 0.9568
6.7055 8.2128 -1.2594 0.9582
6.1715 8.2128 -1.2203 0.9595
3.4962 8.2059 -1.0595 0.9647
3.1652 8.3460 -1.0603 0.9647
2.8606 8.5687 -1.0731 0.9643
2.5849 8.9242 -1.1036 0.9633
1.6369 8.0179 -0.9721 0.9676
1.4724 9.0600 -1.0903 0.9637
0.7730 9.5751 -1.1411 0.9620
0.3866 9.5926 -1.1404 0.9621
-0.0000 8.0368 -0.9547 0.9681
-0.3862 9.5828 -1.1392 0.9621
-1.1585 9.5409 -1.1417 0.9620
-1.5427 9.4924 -1.1424 0.9620
-2.3723 9.6245 -1.1775 0.9609
-2.8802 8.6272 -1.0804 0.9640
-3.1779 8.3793 -1.0645 0.9645
-3.5012 8.2175 -1.0610 0.9647
-3.8714 8.1588 -1.0727 0.9643
-4.8548 8.4087 -1.1534 0.9616
-10.4025 16.4501 -2.3120 0.9246
-2.3594 3.4181 -0.4934 0.9834
-12.4481 16.5655 -2.4614 0.9199
-14.3541 14.9442 -2.4614 0.9199
-14.9442 14.3541 -2.4614 0.9199
-15.5101 13.7407 -2.4614 0.9199
-16.0508 13.1050 -2.4614 0.9199
-17.0533 11.7710 -2.4614 0.9199
-17.5134 11.0748 -2.4614 0.9199
-17.9452 10.3606 -2.4614 0.9199
-19.0632 8.1220 -2.4614 0.9199
-19.3795 7.3496 -2.4620 0.9199
-19.9965 5.7920 -2.4729 0.9196
-20.2507 4.9913 -2.4775 0.9194
-20.9696 1.6928 -2.4990 0.9187
-17.6442 0.0000 -2.5000 0.9312
-17.5155 -2.1268 -2.5000 0.9312
-17.4157 -2.8303 -2.5000 0.9312
-17.2876 -3.5293 -2.5000 0.9312
-17.1314 -4.2225 -2.5000 0.9312
-16.7361 -5.5873 -2.5000 0.9312
-16.4976 -6.2567 -2.5000 0.9312
-15.9406 -7.5639 -2.5000 0.9312
-15.2803 -8.8221 -2.5000 0.9312
-14.1055 -10.5996 -2.5000 0.9312
-13.2068 -11.7002 -2.5000 0.9312
-12.7250 -12.2225 -2.5000 0.9312
-11.6901 -13.1953 -2.4978 0.9313
-9.9534 -13.2456 -2.3476 0.9353
-9.4120 -13.6356 -2.3476 0.9353
-8.2843 -14.3488 -2.3476 0.9353
-7.6998 -14.6707 -2.3476 0.9353
-7.1028 -14.9688 -2.3476 0.9353
-5.8754 -15.4921 -2.3476 0.9353
-4.6103 -15.9164 -2.3479 0.9352
-2.6584 -16.3577 -2.3481 0.9352
-0.6674 -16.5594 -2.3482 0.9352
-0.0000 -16.5727 -2.3482 0.9352
0.6673 -16.5591 -2.3482 0.9352
1.3335 -16.5184 -2.3481 0.9352
2.5601 -15.7530 -2.2613 0.9376
3.3145 -16.2355 -2.3478 0.9352
3.9653 -16.0880 -2.3477 0.9353
4.6097 -15.9144 -2.3476 0.9353
5.8751 -15.4919 -2.3476 0.9353
6.4943 -15.2427 -2.3476 0.9353
7.6998 -14.6707 -2.3476 0.9353
8.8553 -14.0036 -2.3476 0.9353
9.4120 -13.6356 -2.3476 0.9353
9.9534 -13.2456 -2.3476 0.9353
10.7788 -13.2017 -2.4148 0.9335
12.7249 -12.2225 -2.5000 0.9312
13.6672 -11.1589 -2.5000 0.9312
14.1054 -10.5996 -2.5000 0.9312
15.2802 -8.8221 -2.5000 0.9312
15.6231 -8.1996 -2.5000 0.9312
15.9406 -7.5639 -2.5000 0.9312
16.2322 -6.9159 -2.5000 0.9312
16.4975 -6.2567 -2.5000 0.9312
16.9475 -4.9089 -2.5000 0.9312
17.2875 -3.5293 -2.5000 0.9312
17.6298 -0.7105 -2.5000 0.9312
17.5155 2.1268 -2.5000 0.9312
16.0871 3.9651 -2.3476 0.9353
15.7158 5.2467 -2.3476 0.9353
14.6147 7.6704 -2.3386 0.9355
12.8439 8.1220 -2.1532 0.9405
12.1787 8.4064 -2.0968 0.9420
11.8536 8.9074 -2.1009 0.9419
10.3450 8.4465 -1.8923 0.9475
8.9164 7.8993 -1.6878 0.9530
6.7055 8.2128 -1.5023 0.9581
5.6689 8.2128 -1.4140 0.9605
5.2417 9.0789 -1.4854 0.9585
4.2813 8.1574 -1.3053 0.9635
2.8943 8.6695 -1.2950 0.9637
2.3723 9.6247 -1.4045 0.9607
1.4320 8.8113 -1.2649 0.9646
1.0755 8.8579 -1.2643 0.9646
0.7177 8.8902 -1.2637 0.9646
-0.0000 7.8636 -1.1142 0.9687
-0.7176 8.8893 -1.2636 0.9646
-1.0755 8.8571 -1.2642 0.9646
-1.6011 7.8425 -1.1341 0.9682
-2.9189 8.7431 -1.3060 0.9634
-3.9265 8.2749 -1.2978 0.9637
-4.3040 8.2006 -1.3123 0.9633
-4.8548 8.4087 -1.3757 0.9615
-8.7299 13.8052 -2.3143 0.9361
-2.3594 3.4181 -0.5885 0.9834
-10.3189 12.6383 -2.3118 0.9362
-10.8131 12.2054 -2.3104 0.9362
-11.2893 11.7534 -2.3091 0.9363
-14.2967 9.8683 -2.4614 0.9322
-15.0444 8.6859 -2.4614 0.9322
-15.3819 8.0731 -2.4614 0.9322
-16.0078 6.8203 -2.4654 0.9321
-17.2776 3.5272 -2.4985 0.9312
-17.5859 1.4197 -2.4998 0.9312
-17.6298 0.7105 -2.5000 0.9312
-15.1262 -1.2211 -2.5000 0.9403
-15.0648 -1.8292 -2.5000 0.9403
-14.9789 -2.4343 -2.5000 0.9403
-14.3944 -4.8056 -2.5000 0.9403
-14.1893 -5.3813 -2.5000 0.9403
-13.9611 -5.9483 -2.5000 0.9403
-13.7102 -6.5056 -2.5000 0.9403
-13.4372 -7.0524 -2.5000 0.9403
-12.8261 -8.1107 -2.5000 0.9403
-12.1319 -9.1165 -2.5000 0.9403
-11.7550 -9.5976 -2.5000 0.9403
-10.5124 -10.9445 -2.5000 0.9403
-9.1165 -12.1319 -2.5000 0.9403
-8.6206 -12.4891 -2.5000 0.9403
-8.1108 -12.8261 -2.5000 0.9403
-7.5877 -13.1423 -2.5000 0.9403
-6.2681 -13.2097 -2.4087 0.9424
-5.6313 -13.2172 -2.3668 0.9434
-3.9647 -13.6877 -2.3476 0.9439
-3.4104 -13.8362 -2.3476 0.9439
-2.8504 -13.9623 -2.3476 0.9439
-1.7177 -14.1464 -2.3476 0.9439
-0.0000 -14.2503 -2.3476 0.9439
0.5738 -14.2387 -2.3476 0.9439
1.1467 -14.2041 -2.3476 0.9439
2.2859 -14.0658 -2.3476 0.9439
3.4103 -13.8362 -2.3476 0.9439
4.5126 -13.5169 -2.3476 0.9439
5.6295 -13.2128 -2.3660 0.9434
6.2657 -13.2048 -2.4078 0.9425
6.9257 -13.1958 -2.4551 0.9414
9.1165 -12.1319 -2.5000 0.9403
9.5976 -11.7550 -2.5000 0.9403
11.3591 -10.0631 -2.5000 0.9403
11.7549 -9.5976 -2.5000 0.9403
12.1319 -9.1165 -2.5000 0.9403
12.4891 -8.6206 -2.5000 0.9403
13.9611 -5.9482 -2.5000 0.9403
14.5762 -4.2221 -2.5000 0.9403
14.8687 -3.0355 -2.5000 0.9403
14.9789 -2.4343 -2.5000 0.9403
15.1262 -1.2211 -2.5000 0.9403
15.1631 -0.6111 -2.5000 0.9403
15.1754 0.0000 -2.5000 0.9403
15.1262 1.2211 -2.5000 0.9403
14.9789 2.4343 -2.5000 0.9403
13.8362 3.4103 -2.3476 0.9439
13.6877 3.9647 -2.3476 0.9439
13.5169 4.5126 -2.3476 0.9439
12.6180 6.6225 -2.3476 0.9439
11.9811 7.5764 -2.3353 0.9442
11.6716 8.0564 -2.3364 0.9441
9.1027 8.7432 -2.0793 0.9501
7.2759 8.2128 -1.8076 0.9565
6.7055 8.2128 -1.7467 0.9579
6.1715 8.2128 -1.6924 0.9592
5.6135 8.8771 -1.7303 0.9583
5.2417 9.0789 -1.7270 0.9584
4.2813 8.1574 -1.5177 0.9633
3.9265 8.2749 -1.5089 0.9636
3.4753 8.1568 -1.4606 0.9647
3.1652 8.3460 -1.4705 0.9645
2.6055 8.9954 -1.5428 0.9627
2.3723 9.6247 -1.6330 0.9606
1.5664 7.6730 -1.2901 0.9688
1.3943 8.5794 -1.4319 0.9654
1.0419 8.5808 -1.4240 0.9656
0.6928 8.5823 -1.4184 0.9657
-0.0000 7.6967 -1.2679 0.9693
-0.3459 8.5840 -1.4153 0.9658
-0.6929 8.5826 -1.4185 0.9657
-1.0420 8.5812 -1.4240 0.9656
-1.3944 8.5797 -1.4320 0.9654
-1.5665 7.6733 -1.2902 0.9688
-2.3723 9.6245 -1.6330 0.9606
-2.6275 9.0710 -1.5558 0.9624
-3.1779 8.3793 -1.4763 0.9643
-3.4875 8.1853 -1.4657 0.9646
-4.8548 8.4087 -1.5995 0.9614
-2.3594 3.4181 -0.6842 0.9833
-8.8849 10.8820 -2.3143 0.9446
-9.3155 10.5150 -2.3142 0.9446
-9.7266 10.1264 -2.3131 0.9447
-10.1216 9.7219 -2.3120 0.9447
-10.5001 9.3023 -2.3110 0.9447
-10.8614 8.8681 -2.3100 0.9447
-12.9394 7.4706 -2.4614 0.9412
-13.2353 6.9464 -2.4624 0.9412
-13.8352 5.8946 -2.4774 0.9409
-14.5423 4.2122 -2.4942 0.9405
-14.7288 3.6303 -2.4990 0.9404
-15.1631 0.6111 -2.5000 0.9403
-13.2574 -1.0703 -2.5000 0.9473
-12.9141 -3.1831 -2.5000 0.9473
-12.7754 -3.7004 -2.5000 0.9473
-12.4363 -4.7164 -2.5000 0.9473
-12.2363 -5.2134 -2.5000 0.9473
-11.7771 -6.1811 -2.5000 0.9473
-11.2415 -7.1087 -2.5000 0.9473
-10.9462 -7.5556 -2.5000 0.9473
-10.6331 -7.9902 -2.5000 0.9473
-9.9556 -8.8199 -2.5000 0.9473
-8.4119 -10.3027 -2.5000 0.9473
-7.9902 -10.6330 -2.5000 0.9473
-6.6503 -11.5186 -2.5000 0.9473
-4.2119 -12.6161 -2.5000 0.9473
-3.7005 -12.7754 -2.5000 0.9473
-3.1831 -12.9141 -2.5000 0.9473
-1.6017 -13.1913 -2.4977 0.9474
-0.5317 -13.1938 -2.4819 0.9477
-0.0000 -13.1940 -2.4799 0.9477
0.5317 -13.1934 -2.4819 0.9477
1.6015 -13.1901 -2.4974 0.9474
2.6604 -13.0318 -2.5000 0.9473
3.7004 -12.7754 -2.5000 0.9473
4.2118 -12.6161 -2.5000 0.9473
5.2144 -12.2362 -2.5000 0.9473
5.7018 -12.0164 -2.5000 0.9473
6.6503 -11.5186 -2.5000 0.9473
7.5556 -10.9462 -2.5000 0.9473
7.9902 -10.6330 -2.5000 0.9473
8.8199 -9.9556 -2.5000 0.9473
9.2135 -9.5924 -2.5000 0.9473
9.5925 -9.2136 -2.5000 0.9473
9.9556 -8.8199 -2.5000 0.9473
10.6330 -7.9902 -2.5000 0.9473
11.2415 -7.1087 -2.5000 0.9473
11.5186 -6.6503 -2.5000 0.9473
12.2362 -5.2134 -2.5000 0.9473
12.4362 -4.7164 -2.5000 0.9473
12.6161 -4.2119 -2.5000 0.9473
12.7754 -3.7005 -2.5000 0.9473
12.9141 -3.1830 -2.5000 0.9473
13.0317 -2.6605 -2.5000 0.9473
13.2036 -1.6032 -2.5000 0.9473
13.2574 -1.0703 -2.5000 0.9473
13.2898 -0.5356 -2.5000 0.9473
13.2898 0.5356 -2.5000 0.9473
13.2036 1.6032 -2.5000 0.9473
13.1283 2.1336 -2.5000 0.9473
12.1268 2.9890 -2.3476 0.9504
11.8470 3.9551 -2.3476 0.9504
11.6781 4.4289 -2.3476 0.9504
11.4903 4.8956 -2.3476 0.9504
11.2839 5.3542 -2.3476 0.9504
10.8164 6.2449 -2.3476 0.9504
10.5562 6.6753 -2.3476 0.9504
10.2481 7.0738 -2.3406 0.9506
9.6159 7.8512 -2.3333 0.9507
8.9478 7.9270 -2.2469 0.9525
8.9587 8.6049 -2.3348 0.9507
7.8592 9.6258 -2.3357 0.9507
6.1715 8.2128 -1.9310 0.9590
5.6689 8.2128 -1.8757 0.9602
5.6161 8.8812 -1.9751 0.9581
2.8943 8.6695 -1.7179 0.9635
2.3723 9.6247 -1.8632 0.9605
1.5331 7.5098 -1.4407 0.9693
1.3644 8.3956 -1.5987 0.9660
1.0196 8.3970 -1.5899 0.9662
-0.0000 7.5355 -1.4164 0.9698
-0.3385 8.4001 -1.5802 0.9664
-0.6780 8.3987 -1.5838 0.9663
-1.0196 8.3973 -1.5900 0.9662
-1.3645 8.3959 -1.5988 0.9660
-2.3723 9.6245 -1.8632 0.9605
-2.6368 9.1032 -1.7814 0.9622
-3.9265 8.2749 -1.7216 0.9634
-4.3040 8.2006 -1.7408 0.9630
-4.8548 8.4087 -1.8250 0.9613
-6.5835 10.4110 -2.3153 0.9511
-2.3594 3.4181 -0.7807 0.9832
-7.7872 9.5376 -2.3143 0.9511
-8.1649 9.2163 -2.3143 0.9511
-8.8800 8.5294 -2.3143 0.9511
-9.2160 8.1647 -2.3143 0.9511
-9.5337 7.7840 -2.3134 0.9511
-9.8358 7.3911 -2.3125 0.9512
-10.1141 6.9813 -2.3100 0.9512
-10.4076 6.5814 -2.3145 0.9511
-10.6952 6.1748 -2.3213 0.9510
-11.9124 5.6525 -2.4783 0.9477
-12.1703 5.1853 -2.4865 0.9476
-12.5950 4.2048 -2.4958 0.9474
-13.0313 2.6604 -2.4999 0.9473
-13.1283 2.1336 -2.5000 0.9473
-13.2036 1.6032 -2.5000 0.9473
-11.8270 0.0000 -2.5000 0.9528
-11.8174 -0.4762 -2.5000 0.9528
-11.6738 -1.8972 -2.5000 0.9528
-11.0584 -4.1939 -2.5000 0.9528
-10.8806 -4.6358 -2.5000 0.9528
-10.4723 -5.4963 -2.5000 0.9528
-9.7334 -6.7185 -2.5000 0.9528
-9.4550 -7.1050 -2.5000 0.9528
-8.8526 -7.8427 -2.5000 0.9528
-8.5296 -8.1928 -2.5000 0.9528
-7.8427 -8.8526 -2.5000 0.9528
-7.4799 -9.1613 -2.5000 0.9528
-7.1050 -9.4550 -2.5000 0.9528
-5.9135 -10.2425 -2.5000 0.9528
-4.6358 -10.8806 -2.5000 0.9528
-4.1939 -11.0584 -2.5000 0.9528
-3.7452 -11.2183 -2.5000 0.9528
-1.8968 -11.6738 -2.5000 0.9528
-0.9517 -11.7886 -2.5000 0.9528
-0.4762 -11.8174 -2.5000 0.9528
0.0000 -11.8270 -2.5000 0.9528
0.4762 -11.8174 -2.5000 0.9528
1.4256 -11.7408 -2.5000 0.9528
1.8972 -11.6738 -2.5000 0.9528
2.3657 -11.5880 -2.5000 0.9528
2.8304 -11.4833 -2.5000 0.9528
3.7452 -11.2183 -2.5000 0.9528
4.1939 -11.0584 -2.5000 0.9528
5.0700 -10.6851 -2.5000 0.9528
5.9134 -10.2425 -2.5000 0.9528
6.7186 -9.7334 -2.5000 0.9528
7.1049 -9.4550 -2.5000 0.9528
7.8427 -8.8526 -2.5000 0.9528
8.1928 -8.5296 -2.5000 0.9528
8.5296 -8.1928 -2.5000 0.9528
8.8526 -7.8427 -2.5000 0.9528
9.1612 -7.4799 -2.5000 0.9528
9.9960 -6.3211 -2.5000 0.9528
10.6851 -5.0701 -2.5000 0.9528
10.8806 -4.6358 -2.5000 0.9528
11.2183 -3.7452 -2.5000 0.9528
11.7407 -1.4256 -2.5000 0.9528
11.7886 0.9517 -2.5000 0.9528
11.6738 1.8972 -2.5000 0.9528
10.6675 3.0899 -2.3476 0.9556
10.3843 3.9382 -2.3476 0.9556
10.2173 4.3532 -2.3476 0.9556
10.0337 4.7611 -2.3476 0.9556
9.1400 6.3089 -2.3476 0.9556
7.6402 7.9543 -2.3313 0.9559
7.3154 8.2573 -2.3319 0.9559
5.7423 8.3192 -2.1368 0.9595
4.2813 8.1574 -1.9474 0.9630
3.4753 8.1568 -1.8742 0.9644
2.6204 9.0466 -1.9909 0.9622
1.3333 8.2045 -1.7570 0.9666
0.6625 8.2072 -1.7405 0.9669
0.3308 8.2086 -1.7365 0.9670
-0.0000 7.1712 -1.5158 0.9711
-0.2888 7.1657 -1.5159 0.9711
-1.3334 8.2048 -1.7571 0.9666
-1.7309 7.0224 -1.5288 0.9709
-4.3040 8.2006 -1.9577 0.9628
-4.8548 8.4087 -2.0524 0.9611
-2.3594 3.4181 -0.8779 0.9832
-6.9256 8.4823 -2.3147 0.9562
-7.2603 8.1952 -2.3143 0.9562
-7.5844 7.8962 -2.3143 0.9562
-7.8962 7.5844 -2.3143 0.9562
-8.1952 7.2603 -2.3143 0.9562
-9.3467 5.9105 -2.3376 0.9558
-9.5887 5.5360 -2.3404 0.9557
-9.8150 5.1513 -2.3431 0.9557
-10.8546 4.6247 -2.4940 0.9529
-11.2159 3.7444 -2.4994 0.9528
-11.7408 1.4256 -2.5000 0.9528
-11.8174 0.4762 -2.5000 0.9528
-10.6027 -0.8559 -2.5000 0.9572
-10.5597 -1.2822 -2.5000 0.9572
-10.4222 -2.1277 -2.5000 0.9572
-10.2172 -2.9595 -2.5000 0.9572
-10.0898 -3.3685 -2.5000 0.9572
-9.9460 -3.7720 -2.5000 0.9572
-9.2121 -5.3186 -2.5000 0.9572
-8.5038 -6.3902 -2.5000 0.9572
-6.7275 -8.2396 -2.5000 0.9572
-6.3902 -8.5038 -2.5000 0.9572
-5.6852 -8.9904 -2.5000 0.9572
-5.3186 -9.2121 -2.5000 0.9572
-4.5601 -9.6102 -2.5000 0.9572
-2.9595 -10.2172 -2.5000 0.9572
-2.5457 -10.3281 -2.5000 0.9572
-2.1278 -10.4222 -2.5000 0.9572
-0.4283 -10.6286 -2.5000 0.9572
0.8559 -10.6027 -2.5000 0.9572
1.2822 -10.5596 -2.5000 0.9572
2.1276 -10.4222 -2.5000 0.9572
2.5456 -10.3281 -2.5000 0.9572
3.7720 -9.9460 -2.5000 0.9572
4.5600 -9.6102 -2.5000 0.9572
5.3186 -9.2121 -2.5000 0.9572
5.6852 -8.9904 -2.5000 0.9572
6.3902 -8.5038 -2.5000 0.9572
6.7274 -8.2396 -2.5000 0.9572
7.0538 -7.9621 -2.5000 0.9572
7.3686 -7.6716 -2.5000 0.9572
7.6716 -7.3687 -2.5000 0.9572
8.7542 -6.0426 -2.5000 0.9572
8.9904 -5.6852 -2.5000 0.9572
9.9459 -3.7720 -2.5000 0.9572
10.2172 -2.9595 -2.5000 0.9572
10.3281 -2.5457 -2.5000 0.9572
10.4222 -2.1277 -2.5000 0.9572
10.5596 -1.2822 -2.5000 0.9572
10.6285 -0.4283 -2.5000 0.9572
10.4995 1.7063 -2.5000 0.9572
9.5944 2.7791 -2.3476 0.9598
9.4747 3.1631 -2.3476 0.9598
9.0243 4.2821 -2.3476 0.9598
8.8446 4.6420 -2.3476 0.9598
8.6505 4.9944 -2.3476 0.9598
8.2206 5.6743 -2.3476 0.9598
7.9854 6.0006 -2.3476 0.9598
7.7373 6.3173 -2.3476 0.9598
7.4767 6.6238 -2.3476 0.9598
7.2038 6.9194 -2.3476 0.9598
6.8670 7.1493 -2.3298 0.9601
5.6308 8.1576 -2.3296 0.9601
5.2984 8.3787 -2.3299 0.9601
4.2813 8.1574 -2.1652 0.9629
3.1652 8.3460 -2.0978 0.9640
-0.0000 7.0637 -1.6601 0.9714
-0.6476 8.0215 -1.8914 0.9675
-0.9738 8.0202 -1.8988 0.9673
-1.3032 8.0188 -1.9093 0.9672
-1.5485 7.5850 -1.8194 0.9687
-2.5921 8.9491 -2.1897 0.9624
-2.9012 8.6901 -2.1532 0.9631
-3.4874 8.1853 -2.0911 0.9641
-4.2743 8.1439 -2.1616 0.9629
-5.2692 8.3326 -2.3171 0.9603
-6.2310 7.6316 -2.3155 0.9603
-6.5325 7.3737 -2.3153 0.9603
-7.2033 6.9189 -2.3474 0.9598
-7.9852 6.0004 -2.3475 0.9598
-8.2204 5.6741 -2.3475 0.9598
-8.4424 5.3386 -2.3476 0.9598
-8.6505 4.9944 -2.3476 0.9598
-9.0243 4.2821 -2.3476 0.9598
-9.1894 3.9153 -2.3476 0.9598
-9.9459 3.7720 -2.5000 0.9572
-10.0898 3.3685 -2.5000 0.9572
-10.4995 1.7063 -2.5000 0.9572
-10.5596 1.2822 -2.5000 0.9572
-10.6286 0.4283 -2.5000 0.9572
-9.6555 -0.0000 -2.5000 0.9609
-9.6477 -0.3888 -2.5000 0.9609
-9.0281 -3.4239 -2.5000 0.9609
-8.7233 -4.1392 -2.5000 0.9609
-8.5496 -4.4871 -2.5000 0.9609
-7.4792 -6.1066 -2.5000 0.9609
-7.2272 -6.4028 -2.5000 0.9609
-6.9636 -6.6886 -2.5000 0.9609
-6.6886 -6.9636 -2.5000 0.9609
-6.4028 -7.2273 -2.5000 0.9609
-6.1066 -7.4792 -2.5000 0.9609
-3.0576 -9.1586 -2.5000 0.9609
-2.6864 -9.2743 -2.5000 0.9609
-2.3107 -9.3750 -2.5000 0.9609
-1.9314 -9.4604 -2.5000 0.9609
-1.5489 -9.5305 -2.5000 0.9609
-0.7769 -9.6242 -2.5000 0.9609
-0.3888 -9.6477 -2.5000 0.9609
-0.0000 -9.6555 -2.5000 0.9609
0.3888 -9.6477 -2.5000 0.9609
0.7770 -9.6242 -2.5000 0.9609
1.1638 -9.5851 -2.5000 0.9609
1.9313 -9.4604 -2.5000 0.9609
2.6864 -9.2743 -2.5000 0.9609
4.8277 -8.3619 -2.5000 0.9609
5.1605 -8.1608 -2.5000 0.9609
5.8004 -7.7190 -2.5000 0.9609
6.4028 -7.2273 -2.5000 0.9609
6.6886 -6.9636 -2.5000 0.9609
6.9636 -6.6886 -2.5000 0.9609
7.2272 -6.4028 -2.5000 0.9609
7.7190 -5.8005 -2.5000 0.9609
8.3619 -4.8278 -2.5000 0.9609
8.5495 -4.4871 -2.5000 0.9609
9.0280 -3.4239 -2.5000 0.9609
9.2743 -2.6863 -2.5000 0.9609
9.4604 -1.9314 -2.5000 0.9609
9.6242 -0.7770 -2.5000 0.9609
9.6555 -0.0000 -2.5000 0.9609
9.6477 0.3888 -2.5000 0.9609
9.6242 0.7770 -2.5000 0.9609
9.5851 1.1638 -2.5000 0.9609
9.5305 1.5489 -2.5000 0.9609
9.4604 1.9314 -2.5000 0.9609
9.2743 2.6863 -2.5000 0.9609
8.3413 3.5539 -2.3476 0.9632
8.0283 4.2136 -2.3476 0.9632
7.8522 4.5334 -2.3476 0.9632
7.4619 5.1506 -2.3476 0.9632
7.0233 5.7343 -2.3476 0.9632
6.2809 6.5391 -2.3476 0.9632
4.4940 7.7839 -2.3272 0.9635
3.8535 8.1212 -2.3274 0.9635
2.5008 8.6340 -2.3274 0.9635
2.1511 8.7272 -2.3273 0.9635
0.9518 7.8391 -2.0446 0.9679
0.6329 7.8404 -2.0366 0.9680
-0.0000 7.0714 -1.8309 0.9712
-0.3160 7.8420 -2.0321 0.9681
-0.9519 7.8394 -2.0447 0.9679
-2.8381 8.5011 -2.3205 0.9636
-3.5012 8.2175 -2.3127 0.9638
-4.1598 7.9259 -2.3176 0.9637
-4.4751 7.7510 -2.3173 0.9637
-4.7830 7.5637 -2.3171 0.9637
-2.3594 3.4181 -1.0754 0.9830
-5.4027 7.1897 -2.3285 0.9635
-6.0125 6.7867 -2.3476 0.9632
-6.7867 6.0125 -2.3476 0.9632
-7.0233 5.7343 -2.3476 0.9632
-7.6633 4.8459 -2.3476 0.9632
-7.8522 4.5334 -2.3476 0.9632
-8.1915 3.8869 -2.3476 0.9632
-8.3414 3.5539 -2.3476 0.9632
-9.2743 2.6863 -2.5000 0.9609
-9.4604 1.9313 -2.5000 0.9609
-9.5851 1.1638 -2.5000 0.9609
-9.6477 0.3888 -2.5000 0.9609
-8.8024 -0.7106 -2.5000 0.9640
-8.7666 -1.0645 -2.5000 0.9640
-8.7166 -1.4166 -2.5000 0.9640
-8.5744 -2.1134 -2.5000 0.9640
-8.4823 -2.4569 -2.5000 0.9640
-8.3765 -2.7965 -2.5000 0.9640
-8.1243 -3.4614 -2.5000 0.9640
-7.9784 -3.7858 -2.5000 0.9640
-7.6479 -4.4155 -2.5000 0.9640
-7.4639 -4.7199 -2.5000 0.9640
-7.0599 -5.3051 -2.5000 0.9640
-6.8405 -5.5851 -2.5000 0.9640
-6.6101 -5.8560 -2.5000 0.9640
-6.3689 -6.1174 -2.5000 0.9640
-6.1175 -6.3689 -2.5000 0.9640
-5.5851 -6.8405 -2.5000 0.9640
-5.3051 -7.0599 -2.5000 0.9640
-4.4155 -7.6478 -2.5000 0.9640
-4.1040 -7.8194 -2.5000 0.9640
-3.7858 -7.9783 -2.5000 0.9640
-2.7965 -8.3765 -2.5000 0.9640
-2.1134 -8.5744 -2.5000 0.9640
-1.4166 -8.7166 -2.5000 0.9640
-1.0645 -8.7666 -2.5000 0.9640
-0.7106 -8.8023 -2.5000 0.9640
-0.3556 -8.8238 -2.5000 0.9640
-0.0000 -8.8310 -2.5000 0.9640
1.0645 -8.7666 -2.5000 0.9640
1.7664 -8.6525 -2.5000 0.9640
2.1134 -8.5744 -2.5000 0.9640
3.1315 -8.2571 -2.5000 0.9640
3.7857 -7.9784 -2.5000 0.9640
4.1039 -7.8194 -2.5000 0.9640
4.4155 -7.6479 -2.5000 0.9640
4.7198 -7.4639 -2.5000 0.9640
5.0165 -7.2678 -2.5000 0.9640
5.3051 -7.0599 -2.5000 0.9640
5.5851 -6.8405 -2.5000 0.9640
6.3689 -6.1174 -2.5000 0.9640
6.6101 -5.8560 -2.5000 0.9640
7.0598 -5.3051 -2.5000 0.9640
7.4638 -4.7199 -2.5000 0.9640
7.6478 -4.4155 -2.5000 0.9640
8.2571 -3.1315 -2.5000 0.9640
8.4823 -2.4569 -2.5000 0.9640
8.5743 -2.1134 -2.5000 0.9640
8.6525 -1.7664 -2.5000 0.9640
8.7665 -1.0645 -2.5000 0.9640
8.8023 -0.7106 -2.5000 0.9640
8.8238 0.3556 -2.5000 0.9640
8.5743 2.1134 -2.5000 0.9640
7.7537 2.9406 -2.3476 0.9661
7.3428 3.8538 -2.3476 0.9661
7.0088 4.4321 -2.3476 0.9661
6.8247 4.7107 -2.3476 0.9661
6.6295 4.9817 -2.3476 0.9661
6.2071 5.4990 -2.3476 0.9661
5.7445 5.9807 -2.3476 0.9661
5.4990 6.2071 -2.3476 0.9661
4.7107 6.8247 -2.3476 0.9661
4.4285 7.0032 -2.3457 0.9661
3.5224 7.4233 -2.3261 0.9664
1.2435 7.6518 -2.1946 0.9683
0.9292 7.6531 -2.1824 0.9685
0.3085 7.6556 -2.1690 0.9687
-0.0000 7.0793 -2.0041 0.9710
-0.3085 7.6559 -2.1691 0.9686
-0.6180 7.6546 -2.1740 0.9686
-0.9293 7.6534 -2.1825 0.9685
-1.7456 7.0820 -2.0649 0.9701
-2.2797 7.8705 -2.3197 0.9665
-2.9049 7.6595 -2.3191 0.9665
-3.2106 7.5354 -2.3188 0.9665
-4.1240 7.1430 -2.3350 0.9663
-2.3594 3.4181 -1.1758 0.9829
-5.2446 6.4235 -2.3476 0.9661
-6.2071 5.4990 -2.3476 0.9661
-6.4235 5.2446 -2.3476 0.9661
-6.6295 4.9817 -2.3476 0.9661
-6.8247 4.7107 -2.3476 0.9661
-7.0088 4.4321 -2.3476 0.9661
-7.1816 4.1463 -2.3476 0.9661
-8.3765 2.7965 -2.5000 0.9640
-8.4823 2.4569 -2.5000 0.9640
-8.7166 1.4166 -2.5000 0.9640
-8.7666 1.0645 -2.5000 0.9640
-8.8023 0.7106 -2.5000 0.9640
-8.8238 0.3556 -2.5000 0.9640
-8.0687 -0.9797 -2.5000 0.9666
-7.9637 -1.6258 -2.5000 0.9666
-7.7097 -2.5739 -2.5000 0.9666
-7.4776 -3.1859 -2.5000 0.9666
-6.6892 -4.6172 -2.5000 0.9666
-6.2960 -5.1405 -2.5000 0.9666
-6.0839 -5.3898 -2.5000 0.9666
-5.8619 -5.6304 -2.5000 0.9666
-5.6304 -5.8619 -2.5000 0.9666
-5.3899 -6.0839 -2.5000 0.9666
-5.1405 -6.2960 -2.5000 0.9666
-4.6172 -6.6892 -2.5000 0.9666
-4.3441 -6.8697 -2.5000 0.9666
-4.0640 -7.0390 -2.5000 0.9666
-1.3038 -8.0227 -2.5000 0.9666
-0.9797 -8.0687 -2.5000 0.9666
-0.6540 -8.1016 -2.5000 0.9666
0.3273 -8.1214 -2.5000 0.9666
0.6540 -8.1016 -2.5000 0.9666
1.3038 -8.0227 -2.5000 0.9666
1.9451 -7.8918 -2.5000 0.9666
2.2613 -7.8071 -2.5000 0.9666
2.5738 -7.7097 -2.5000 0.9666
2.8822 -7.5998 -2.5000 0.9666
3.4844 -7.3432 -2.5000 0.9666
3.7772 -7.1970 -2.5000 0.9666
4.6172 -6.6892 -2.5000 0.9666
5.1405 -6.2960 -2.5000 0.9666
5.3898 -6.0839 -2.5000 0.9666
5.6304 -5.8619 -2.5000 0.9666
5.8619 -5.6304 -2.5000 0.9666
6.2960 -5.1405 -2.5000 0.9666
6.6892 -4.6172 -2.5000 0.9666
6.8697 -4.3441 -2.5000 0.9666
7.0390 -4.0640 -2.5000 0.9666
7.4775 -3.1859 -2.5000 0.9666
7.5997 -2.8822 -2.5000 0.9666
8.0227 -1.3038 -2.5000 0.9666
8.1016 -0.6540 -2.5000 0.9666
8.1213 -0.3273 -2.5000 0.9666
8.1213 0.3273 -2.5000 0.9666
8.1016 0.6540 -2.5000 0.9666
8.0687 0.9797 -2.5000 0.9666
8.0227 1.3038 -2.5000 0.9666
6.8956 3.2720 -2.3476 0.9686
6.2814 4.3357 -2.3476 0.9686
6.1017 4.5851 -2.3476 0.9686
5.5046 5.2872 -2.3476 0.9686
5.0613 5.7130 -2.3476 0.9686
4.8271 5.9121 -2.3476 0.9686
4.3357 6.2814 -2.3476 0.9686
4.0793 6.4509 -2.3476 0.9686
3.8162 6.6099 -2.3476 0.9686
3.2720 6.8956 -2.3476 0.9686
2.3935 7.1699 -2.3249 0.9689
2.1027 7.2593 -2.3246 0.9689
1.8084 7.3370 -2.3242 0.9689
1.2118 7.4565 -2.3236 0.9689
0.9085 7.4826 -2.3184 0.9689
0.3016 7.4850 -2.3041 0.9691
-0.0000 7.0873 -2.1799 0.9708
-0.3017 7.4854 -2.3042 0.9691
-1.2105 7.4482 -2.3210 0.9689
-1.5092 7.3924 -2.3207 0.9689
-1.7476 7.0902 -2.2461 0.9699
-2.3968 7.1792 -2.3280 0.9688
-2.6955 7.1074 -2.3380 0.9687
-2.9913 7.0208 -2.3473 0.9686
-3.2720 6.8956 -2.3476 0.9686
-3.8162 6.6099 -2.3476 0.9686
-4.5852 6.1017 -2.3476 0.9686
-5.0613 5.7130 -2.3476 0.9686
-5.2872 5.5046 -2.3476 0.9686
-5.5046 5.2872 -2.3476 0.9686
-5.9122 4.8271 -2.3476 0.9686
-6.1017 4.5851 -2.3476 0.9686
-6.6099 3.8162 -2.3476 0.9686
-6.7582 3.5470 -2.3476 0.9686
-6.8956 3.2720 -2.3476 0.9686
-7.0217 2.9917 -2.3476 0.9686
-7.2153 2.7364 -2.3735 0.9682
-7.7097 2.5739 -2.5000 0.9666
-7.9637 1.6258 -2.5000 0.9666
-8.0227 1.3038 -2.5000 0.9666
-8.0687 0.9797 -2.5000 0.9666
-8.1214 0.3273 -2.5000 0.9666
-7.5209 -0.0000 -2.5000 0.9688
-7.4965 -0.6052 -2.5000 0.9688
-7.4661 -0.9065 -2.5000 0.9688
-7.3689 -1.5044 -2.5000 0.9688
-7.2239 -2.0925 -2.5000 0.9688
-7.0322 -2.6669 -2.5000 0.9688
-6.9191 -2.9479 -2.5000 0.9688
-6.7948 -3.2242 -2.5000 0.9688
-6.5133 -3.7604 -2.5000 0.9688
-6.1896 -4.2724 -2.5000 0.9688
-6.0125 -4.5181 -2.5000 0.9688
-5.8257 -4.7566 -2.5000 0.9688
-4.9873 -5.6295 -2.5000 0.9688
-4.5181 -6.0125 -2.5000 0.9688
-4.0197 -6.3566 -2.5000 0.9688
-3.4951 -6.6594 -2.5000 0.9688
-2.3817 -7.1338 -2.5000 0.9688
-1.7999 -7.3023 -2.5000 0.9688
-1.5044 -7.3689 -2.5000 0.9688
-0.9066 -7.4660 -2.5000 0.9688
-0.3029 -7.5148 -2.5000 0.9688
0.3028 -7.5148 -2.5000 0.9688
0.6052 -7.4965 -2.5000 0.9688
0.9065 -7.4661 -2.5000 0.9688
1.7999 -7.3024 -2.5000 0.9688
2.3816 -7.1338 -2.5000 0.9688
2.9479 -6.9191 -2.5000 0.9688
4.0196 -6.3566 -2.5000 0.9688
4.5181 -6.0125 -2.5000 0.9688
4.7565 -5.8257 -2.5000 0.9688
4.9873 -5.6295 -2.5000 0.9688
5.8257 -4.7566 -2.5000 0.9688
6.1896 -4.2724 -2.5000 0.9688
7.1338 -2.3816 -2.5000 0.9688
7.4235 -1.2064 -2.5000 0.9688
7.4660 -0.9065 -2.5000 0.9688
7.5209 0.0000 -2.5000 0.9688
7.4965 0.6052 -2.5000 0.9688
7.4661 0.9065 -2.5000 0.9688
7.2239 2.0924 -2.5000 0.9688
7.1338 2.3816 -2.5000 0.9688
6.4973 2.7682 -2.3476 0.9707
6.3805 3.0276 -2.3476 0.9707
6.2534 3.2821 -2.3476 0.9707
6.1162 3.5312 -2.3476 0.9707
5.6460 4.2427 -2.3476 0.9707
5.4706 4.4666 -2.3476 0.9707
5.2863 4.6832 -2.3476 0.9707
5.0934 4.8923 -2.3476 0.9707
4.8923 5.0934 -2.3476 0.9707
4.2427 5.6460 -2.3476 0.9707
4.0119 5.8122 -2.3476 0.9707
3.7746 5.9691 -2.3476 0.9707
3.2820 6.2534 -2.3476 0.9707
3.0276 6.3805 -2.3476 0.9707
2.7682 6.4973 -2.3476 0.9707
2.5044 6.6035 -2.3476 0.9707
1.9649 6.7836 -2.3476 0.9707
1.6902 6.8572 -2.3476 0.9707
1.4127 6.9197 -2.3476 0.9707
1.1327 6.9708 -2.3475 0.9707
0.5676 7.0305 -2.3446 0.9707
-1.1330 6.9708 -2.3476 0.9707
-2.2365 6.6990 -2.3476 0.9707
-2.7682 6.4973 -2.3476 0.9707
-3.0276 6.3805 -2.3476 0.9707
-3.7746 5.9691 -2.3476 0.9707
-2.3594 3.4181 -1.3806 0.9826
-4.2427 5.6460 -2.3476 0.9707
-4.4666 5.4706 -2.3476 0.9707
-4.6833 5.2863 -2.3476 0.9707
-5.0934 4.8923 -2.3476 0.9707
-5.2863 4.6832 -2.3476 0.9707
-5.4706 4.4666 -2.3476 0.9707
-5.6460 4.2427 -2.3476 0.9707
-5.9691 3.7746 -2.3476 0.9707
-7.0322 2.6669 -2.5000 0.9688
-7.1338 2.3816 -2.5000 0.9688
-7.3024 1.7999 -2.5000 0.9688
-7.4235 1.2064 -2.5000 0.9688
-7.4660 0.9065 -2.5000 0.9688
-7.5148 0.3028 -2.5000 0.9688
-6.9852 -0.2815 -2.5000 0.9707
-6.9004 -1.1214 -2.5000 0.9707
-6.8496 -1.3984 -2.5000 0.9707
-6.7877 -1.6730 -2.5000 0.9707
-6.5366 -2.4790 -2.5000 0.9707
-6.4315 -2.7402 -2.5000 0.9707
-6.1901 -3.2488 -2.5000 0.9707
-5.4152 -4.4213 -2.5000 0.9707
-5.2328 -4.6358 -2.5000 0.9707
-4.8428 -5.0418 -2.5000 0.9707
-3.9713 -5.7534 -2.5000 0.9707
-3.7364 -5.9086 -2.5000 0.9707
-3.4954 -6.0543 -2.5000 0.9707
-3.2488 -6.1901 -2.5000 0.9707
-2.7402 -6.4315 -2.5000 0.9707
-2.2138 -6.6311 -2.5000 0.9707
-1.6730 -6.7877 -2.5000 0.9707
-1.3984 -6.8496 -2.5000 0.9707
-0.8427 -6.9399 -2.5000 0.9707
-0.5626 -6.9682 -2.5000 0.9707
-0.2815 -6.9852 -2.5000 0.9707
-0.0000 -6.9909 -2.5000 0.9707
1.1214 -6.9003 -2.5000 0.9707
1.3983 -6.8496 -2.5000 0.9707
1.6730 -6.7877 -2.5000 0.9707
1.9450 -6.7149 -2.5000 0.9707
2.2138 -6.6311 -2.5000 0.9707
2.4790 -6.5366 -2.5000 0.9707
2.9969 -6.3159 -2.5000 0.9707
3.2488 -6.1901 -2.5000 0.9707
3.7364 -5.9086 -2.5000 0.9707
4.1997 -5.5888 -2.5000 0.9707
4.6358 -5.2327 -2.5000 0.9707
5.0418 -4.8427 -2.5000 0.9707
5.4151 -4.4213 -2.5000 0.9707
5.5888 -4.1997 -2.5000 0.9707
5.9086 -3.7364 -2.5000 0.9707
6.0542 -3.4954 -2.5000 0.9707
6.3159 -2.9969 -2.5000 0.9707
6.4314 -2.7402 -2.5000 0.9707
6.5366 -2.4790 -2.5000 0.9707
6.6311 -2.2138 -2.5000 0.9707
6.9003 -1.1214 -2.5000 0.9707
6.9399 -0.8427 -2.5000 0.9707
6.9852 -0.2815 -2.5000 0.9707
6.9909 0.0000 -2.5000 0.9707
6.9682 0.5625 -2.5000 0.9707
6.7877 1.6730 -2.5000 0.9707
6.6311 2.2138 -2.5000 0.9707
5.9309 2.8142 -2.3476 0.9725
5.8127 3.0508 -2.3476 0.9725
5.6852 3.2824 -2.3476 0.9725
5.0850 4.1518 -2.3476 0.9725
4.9137 4.3532 -2.3476 0.9725
4.1518 5.0850 -2.3476 0.9725
3.9437 5.2481 -2.3476 0.9725
3.7292 5.4026 -2.3476 0.9725
3.5086 5.5484 -2.3476 0.9725
3.0508 5.8127 -2.3476 0.9725
2.8142 5.9309 -2.3476 0.9725
2.3279 6.1381 -2.3476 0.9725
1.8264 6.3055 -2.3476 0.9725
1.5710 6.3739 -2.3476 0.9725
1.3131 6.4320 -2.3476 0.9725
1.0530 6.4797 -2.3476 0.9725
0.5282 6.5434 -2.3476 0.9725
-0.2643 6.5594 -2.3476 0.9725
-0.7913 6.5168 -2.3476 0.9725
-1.3131 6.4320 -2.3476 0.9725
-1.5711 6.3739 -2.3476 0.9725
-1.8264 6.3055 -2.3476 0.9725
-2.0788 6.2269 -2.3476 0.9725
-2.3279 6.1381 -2.3476 0.9725
-2.8142 5.9309 -2.3476 0.9725
-3.2824 5.6852 -2.3476 0.9725
-2.3594 3.4181 -1.4853 0.9825
-3.9437 5.2481 -2.3476 0.9725
-4.1518 5.0850 -2.3476 0.9725
-4.3532 4.9137 -2.3476 0.9725
-4.5475 4.7345 -2.3476 0.9725
-5.0851 4.1518 -2.3476 0.9725
-5.6852 3.2824 -2.3476 0.9725
-6.3330 2.6982 -2.4617 0.9712
-6.5366 2.4790 -2.5000 0.9707
-6.6311 2.2138 -2.5000 0.9707
-6.7877 1.6730 -2.5000 0.9707
-6.9852 0.2815 -2.5000 0.9707
-3.5687 -0.2881 -1.3720 0.9848
-3.5921 -0.4362 -1.3867 0.9846
-6.4392 -1.0465 -2.5000 0.9724
-6.1879 -2.0658 -2.5000 0.9724
-6.0997 -2.3133 -2.5000 0.9724
-6.0017 -2.5571 -2.5000 0.9724
-5.7764 -3.0317 -2.5000 0.9724
-5.3689 -3.7059 -2.5000 0.9724
-5.2153 -3.9190 -2.5000 0.9724
-4.7049 -4.5191 -2.5000 0.9724
-4.5191 -4.7049 -2.5000 0.9724
-4.1259 -5.0533 -2.5000 0.9724
-3.9190 -5.2153 -2.5000 0.9724
-3.2618 -5.6497 -2.5000 0.9724
-2.3133 -6.0997 -2.5000 0.9724
-1.8150 -6.2661 -2.5000 0.9724
-1.5612 -6.3341 -2.5000 0.9724
-1.3049 -6.3918 -2.5000 0.9724
-0.5249 -6.5025 -2.5000 0.9724
-0.2627 -6.5184 -2.5000 0.9724
-0.0000 -6.5237 -2.5000 0.9724
0.2627 -6.5184 -2.5000 0.9724
0.7863 -6.4761 -2.5000 0.9724
1.0465 -6.4392 -2.5000 0.9724
1.3049 -6.3918 -2.5000 0.9724
1.5612 -6.3341 -2.5000 0.9724
1.8150 -6.2661 -2.5000 0.9724
2.5571 -6.0016 -2.5000 0.9724
2.7966 -5.8938 -2.5000 0.9724
3.0317 -5.7764 -2.5000 0.9724
3.2618 -5.6497 -2.5000 0.9724
3.4867 -5.5137 -2.5000 0.9724
