ply
format ascii 1.0
element vertex 1570
property float32 x
property float32 y
property float32 z
property float32 I
end_header
4.5311 -18.3834 2.9005 0.9262
12.0467 -31.7644 5.2043 0.8716
7.5426 -17.7032 2.9479 0.9251
8.3868 -17.6749 2.9971 0.9239
9.0209 -17.1878 2.9737 0.9245
15.6913 -22.7327 4.2316 0.8942
15.6245 -20.7924 3.9844 0.9001
23.9461 -10.2024 3.9875 0.9000
23.9267 -7.9879 3.8643 0.9030
25.4445 7.3701 4.0582 0.8983
19.7167 8.4005 3.2832 0.9169
16.6705 9.6248 2.9489 0.9251
11.7009 8.7926 2.2422 0.9425
11.3733 9.2860 2.2493 0.9423
11.4226 10.9715 2.4263 0.9379
8.6089 8.9628 1.9038 0.9510
7.4158 8.3708 1.7132 0.9558
6.5370 9.4705 1.7629 0.9545
6.3542 10.0483 1.8213 0.9530
13.5375 23.4476 4.1477 0.8962
3.6756 7.7461 1.3135 0.9659
3.1350 8.2665 1.3544 0.9649
2.8143 8.4299 1.3615 0.9647
2.5211 8.7040 1.3882 0.9640
2.2556 9.1512 1.4439 0.9626
1.9540 9.5714 1.4965 0.9612
1.5555 9.5714 1.4855 0.9615
1.1622 9.5714 1.4771 0.9617
0.7727 9.5714 1.4711 0.9619
0.3857 9.5714 1.4675 0.9620
-0.3857 9.5714 1.4675 0.9620
-1.9540 9.5714 1.4965 0.9612
-2.3591 9.5714 1.5102 0.9609
-2.6570 9.1729 1.4630 0.9621
-2.9223 8.7532 1.4137 0.9633
-3.2104 8.4651 1.3869 0.9640
-3.5283 8.2813 1.3790 0.9642
-3.8788 8.1743 1.3861 0.9640
-4.0631 7.7415 1.3394 0.9652
-4.7471 8.2221 1.4544 0.9623
-23.6759 24.6492 5.2359 0.8708
-22.8332 15.7607 4.2503 0.8938
-25.5029 12.1013 4.3244 0.8921
-31.4252 7.7456 4.9582 0.8772
-41.4869 6.7423 6.4389 0.8436
-43.7779 -22.9764 6.4383 0.8192
-21.5320 -26.3720 4.4335 0.8717
-19.1724 -27.7761 4.3950 0.8727
-18.4797 -29.2233 4.5025 0.8698
-13.2278 -27.8770 4.0181 0.8830
-18.3893 -43.1612 6.1094 0.8276
-9.5191 -38.6203 5.1797 0.8518
-4.4454 -27.3535 3.6087 0.8942
-1.7224 -21.3351 2.7873 0.9173
0.9904 -24.5766 3.2030 0.9055
1.9667 -24.3621 3.1828 0.9061
4.1248 -20.2048 2.6854 0.9202
8.5155 -17.9461 2.5867 0.9230
9.2022 -17.5333 2.5786 0.9232
19.7167 8.4005 2.7909 0.9172
19.1970 9.1091 2.7670 0.9179
18.3384 9.6248 2.6970 0.9199
16.6706 9.6248 2.5067 0.9253
12.7892 8.0874 1.9705 0.9408
11.5495 8.6789 1.8813 0.9434
9.8851 8.0710 1.6618 0.9498
9.3604 8.2926 1.6285 0.9508
8.5572 8.2193 1.5451 0.9533
7.4254 9.8814 1.6096 0.9514
6.9781 10.1096 1.5996 0.9517
6.6436 10.5061 1.6187 0.9511
4.3726 8.3313 1.2253 0.9628
3.4635 8.1292 1.1507 0.9650
2.5252 8.7180 1.1819 0.9641
2.2666 9.1959 1.2333 0.9625
1.9649 9.6248 1.2792 0.9611
1.1629 9.5779 1.2564 0.9618
0.0000 9.5813 1.2477 0.9621
-2.3723 9.6248 1.2909 0.9608
-3.8845 8.1863 1.1799 0.9641
-23.5821 26.6187 4.6309 0.8664
-24.2546 25.2517 4.5595 0.8683
-22.6409 14.3173 3.4883 0.8976
-23.4574 13.5432 3.5272 0.8965
-30.1741 14.3178 4.3492 0.8740
-31.3413 13.3533 4.4363 0.8716
-44.1122 14.7269 6.0560 0.8290
-32.1629 7.9275 4.3136 0.8749
-41.9188 -24.2018 5.1977 0.8231
-18.6139 -17.8788 2.7715 0.9014
-16.9920 -19.1799 2.7516 0.9020
-15.9665 -19.5553 2.7109 0.9034
-15.7012 -20.8944 2.8066 0.9002
-17.8053 -25.7954 3.3657 0.8815
-13.1991 -27.8165 3.3062 0.8835
-12.7370 -29.8948 3.4894 0.8775
-11.4539 -39.5434 4.4208 0.8474
-4.3934 -27.0333 2.9410 0.8957
0.0000 -25.4653 2.7345 0.9026
1.5126 -18.7370 2.0186 0.9272
2.9288 -18.0219 1.9606 0.9292
7.4193 -36.3420 3.9830 0.8614
7.0332 -18.5449 2.1298 0.9233
7.5526 -17.7266 2.0691 0.9254
8.1402 -17.1550 2.0390 0.9265
8.9061 -16.9692 2.0579 0.9258
9.6391 -16.6953 2.0701 0.9254
9.8013 -15.4995 1.9692 0.9289
15.0938 -21.8670 2.8532 0.8986
12.5254 -16.6683 2.2389 0.9195
18.2434 2.9649 1.9847 0.9283
25.4445 7.3701 2.8446 0.8989
19.7167 8.4005 2.3014 0.9174
19.1970 9.1091 2.2817 0.9181
18.3384 9.6248 2.2240 0.9201
12.7483 8.0616 1.6197 0.9411
12.0409 8.3112 1.5711 0.9428
11.5826 8.7037 1.5558 0.9434
11.2655 9.9804 1.6162 0.9412
11.2245 13.7476 1.9058 0.9311
6.8247 9.8873 1.2901 0.9528
6.3924 10.1088 1.2843 0.9530
4.3726 8.3313 1.0104 0.9629
3.1350 8.2665 0.9494 0.9651
2.8143 8.4299 0.9543 0.9649
1.9649 9.6248 1.0548 0.9613
1.1636 9.5834 1.0366 0.9619
0.3901 9.6811 1.0404 0.9618
-0.3879 9.6247 1.0344 0.9620
-0.7816 9.6811 1.0430 0.9617
-1.5734 9.6811 1.0532 0.9613
-1.9649 9.6248 1.0548 0.9613
-2.3723 9.6248 1.0645 0.9609
-2.6981 9.3150 1.0414 0.9617
-2.9775 8.9187 1.0097 0.9629
-4.3430 8.2749 1.0035 0.9631
-4.8047 8.3220 1.0319 0.9621
-23.4759 26.4988 3.8015 0.8673
-30.4597 26.9849 4.3698 0.8490
-30.0566 22.5861 4.0372 0.8596
-23.5225 16.2365 3.0692 0.8914
-23.3703 13.4929 2.8978 0.8971
-32.0087 7.8895 3.5400 0.8758
-40.4789 6.5785 4.4037 0.8479
-40.9402 4.9710 4.4285 0.8471
-42.3339 -24.4415 4.1381 0.8218
-21.8379 -16.4101 2.3124 0.8961
-25.5201 -20.8364 2.7890 0.8761
-20.9918 -18.5972 2.3741 0.8935
-16.7070 -20.4623 2.2362 0.8994
-15.1935 -20.2188 2.1410 0.9035
-18.5982 -29.4107 2.9457 0.8696
-21.4371 -40.8451 3.9049 0.8310
-12.1642 -28.5503 2.6271 0.8829
-10.8047 -37.3020 3.2875 0.8556
-2.6803 -22.0743 1.8824 0.9146
-0.8002 -19.8554 1.6822 0.9233
-0.0000 -20.9502 1.7735 0.9193
1.5842 -19.6244 1.6667 0.9240
2.9796 -18.3338 1.5724 0.9281
3.7951 -18.5898 1.6061 0.9267
12.8043 -44.2054 3.8959 0.8313
5.7438 -17.2046 1.5354 0.9298
10.8814 -15.7645 1.6215 0.9260
11.7868 -15.6854 1.6609 0.9243
17.3802 -21.2868 2.3263 0.8956
47.1607 -1.9005 3.9955 0.8274
47.1707 0.0000 3.9931 0.8275
19.7166 8.4005 1.8142 0.9176
18.1896 9.5466 1.7390 0.9208
16.5732 9.5686 1.6200 0.9261
12.0997 8.3518 1.2446 0.9427
10.1701 8.3036 1.1114 0.9487
9.5845 8.4911 1.0840 0.9499
9.0347 8.6780 1.0605 0.9510
7.9146 10.5325 1.1153 0.9485
11.2655 16.3209 1.6788 0.9235
5.7150 9.8986 0.9676 0.9552
4.3726 8.3313 0.7965 0.9629
2.8143 8.4299 0.7523 0.9650
1.9649 9.6248 0.8316 0.9613
1.1636 9.5834 0.8172 0.9620
0.7826 9.6951 0.8234 0.9617
-0.0000 9.5891 0.8117 0.9622
-0.3879 9.6247 0.8154 0.9621
-0.7816 9.6811 0.8222 0.9618
-1.1772 9.6951 0.8267 0.9616
-1.5734 9.6811 0.8303 0.9614
-2.3723 9.6248 0.8391 0.9610
-3.1952 8.4251 0.7628 0.9645
-3.5333 8.2930 0.7631 0.9645
-4.3430 8.2749 0.7911 0.9632
-23.5429 24.5108 2.8770 0.8725
-25.5681 24.5585 3.0011 0.8673
-30.6297 27.1355 3.4641 0.8485
-32.3625 26.4232 3.5367 0.8456
-30.1924 22.6881 3.1971 0.8593
-21.6717 14.9589 2.2292 0.8997
-23.2725 14.7167 2.3309 0.8954
-22.3158 12.8841 2.1813 0.9017
-22.4714 11.7939 2.1483 0.9031
-30.2624 14.3597 2.8356 0.8742
-31.4338 7.7478 2.7406 0.8781
-41.1734 6.6913 3.5312 0.8458
-21.5732 -17.6140 1.7270 0.8944
-20.7020 -23.3677 1.9359 0.8824
-18.4306 -22.5734 1.8071 0.8898
-14.8200 -21.4704 1.6178 0.9007
-17.8528 -30.9220 2.2141 0.8667
-13.4058 -28.2520 1.9391 0.8822
-12.0789 -28.3503 1.9109 0.8838
-9.2799 -37.6499 2.4046 0.8561
-5.2650 -25.7896 1.6322 0.8999
-3.4208 -21.0493 1.3224 0.9181
-0.7674 -19.0435 1.1818 0.9265
0.0000 -18.8131 1.1666 0.9274
0.9602 -23.8255 1.4786 0.9089
1.9811 -24.5399 1.5267 0.9060
3.2352 -19.9069 1.2506 0.9224
12.7875 -44.1476 2.8501 0.8318
5.9749 -17.8969 1.1700 0.9272
6.7224 -17.7254 1.1755 0.9268
9.7217 -16.8384 1.2057 0.9250
10.8319 -17.1292 1.2567 0.9220
12.6066 -16.7764 1.3013 0.9193
18.1992 2.9577 1.1433 0.9288
20.5522 7.7944 1.3630 0.9157
18.2485 9.5775 1.2780 0.9207
12.0997 8.3518 0.9117 0.9428
11.3831 9.2940 0.9113 0.9428
11.3284 10.0361 0.9385 0.9411
11.4335 10.9820 0.9831 0.9384
7.8513 9.6161 0.7698 0.9515
13.4351 21.2459 1.5588 0.9042
4.3726 8.3313 0.5835 0.9630
2.8143 8.4299 0.5511 0.9650
2.2456 9.1107 0.5819 0.9631
1.9649 9.6248 0.6091 0.9614
1.5642 9.6248 0.6047 0.9617
0.7815 9.6811 0.6023 0.9618
0.3901 9.6811 0.6008 0.9619
-0.0000 9.5891 0.5946 0.9623
-0.7816 9.6811 0.6023 0.9618
-2.3723 9.6248 0.6147 0.9611
-3.5333 8.2930 0.5590 0.9645
-4.3430 8.2749 0.5795 0.9632
-4.8047 8.3220 0.5959 0.9622
-31.8275 30.5707 2.7366 0.8379
-30.6297 27.1355 2.5375 0.8487
-32.3625 26.4232 2.5908 0.8458
-30.1924 22.6881 2.3419 0.8595
-23.2096 13.4001 1.6619 0.8982
-23.9412 12.5653 1.6766 0.8973
-23.9818 11.3795 1.6460 0.8991
-35.7743 13.5674 2.3726 0.8578
-31.4811 9.1186 2.0324 0.8769
-31.4276 7.7462 2.0072 0.8783
-31.4964 6.4300 1.9934 0.8791
-39.9382 6.4906 2.5091 0.8503
-42.1689 5.1202 2.6341 0.8435
-43.0634 -22.6014 1.9177 0.8231
-39.9172 -23.0462 1.8175 0.8315
-22.0078 -16.5378 1.0855 0.8957
-21.1388 -17.2593 1.0761 0.8965
-20.3032 -17.9871 1.0696 0.8971
-19.5901 -18.8165 1.0711 0.8970
-20.3116 -22.9269 1.2078 0.8846
-19.2220 -23.5427 1.1984 0.8854
-14.9354 -21.6376 1.0367 0.9001
-17.4830 -30.2813 1.3787 0.8694
-21.5233 -41.0093 1.8262 0.8308
-7.9304 -27.3789 1.1240 0.8922
-6.6653 -27.0421 1.0982 0.8945
-5.4275 -26.5855 1.0699 0.8971
-4.1972 -25.8264 1.0317 0.9006
-1.6989 -21.0444 0.8325 0.9190
1.8969 -23.4965 0.9295 0.9100
2.7801 -22.8959 0.9094 0.9118
3.2343 -19.9013 0.7950 0.9225
5.2103 -25.5215 1.0271 0.9010
6.6322 -26.9078 1.0928 0.8950
6.8395 -20.4868 0.8516 0.9172
15.6547 -20.8326 1.0275 0.9009
16.2778 -19.9367 1.0149 0.9021
18.3868 -20.7544 1.0933 0.8949
25.4445 7.3701 1.0446 0.8994
19.7276 8.4051 0.8455 0.9177
19.2069 9.1138 0.8383 0.9184
18.3384 9.6248 0.8166 0.9204
16.6705 9.6248 0.7590 0.9258
12.0997 8.3518 0.5797 0.9428
11.3734 11.8410 0.6474 0.9364
11.3284 13.8747 0.7063 0.9308
7.0180 10.1673 0.4871 0.9517
6.7200 10.6269 0.4958 0.9509
4.3726 8.3314 0.3710 0.9630
3.9265 8.2749 0.3612 0.9640
3.5256 8.2749 0.3547 0.9646
3.1350 8.2665 0.3486 0.9652
2.8143 8.4299 0.3504 0.9650
2.2456 9.1107 0.3700 0.9631
1.9649 9.6248 0.3873 0.9614
1.5642 9.6248 0.3845 0.9617
0.7815 9.6811 0.3830 0.9619
0.3901 9.6811 0.3820 0.9620
-0.3879 9.6247 0.3798 0.9622
-1.1763 9.6874 0.3848 0.9617
-1.9649 9.6248 0.3873 0.9614
-2.3723 9.6248 0.3909 0.9611
-3.1952 8.4251 0.3553 0.9646
-3.5333 8.2930 0.3554 0.9646
-3.9265 8.2749 0.3612 0.9640
-4.3430 8.2749 0.3685 0.9633
-21.4947 26.3262 1.3401 0.8728
-22.8189 25.7572 1.3569 0.8713
-30.5896 27.1000 1.6114 0.8491
-21.4719 17.5312 1.0930 0.8950
-22.1351 16.6335 1.0918 0.8951
-31.5359 18.2073 1.4359 0.8644
-24.2545 12.7298 1.0801 0.8961
-30.2723 14.3644 1.3212 0.8745
-35.1735 13.3395 1.4833 0.8602
-41.1110 4.9917 1.6330 0.8472
-42.9584 -20.3840 0.8032 0.8268
-41.7610 -24.1107 0.8145 0.8246
-21.6620 -16.2780 0.4577 0.8973
-20.5984 -18.2486 0.4648 0.8958
-21.5222 -24.2936 0.5482 0.8782
-15.9604 -19.5479 0.4263 0.9040
-14.5411 -21.0663 0.4324 0.9027
-16.7890 -26.5497 0.5306 0.8819
-15.8722 -27.4915 0.5362 0.8807
-16.7689 -35.3396 0.6607 0.8551
-11.2716 -29.7208 0.5369 0.8806
-5.1346 -25.1511 0.4336 0.9024
-3.2470 -26.7414 0.4550 0.8978
-2.0718 -25.6638 0.4349 0.9021
-0.8420 -20.8938 0.3532 0.9197
-0.0000 -20.3509 0.3438 0.9218
2.9907 -24.6305 0.4191 0.9055
5.0434 -24.7039 0.4259 0.9041
5.9879 -24.2939 0.4226 0.9047
11.4565 -39.5525 0.6956 0.8481
7.3032 -15.3911 0.2878 0.9341
8.1285 -15.4875 0.2955 0.9324
10.6967 -16.9154 0.3381 0.9231
19.0683 -21.5236 0.4857 0.8913
25.4445 7.3701 0.4475 0.8994
18.3384 9.6248 0.3498 0.9205
11.7009 8.7926 0.2473 0.9431
11.3831 9.2940 0.2482 0.9429
11.4335 10.9820 0.2678 0.9385
11.3734 11.8410 0.2773 0.9364
10.6000 12.9827 0.2831 0.9351
8.1462 10.8406 0.2291 0.9472
5.9368 10.2828 0.2006 0.9536
3.9265 8.2749 0.1547 0.9640
2.8143 8.4299 0.1501 0.9651
2.2456 9.1107 0.1585 0.9632
1.5642 9.6248 0.1647 0.9617
1.1636 9.5833 0.1631 0.9621
0.7815 9.6811 0.1641 0.9619
0.3901 9.6811 0.1637 0.9620
-0.0000 9.5891 0.1620 0.9624
-0.3879 9.6247 0.1627 0.9622
-1.1763 9.6875 0.1648 0.9617
-1.9649 9.6248 0.1659 0.9615
-2.3723 9.6248 0.1674 0.9611
-2.9775 8.9187 0.1588 0.9631
-4.3430 8.2749 0.1579 0.9633
-30.6381 27.1430 0.6914 0.8490
-30.2029 22.6960 0.6382 0.8597
-31.6091 19.9884 0.6317 0.8610
-31.6091 18.2496 0.6165 0.8641
-31.8696 13.5784 0.5852 0.8706
-35.8032 13.5784 0.6468 0.8580
-42.4575 14.1744 0.7561 0.8360
-31.9203 9.2458 0.5614 0.8755
-40.9388 6.6532 0.7006 0.8471
-39.7884 -20.8826 -0.2530 0.8355
-35.6248 -24.5901 -0.2437 0.8410
-22.4499 -16.8700 -0.1581 0.8937
-19.9914 -16.3225 -0.1453 0.9019
-19.5121 -18.7416 -0.1523 0.8974
-17.1948 -19.4088 -0.1460 0.9015
-16.3521 -20.0276 -0.1456 0.9017
-14.3579 -22.7051 -0.1512 0.8981
-10.5369 -24.7310 -0.1514 0.8980
-8.6137 -22.7125 -0.1368 0.9074
-6.6303 -22.8904 -0.1342 0.9091
-5.8286 -23.6473 -0.1371 0.9072
-3.3147 -27.2991 -0.1548 0.8958
-2.1392 -26.4991 -0.1497 0.8991
-0.9653 -23.9552 -0.1350 0.9086
0.0000 -23.7893 -0.1339 0.9092
1.8646 -23.0971 -0.1305 0.9115
3.1162 -25.6637 -0.1456 0.9018
3.2324 -19.8900 -0.1135 0.9226
8.1747 -40.0424 -0.2301 0.8492
9.0819 -36.8467 -0.2137 0.8592
6.1012 -21.0638 -0.1235 0.9160
7.5011 -17.6058 -0.1077 0.9263
8.0518 -16.9688 -0.1057 0.9276
8.3388 -15.8884 -0.1010 0.9307
9.6743 -16.7564 -0.1089 0.9255
20.6130 -15.4897 -0.1452 0.9020
19.7276 8.4051 -0.1207 0.9178
19.2069 9.1138 -0.1197 0.9185
18.3384 9.6248 -0.1166 0.9205
16.6705 9.6247 -0.1084 0.9259
13.0857 8.2749 -0.0872 0.9399
12.0997 8.3518 -0.0828 0.9429
11.7009 8.7926 -0.0824 0.9431
11.3831 9.2940 -0.0827 0.9429
10.8032 9.5708 -0.0813 0.9439
7.8811 9.6526 -0.0702 0.9514
7.2534 9.6526 -0.0680 0.9529
6.6627 9.6526 -0.0660 0.9542
6.1039 9.6526 -0.0643 0.9553
5.5257 9.5708 -0.0622 0.9568
3.9265 8.2749 -0.0516 0.9640
3.5256 8.2749 -0.0506 0.9647
1.5642 9.6248 -0.0549 0.9617
0.7815 9.6811 -0.0547 0.9619
0.3901 9.6811 -0.0546 0.9620
-0.0000 9.5891 -0.0540 0.9624
-1.5734 9.6811 -0.0552 0.9615
-2.9775 8.9187 -0.0529 0.9631
-3.1952 8.4251 -0.0507 0.9646
-3.5333 8.2930 -0.0508 0.9646
-3.9265 8.2749 -0.0516 0.9640
-4.3430 8.2749 -0.0526 0.9633
-4.8047 8.3220 -0.0541 0.9623
-31.9357 30.6747 -0.2493 0.8377
-30.6382 27.1430 -0.2304 0.8490
-32.3759 26.4341 -0.2353 0.8460
-30.2029 22.6960 -0.2127 0.8597
-11.1530 7.6984 -0.0763 0.9472
-31.6091 18.2496 -0.2055 0.8642
-29.9431 9.9965 -0.1777 0.8814
-30.0569 6.1362 -0.1727 0.8845
-44.6287 -16.9254 -1.3440 0.8261
-39.3284 -16.7563 -1.2037 0.8428
-31.5272 -16.5467 -1.0026 0.8672
-23.8311 -16.4494 -0.8154 0.8906
-19.9309 -17.6572 -0.7498 0.8989
-18.9532 -18.2048 -0.7400 0.9002
-18.8137 -21.2363 -0.7989 0.8927
-18.6642 -22.8594 -0.8310 0.8886
-16.5478 -23.9736 -0.8202 0.8900
-19.4992 -37.1527 -1.1815 0.8454
-10.3343 -24.2555 -0.7424 0.8999
-7.4883 -22.4304 -0.6659 0.9097
-6.5317 -22.5499 -0.6611 0.9103
-4.9912 -24.4486 -0.7026 0.9050
-4.3899 -27.0119 -0.7706 0.8963
-3.6458 -30.0261 -0.8517 0.8860
-2.1906 -27.1350 -0.7665 0.8968
-1.0713 -26.5849 -0.7492 0.8990
8.0622 -39.4909 -1.1349 0.8510
5.6834 -19.6213 -0.5752 0.9215
6.3473 -19.0124 -0.5644 0.9229
9.9888 -26.3382 -0.7932 0.8934
11.3053 -26.5345 -0.8121 0.8910
12.6327 -26.6227 -0.8297 0.8888
8.2893 -15.7940 -0.5023 0.9311
8.9635 -15.5252 -0.5048 0.9308
25.4067 -36.8079 -1.2593 0.8361
15.6591 -20.8384 -0.7340 0.9009
15.8848 -19.4554 -0.7072 0.9044
19.7824 -20.5956 -0.8041 0.8920
20.6149 -15.4911 -0.7261 0.9020
25.4445 7.3701 -0.7459 0.8994
18.3140 8.6901 -0.5708 0.9221
16.5580 8.6903 -0.5266 0.9279
12.7413 8.0571 -0.4245 0.9415
12.0059 8.2871 -0.4108 0.9433
10.8032 9.5708 -0.4064 0.9439
10.0494 9.6526 -0.3924 0.9458
9.2714 9.6526 -0.3769 0.9479
8.5514 9.6526 -0.3631 0.9497
7.2534 9.6526 -0.3400 0.9528
6.6627 9.6526 -0.3303 0.9542
5.5257 9.5708 -0.3112 0.9567
4.3726 8.3313 -0.2649 0.9630
2.8143 8.4299 -0.2502 0.9651
2.5532 8.8147 -0.2584 0.9639
2.2456 9.1107 -0.2642 0.9631
1.9649 9.6248 -0.2766 0.9615
1.3988 8.6073 -0.2455 0.9657
0.7821 9.6875 -0.2737 0.9619
0.3904 9.6873 -0.2730 0.9619
-0.0000 9.5891 -0.2700 0.9624
-0.3469 8.6073 -0.2426 0.9661
-0.7820 9.6860 -0.2736 0.9619
-1.1764 9.6882 -0.2748 0.9617
-1.5734 9.6811 -0.2762 0.9615
-3.9265 8.2749 -0.2579 0.9640
-30.8543 34.8274 -1.3101 0.8301
-32.3760 26.4342 -1.1769 0.8460
-11.1530 7.6984 -0.3816 0.9472
-29.9445 17.2885 -0.9736 0.8708
-30.2723 14.3644 -0.9435 0.8745
-31.8697 13.5784 -0.9754 0.8706
-29.9431 11.3559 -0.9017 0.8797
-29.9431 9.9965 -0.8889 0.8813
-30.0569 6.1362 -0.8638 0.8845
-49.2555 -1.9849 -2.5000 0.8208
-48.6571 -7.9076 -2.5000 0.8208
-48.2992 -9.8604 -2.5000 0.8208
-45.6578 -13.2250 -2.4107 0.8266
-43.3177 -16.4282 -2.3495 0.8306
-35.2125 -16.7085 -1.9766 0.8555
-28.6794 -16.5580 -1.6795 0.8758
-21.7386 -16.3354 -1.3791 0.8968
-15.5397 -16.1785 -1.1377 0.9141
-14.3078 -16.1501 -1.0942 0.9172
-13.4175 -16.4334 -1.0759 0.9185
-15.9563 -21.2340 -1.3470 0.8991
-24.5358 -38.8002 -2.3281 0.8320
-22.9434 -39.7400 -2.3271 0.8321
-21.3169 -40.6160 -2.3263 0.8322
-11.8388 -24.9498 -1.4005 0.8953
-10.1017 -23.7096 -1.3070 0.9019
-7.3989 -22.1623 -1.1849 0.9107
-3.9259 -15.9279 -0.8319 0.9364
-7.3448 -45.1942 -2.3221 0.8324
-3.6839 -45.6329 -2.3218 0.8325
1.0125 -25.1237 -1.2752 0.9042
3.2306 -19.8786 -1.0214 0.9225
9.1629 -44.8828 -2.3231 0.8324
10.9651 -44.4870 -2.3236 0.8323
8.5009 -29.3484 -1.5496 0.8848
9.1732 -27.4768 -1.4691 0.8905
10.0535 -26.5089 -1.4378 0.8927
8.2842 -15.7843 -0.9040 0.9311
23.0404 -39.9071 -2.3370 0.8315
10.7492 -15.5729 -0.9596 0.9270
11.6861 -15.5514 -0.9865 0.9250
12.6786 -15.5285 -1.0167 0.9228
13.8022 -15.5795 -1.0556 0.9200
14.9391 -15.5533 -1.0937 0.9173
16.1633 -15.5251 -1.1366 0.9141
17.4897 -15.4946 -1.1850 0.9107
19.1563 -15.6406 -1.2542 0.9057
20.5264 -15.4246 -1.3021 0.9023
40.5696 -28.0031 -2.5000 0.8208
43.6493 -22.9089 -2.5000 0.8208
43.8621 -20.8128 -2.4622 0.8233
44.0025 -16.6879 -2.3866 0.8282
46.7074 -13.5290 -2.4661 0.8230
48.6571 -7.9076 -2.5000 0.8208
49.2555 -1.9849 -2.5000 0.8208
49.2955 0.0000 -2.5000 0.8208
49.2555 1.9849 -2.5000 0.8208
46.2421 3.7331 -2.3528 0.8304
45.3552 9.2593 -2.3476 0.8308
44.9916 11.0895 -2.3500 0.8306
25.4445 7.3701 -1.3434 0.8993
18.3383 7.8132 -1.0109 0.9233
16.6188 7.8857 -0.9329 0.9290
15.0048 8.6630 -0.8787 0.9330
13.0857 8.2749 -0.7852 0.9399
12.0997 8.3518 -0.7456 0.9428
11.7009 8.7926 -0.7423 0.9431
10.3071 9.1313 -0.6983 0.9463
9.2714 9.6526 -0.6788 0.9478
8.5514 9.6526 -0.6540 0.9497
6.1039 9.6526 -0.5792 0.9553
4.3726 8.3313 -0.4772 0.9630
3.4635 8.1292 -0.4481 0.9652
2.8143 8.4299 -0.4507 0.9650
2.5087 8.6612 -0.4573 0.9645
2.2456 9.1107 -0.4759 0.9631
1.1636 9.5833 -0.4896 0.9621
-0.0000 8.6907 -0.4407 0.9658
-0.3469 8.6073 -0.4369 0.9661
-0.7820 9.6860 -0.4928 0.9618
-1.1763 9.6880 -0.4949 0.9617
-1.5734 9.6811 -0.4974 0.9615
-1.7742 8.6904 -0.4498 0.9651
-2.3721 9.6241 -0.5027 0.9611
-2.6981 9.3150 -0.4918 0.9619
-2.9084 8.7119 -0.4658 0.9639
-3.1952 8.4251 -0.4570 0.9646
-24.3340 38.4811 -2.3090 0.8333
-29.5472 33.3519 -2.2597 0.8366
-29.9087 31.1383 -2.1896 0.8412
-31.3477 30.1099 -2.2043 0.8402
-30.6382 27.1430 -2.0758 0.8488
-30.2029 22.6960 -1.9160 0.8596
-11.1530 7.6984 -0.6873 0.9472
-29.6856 18.7721 -1.7812 0.8688
-29.8879 17.2558 -1.7502 0.8709
-30.2723 14.3644 -1.6993 0.8744
-29.9431 11.3559 -1.6241 0.8796
-29.9431 9.9965 -1.6009 0.8812
-29.9431 7.3804 -1.5640 0.8838
-30.0569 6.1362 -1.5558 0.8844
-34.0959 0.0000 -2.5000 0.8722
-33.6544 -5.4694 -2.5000 0.8722
-33.1052 -8.1597 -2.5000 0.8722
-32.3412 -10.7971 -2.5000 0.8722
-31.8802 -12.0906 -2.5000 0.8722
-21.7406 -16.3370 -1.9940 0.8967
-20.0587 -16.3774 -1.8987 0.9014
-18.4235 -16.3218 -1.8047 0.9060
-15.5782 -16.2186 -1.6489 0.9138
-14.3773 -16.2286 -1.5897 0.9167
-13.2286 -16.2021 -1.5336 0.9195
-12.2716 -16.3305 -1.4978 0.9213
-11.1505 -16.1543 -1.4392 0.9243
-17.0634 -26.9836 -2.3409 0.8798
-9.3021 -16.1117 -1.3641 0.9281
-6.0822 -16.0375 -1.2576 0.9335
-5.3485 -16.0206 -1.2384 0.9345
-3.9185 -15.8980 -1.2006 0.9364
-3.2608 -15.9725 -1.1953 0.9367
0.0000 -15.8974 -1.1656 0.9382
1.2810 -15.8679 -1.1673 0.9381
3.2303 -15.8230 -1.1841 0.9373
3.8963 -15.8077 -1.1937 0.9368
4.5742 -15.7921 -1.2055 0.9362
5.2668 -15.7761 -1.2195 0.9355
11.3364 -26.6074 -2.1206 0.8905
8.2439 -15.7075 -1.3007 0.9313
9.0579 -15.6888 -1.3283 0.9299
9.9086 -15.6692 -1.3593 0.9283
18.1541 -26.3008 -2.3432 0.8797
13.8022 -15.5795 -1.5261 0.9199
15.0141 -15.6313 -1.5892 0.9167
16.1633 -15.5251 -1.6433 0.9140
17.4897 -15.4946 -1.7133 0.9105
18.9366 -15.4612 -1.7925 0.9066
27.0610 -17.1123 -2.3476 0.8795
30.1905 -15.8452 -2.5000 0.8722
30.8041 -14.6167 -2.5000 0.8722
31.8803 -12.0906 -2.5000 0.8722
32.3413 -10.7971 -2.5000 0.8722
32.7498 -9.4861 -2.5000 0.8722
33.1052 -8.1597 -2.5000 0.8722
33.9854 -2.7436 -2.5000 0.8722
34.0683 -1.3729 -2.5000 0.8722
34.0683 1.3729 -2.5000 0.8722
33.9853 2.7436 -2.5000 0.8722
33.4070 6.8201 -2.5000 0.8722
25.4445 7.3701 -1.9423 0.8992
32.3414 10.7971 -2.5000 0.8722
15.0047 8.6630 -1.2704 0.9329
12.9012 8.1582 -1.1192 0.9406
11.6333 8.7419 -1.0670 0.9433
10.3517 8.4519 -0.9799 0.9478
9.2714 9.6526 -0.9813 0.9477
8.5514 9.6526 -0.9455 0.9496
6.9665 8.5325 -0.8077 0.9568
6.4599 8.5966 -0.7885 0.9578
5.5061 8.7072 -0.7554 0.9595
5.5257 9.5708 -0.8103 0.9566
3.9265 8.2749 -0.6716 0.9639
3.5256 8.2749 -0.6595 0.9646
3.1350 8.2665 -0.6482 0.9652
2.8143 8.4299 -0.6516 0.9650
2.5532 8.8147 -0.6729 0.9639
2.2456 9.1107 -0.6880 0.9631
0.3901 9.6811 -0.7104 0.9619
-0.0000 8.6904 -0.6372 0.9657
-0.3321 8.2413 -0.6048 0.9675
-0.7820 9.6860 -0.7125 0.9618
-1.7741 8.6901 -0.6503 0.9651
-2.3721 9.6241 -0.7268 0.9610
-2.9775 8.9187 -0.6894 0.9630
-3.5333 8.2930 -0.6610 0.9645
-3.9265 8.2749 -0.6716 0.9639
-17.9418 28.3727 -2.4614 0.8740
-20.1667 26.8370 -2.4614 0.8740
-22.2608 25.1272 -2.4614 0.8740
-24.0502 23.1005 -2.4451 0.8748
-24.4008 19.9226 -2.3097 0.8813
-26.6964 16.8818 -2.3160 0.8810
-27.3770 15.8062 -2.3179 0.8809
-29.8571 11.3233 -2.3413 0.8798
-31.6112 5.1373 -2.3482 0.8795
-34.0682 1.3729 -2.5000 0.8722
-26.0180 -1.0485 -2.4999 0.9007
-25.9557 -2.0954 -2.5000 0.9006
-25.5139 -5.2087 -2.5000 0.9006
-24.3480 -9.2340 -2.5000 0.9006
-23.5260 -11.1632 -2.5000 0.9006
-23.0574 -12.1015 -2.5000 0.9006
-22.5515 -13.0201 -2.5000 0.9006
-20.9084 -13.2217 -2.3750 0.9054
-20.1243 -13.8908 -2.3476 0.9064
-17.6442 -16.9492 -2.3490 0.9064
-13.2286 -16.2021 -2.0081 0.9194
-12.2738 -16.3335 -1.9615 0.9212
-11.1505 -16.1543 -1.8845 0.9242
-9.3021 -16.1117 -1.7861 0.9280
-8.4457 -16.0920 -1.7448 0.9296
-7.6268 -16.0731 -1.7080 0.9310
-6.9092 -16.2165 -1.6923 0.9316
-7.3506 -22.0176 -2.2285 0.9109
-4.6357 -16.0042 -1.5996 0.9352
-3.9174 -24.1047 -2.3445 0.9065
-0.9833 -24.3993 -2.3444 0.9065
0.0000 -24.4194 -2.3444 0.9065
0.9833 -24.4002 -2.3444 0.9065
5.2668 -15.7761 -1.5968 0.9354
9.5817 -22.4891 -2.3469 0.9064
8.2439 -15.7075 -1.7031 0.9312
9.9086 -15.6692 -1.7799 0.9282
10.8490 -15.7175 -1.8335 0.9261
16.2426 -18.3341 -2.3516 0.9063
18.3031 -16.2152 -2.3476 0.9064
18.9412 -15.4650 -2.3476 0.9064
20.1242 -13.8907 -2.3476 0.9064
20.8828 -13.2055 -2.3721 0.9055
22.5516 -13.0201 -2.5000 0.9006
23.5260 -11.1632 -2.5000 0.9006
24.3479 -9.2339 -2.5000 0.9006
25.0121 -7.2448 -2.5000 0.9006
25.2835 -6.2318 -2.5000 0.9006
25.7029 -4.1771 -2.5000 0.9006
26.0190 -1.0485 -2.5000 0.9006
26.0401 -0.0000 -2.5000 0.9006
26.0190 1.0485 -2.5000 0.9006
25.9557 2.0954 -2.5000 0.9006
25.8503 3.1388 -2.5000 0.9006
23.7422 5.8519 -2.3476 0.9064
23.4873 6.8032 -2.3476 0.9064
22.9022 8.6857 -2.3515 0.9063
16.5879 7.0675 -1.7310 0.9301
14.9685 7.1026 -1.5906 0.9356
15.0059 7.8757 -1.6270 0.9342
13.0857 8.2749 -1.4864 0.9397
11.7009 8.7926 -1.4052 0.9429
9.5341 8.4465 -1.2229 0.9501
8.5514 9.6526 -1.2381 0.9495
6.7055 8.2128 -1.0179 0.9583
6.1720 8.2135 -0.9864 0.9596
5.4273 8.5827 -0.9749 0.9600
5.5257 9.5708 -1.0610 0.9566
4.3726 8.3313 -0.9033 0.9629
3.8525 8.1190 -0.8628 0.9645
3.4635 8.1292 -0.8483 0.9651
2.5087 8.6612 -0.8657 0.9644
2.2456 9.1107 -0.9008 0.9630
1.3338 8.2070 -0.7982 0.9671
-0.3247 8.0577 -0.7742 0.9681
-0.7816 9.6811 -0.9325 0.9617
-1.1755 9.6811 -0.9363 0.9616
-2.3721 9.6241 -0.9516 0.9610
-2.9084 8.7119 -0.8818 0.9638
-3.1952 8.4251 -0.8651 0.9644
-3.5333 8.2930 -0.8654 0.9644
-4.8047 8.3220 -0.9226 0.9621
-13.7028 21.6691 -2.4614 0.9021
-15.4020 20.4963 -2.4614 0.9021
-16.2148 19.8595 -2.4614 0.9021
-17.0013 19.1905 -2.4614 0.9021
-17.7602 18.4903 -2.4614 0.9021
-19.1904 17.0013 -2.4614 0.9021
-21.6692 13.7028 -2.4614 0.9021
-22.2033 12.8191 -2.4614 0.9021
-22.7015 11.9147 -2.4614 0.9021
-23.5394 10.0292 -2.4565 0.9023
-23.5040 8.9139 -2.4133 0.9039
-23.4691 7.8351 -2.3754 0.9054
-23.4802 6.8011 -2.3469 0.9064
-24.1416 4.9286 -2.3655 0.9057
-24.8698 4.0417 -2.4189 0.9037
-25.8503 3.1388 -2.5000 0.9006
-26.0035 1.0479 -2.4985 0.9007
-21.0461 0.0000 -2.5000 0.9187
-20.9779 -1.6935 -2.5000 0.9187
-20.8927 -2.5368 -2.5000 0.9187
-20.7736 -3.3760 -2.5000 0.9187
-20.6208 -4.2098 -2.5000 0.9187
-20.2152 -5.8554 -2.5000 0.9187
-19.6785 -7.4631 -2.5000 0.9187
-19.0142 -9.0223 -2.5000 0.9187
-17.7880 -11.2484 -2.5000 0.9187
-16.8252 -12.6433 -2.5000 0.9187
-16.1677 -13.2004 -2.4793 0.9194
-14.9229 -13.2205 -2.3682 0.9228
-13.6904 -14.2532 -2.3476 0.9235
-13.1054 -14.7929 -2.3476 0.9235
-11.8748 -15.8025 -2.3480 0.9235
-10.5673 -16.7109 -2.3486 0.9234
-9.8865 -17.1242 -2.3488 0.9234
-9.1987 -17.5267 -2.3513 0.9234
-7.6268 -16.0731 -2.1133 0.9308
-6.8404 -16.0550 -2.0730 0.9321
-6.0822 -16.0375 -2.0374 0.9332
-4.6357 -16.0042 -1.9792 0.9351
-1.9480 -16.0429 -1.9197 0.9370
-1.2975 -16.0717 -1.9153 0.9371
-0.6478 -16.0741 -1.9109 0.9373
0.0000 -16.0504 -1.9066 0.9374
0.6448 -16.0009 -1.9022 0.9375
1.2857 -15.9257 -1.8979 0.9377
3.2303 -15.8230 -1.9183 0.9370
3.8963 -15.8077 -1.9339 0.9365
8.4871 -17.8862 -2.3517 0.9233
8.2781 -15.7727 -2.1159 0.9308
9.8838 -17.1192 -2.3481 0.9235
10.5643 -16.7061 -2.3479 0.9235
11.2269 -16.2649 -2.3476 0.9235
11.8726 -15.7995 -2.3476 0.9235
13.6904 -14.2532 -2.3476 0.9235
14.9099 -13.2090 -2.3661 0.9229
17.3206 -11.9556 -2.5000 0.9187
18.2265 -10.5231 -2.5000 0.9187
19.0144 -9.0223 -2.5000 0.9187
19.6785 -7.4630 -2.5000 0.9187
19.9630 -6.6646 -2.5000 0.9187
20.6208 -4.2098 -2.5000 0.9187
20.7736 -3.3760 -2.5000 0.9187
20.8927 -2.5368 -2.5000 0.9187
20.9779 -1.6935 -2.5000 0.9187
21.0461 0.0000 -2.5000 0.9187
21.0291 0.8475 -2.5000 0.9187
20.9779 1.6935 -2.5000 0.9187
20.8927 2.5368 -2.5000 0.9187
19.1889 4.7296 -2.3476 0.9235
18.9829 5.4985 -2.3476 0.9235
16.6318 7.0862 -2.1475 0.9298
15.0073 7.1211 -1.9732 0.9353
13.0857 8.2749 -1.8391 0.9395
12.0997 8.3518 -1.7464 0.9425
10.3450 8.4465 -1.5864 0.9476
9.2714 9.6526 -1.5898 0.9475
6.1715 8.2128 -1.2203 0.9595
5.6689 8.2128 -1.1854 0.9606
5.5257 9.5708 -1.3128 0.9565
4.3726 8.3313 -1.1177 0.9628
3.8794 8.1757 -1.0749 0.9642
3.4844 8.1783 -1.0560 0.9648
1.3042 8.0252 -0.9658 0.9678
1.1590 9.5450 -1.1421 0.9620
0.7732 9.5780 -1.1414 0.9620
-1.1582 9.5381 -1.1413 0.9620
-1.5422 9.4896 -1.1420 0.9620
-1.7359 8.5030 -1.0309 0.9656
-1.9741 8.0092 -0.9799 0.9673
-2.6981 9.3150 -1.1520 0.9617
-2.9278 8.7698 -1.0983 0.9634
-3.2153 8.4782 -1.0771 0.9641
-3.5333 8.2930 -1.0708 0.9643
-3.8845 8.1863 -1.0763 0.9642
-4.2874 8.1690 -1.0959 0.9635
-4.8047 8.3220 -1.1415 0.9620
-11.6815 15.5455 -2.3098 0.9247
-13.1051 16.0508 -2.4614 0.9199
-17.5134 11.0748 -2.4614 0.9199
-17.9452 10.3606 -2.4614 0.9199
-18.3478 9.6297 -2.4614 0.9199
-19.3782 7.3492 -2.4618 0.9199
-19.7134 6.5813 -2.4687 0.9197
-19.9983 5.7926 -2.4732 0.9196
-20.5350 4.1922 -2.4896 0.9190
-20.8802 2.5353 -2.4985 0.9188
-20.9699 1.6929 -2.4990 0.9187
-17.6441 0.0000 -2.5000 0.9312
-17.6298 -0.7104 -2.5000 0.9312
-17.5869 -1.4198 -2.5000 0.9312
-17.2875 -3.5293 -2.5000 0.9312
-16.9475 -4.9089 -2.5000 0.9312
-16.7361 -5.5873 -2.5000 0.9312
-15.9406 -7.5639 -2.5000 0.9312
-15.2802 -8.8221 -2.5000 0.9312
-14.9126 -9.4302 -2.5000 0.9312
-14.5208 -10.0230 -2.5000 0.9312
-14.1055 -10.5996 -2.5000 0.9312
-13.2068 -11.7002 -2.5000 0.9312
-12.7250 -12.2225 -2.5000 0.9312
-10.7856 -13.2100 -2.4163 0.9334
-9.9534 -13.2456 -2.3476 0.9353
-9.4120 -13.6356 -2.3476 0.9353
-8.8553 -14.0036 -2.3476 0.9353
-7.1028 -14.9688 -2.3476 0.9353
-6.4943 -15.2427 -2.3476 0.9353
-5.2471 -15.7170 -2.3478 0.9353
-4.6102 -15.9163 -2.3479 0.9352
-3.3148 -16.2369 -2.3481 0.9352
-2.6584 -16.3576 -2.3481 0.9352
-1.3335 -16.5190 -2.3482 0.9352
0.0000 -16.5727 -2.3482 0.9352
0.6673 -16.5590 -2.3481 0.9352
1.3335 -16.5184 -2.3481 0.9352
2.6582 -16.3565 -2.3479 0.9352
3.3145 -16.2354 -2.3478 0.9352
3.9653 -16.0880 -2.3477 0.9353
7.1028 -14.9688 -2.3476 0.9353
9.4120 -13.6356 -2.3476 0.9353
9.9534 -13.2456 -2.3476 0.9353
10.7788 -13.2016 -2.4148 0.9335
12.7254 -12.2225 -2.5000 0.9312
13.6672 -11.1589 -2.5000 0.9312
14.5208 -10.0230 -2.5000 0.9312
14.9128 -9.4302 -2.5000 0.9312
15.2803 -8.8221 -2.5000 0.9312
15.6231 -8.1996 -2.5000 0.9312
15.9406 -7.5639 -2.5000 0.9312
16.2322 -6.9159 -2.5000 0.9312
16.4975 -6.2567 -2.5000 0.9312
16.7361 -5.5873 -2.5000 0.9312
16.9475 -4.9089 -2.5000 0.9312
17.1314 -4.2225 -2.5000 0.9312
17.2875 -3.5293 -2.5000 0.9312
17.4156 -2.8303 -2.5000 0.9312
17.5154 -2.1268 -2.5000 0.9312
17.6298 -0.7104 -2.5000 0.9312
17.6441 0.0000 -2.5000 0.9312
17.5869 1.4198 -2.5000 0.9312
16.2337 3.3142 -2.3476 0.9353
16.0871 3.9651 -2.3476 0.9353
15.9144 4.6097 -2.3476 0.9353
15.7159 5.2467 -2.3476 0.9353
15.4918 5.8753 -2.3476 0.9353
15.2427 6.4943 -2.3476 0.9353
14.9407 7.0894 -2.3432 0.9354
14.6161 7.6711 -2.3389 0.9355
14.3039 8.2584 -2.3402 0.9355
12.8439 8.1220 -2.1532 0.9405
10.3450 8.4465 -1.8923 0.9475
8.9205 7.9029 -1.6886 0.9530
5.6689 8.2128 -1.4140 0.9605
5.4273 8.5827 -1.4388 0.9598
5.5257 9.5708 -1.5659 0.9563
4.3726 8.3313 -1.3332 0.9627
2.8143 8.4299 -1.2592 0.9647
2.2456 9.1107 -1.3295 0.9628
1.9648 9.6242 -1.3918 0.9611
1.2758 7.8505 -1.1269 0.9684
0.3590 8.9100 -1.2635 0.9646
-1.4315 8.8085 -1.2644 0.9646
-1.7359 8.5032 -1.2297 0.9655
-1.9305 7.8323 -1.1430 0.9679
-2.6981 9.3150 -1.3741 0.9616
-2.9775 8.9187 -1.3322 0.9627
-3.1952 8.4251 -1.2767 0.9643
-3.5333 8.2930 -1.2772 0.9642
-4.3430 8.2749 -1.3241 0.9629
-4.8047 8.3220 -1.3616 0.9619
-8.7299 13.8052 -2.3143 0.9361
-9.8097 13.0543 -2.3137 0.9362
-10.3211 12.6411 -2.3123 0.9362
-10.8154 12.2080 -2.3109 0.9362
-16.0061 6.8196 -2.4652 0.9321
-16.3355 6.1953 -2.4754 0.9319
-16.5962 5.5406 -2.4791 0.9318
-16.8313 4.8753 -2.4828 0.9317
-17.0785 4.2095 -2.4923 0.9314
-17.2778 3.5273 -2.4986 0.9312
-17.4085 2.8292 -2.4990 0.9312
-17.5115 2.1263 -2.4994 0.9312
-15.1631 -0.6110 -2.5000 0.9403
-15.1262 -1.2211 -2.5000 0.9403
-15.0648 -1.8292 -2.5000 0.9403
-14.8687 -3.0355 -2.5000 0.9403
-14.7344 -3.6317 -2.5000 0.9403
-14.1892 -5.3812 -2.5000 0.9403
-13.7103 -6.5056 -2.5000 0.9403
-12.4891 -8.6206 -2.5000 0.9403
-12.1319 -9.1165 -2.5000 0.9403
-10.9445 -10.5124 -2.5000 0.9403
-10.5124 -10.9445 -2.5000 0.9403
-10.0632 -11.3590 -2.5000 0.9403
-9.1165 -12.1319 -2.5000 0.9403
-6.9284 -13.2011 -2.4561 0.9414
-5.6313 -13.2171 -2.3668 0.9434
-5.0532 -13.3243 -2.3476 0.9439
-3.9647 -13.6877 -2.3476 0.9439
-2.2859 -14.0658 -2.3476 0.9439
-0.0000 -14.2503 -2.3476 0.9439
0.5738 -14.2387 -2.3476 0.9439
1.1467 -14.2041 -2.3476 0.9439
2.8504 -13.9623 -2.3476 0.9439
3.9647 -13.6877 -2.3476 0.9439
4.5126 -13.5169 -2.3476 0.9439
5.6294 -13.2127 -2.3660 0.9434
6.9257 -13.1957 -2.4551 0.9414
7.5876 -13.1423 -2.5000 0.9403
8.1107 -12.8261 -2.5000 0.9403
8.6206 -12.4891 -2.5000 0.9403
9.1165 -12.1319 -2.5000 0.9403
9.5976 -11.7549 -2.5000 0.9403
10.0632 -11.3589 -2.5000 0.9403
10.5124 -10.9445 -2.5000 0.9403
10.9446 -10.5124 -2.5000 0.9403
11.3592 -10.0631 -2.5000 0.9403
11.7549 -9.5976 -2.5000 0.9403
12.1318 -9.1165 -2.5000 0.9403
12.4891 -8.6206 -2.5000 0.9403
12.8261 -8.1107 -2.5000 0.9403
13.7102 -6.5056 -2.5000 0.9403
13.9611 -5.9482 -2.5000 0.9403
14.3944 -4.8056 -2.5000 0.9403
14.7344 -3.6317 -2.5000 0.9403
14.9789 -2.4343 -2.5000 0.9403
15.0648 -1.8292 -2.5000 0.9403
15.1631 -0.6110 -2.5000 0.9403
15.1754 0.0000 -2.5000 0.9403
15.1631 0.6111 -2.5000 0.9403
15.1262 1.2211 -2.5000 0.9403
13.9624 2.8504 -2.3476 0.9439
13.8362 3.4103 -2.3476 0.9439
13.6877 3.9647 -2.3476 0.9439
13.1100 5.5857 -2.3476 0.9439
12.8744 6.1090 -2.3476 0.9439
12.6180 6.6225 -2.3476 0.9439
12.3051 7.1044 -2.3407 0.9440
11.6728 8.0571 -2.3366 0.9441
8.9368 7.9173 -1.9669 0.9528
8.5704 8.2320 -1.9577 0.9530
7.3821 8.3326 -1.8339 0.9559
6.1715 8.2128 -1.6924 0.9592
5.4273 8.5827 -1.6729 0.9597
5.5257 9.5708 -1.8206 0.9562
4.3726 8.3313 -1.5500 0.9626
3.9265 8.2749 -1.5089 0.9636
3.5256 8.2749 -1.4818 0.9642
2.8143 8.4299 -1.4641 0.9646
2.2456 9.1107 -1.5458 0.9627
1.2485 7.6821 -1.2821 0.9689
1.0418 8.5801 -1.4239 0.9656
0.6928 8.5815 -1.4183 0.9657
0.3459 8.5829 -1.4151 0.9658
-0.0000 7.6973 -1.2681 0.9693
-0.3101 7.6959 -1.2688 0.9693
-0.6929 8.5834 -1.4186 0.9657
-1.7360 8.5034 -1.4297 0.9654
-2.9617 8.8713 -1.5408 0.9628
-3.9265 8.2749 -1.5089 0.9636
-4.3291 8.2484 -1.5346 0.9629
-4.8047 8.3220 -1.5831 0.9618
-8.4395 11.2309 -2.3143 0.9446
-8.8849 10.8820 -2.3143 0.9446
-9.3158 10.5154 -2.3143 0.9446
-9.7286 10.1286 -2.3136 0.9447
-10.5023 9.3042 -2.3114 0.9447
-10.8637 8.8699 -2.3104 0.9447
-13.5342 6.4220 -2.4679 0.9411
-14.0957 5.3458 -2.4835 0.9407
-14.3208 4.7810 -2.4872 0.9406
-14.9772 2.4341 -2.4997 0.9403
-15.0648 1.8292 -2.5000 0.9403
-13.3006 0.0000 -2.5000 0.9473
-13.2898 -0.5356 -2.5000 0.9473
-13.2574 -1.0702 -2.5000 0.9473
-13.1283 -2.1336 -2.5000 0.9473
-12.9141 -3.1830 -2.5000 0.9473
-12.4362 -4.7164 -2.5000 0.9473
-12.0164 -5.7018 -2.5000 0.9473
-11.5186 -6.6503 -2.5000 0.9473
-10.9461 -7.5556 -2.5000 0.9473
-10.6330 -7.9902 -2.5000 0.9473
-10.3027 -8.4119 -2.5000 0.9473
-9.9556 -8.8199 -2.5000 0.9473
-9.5924 -9.2136 -2.5000 0.9473
-7.9902 -10.6330 -2.5000 0.9473
-7.5556 -10.9461 -2.5000 0.9473
-6.6503 -11.5186 -2.5000 0.9473
-6.1811 -11.7771 -2.5000 0.9473
-4.2119 -12.6161 -2.5000 0.9473
-2.6605 -13.0318 -2.5000 0.9473
-2.1336 -13.1283 -2.5000 0.9473
0.0000 -13.1939 -2.4799 0.9477
1.6016 -13.1900 -2.4974 0.9474
2.1335 -13.1283 -2.5000 0.9473
2.6604 -13.0318 -2.5000 0.9473
4.2119 -12.6160 -2.5000 0.9473
4.7165 -12.4362 -2.5000 0.9473
5.2148 -12.2362 -2.5000 0.9473
5.7019 -12.0164 -2.5000 0.9473
7.5556 -10.9461 -2.5000 0.9473
7.9902 -10.6330 -2.5000 0.9473
8.8201 -9.9556 -2.5000 0.9473
9.9556 -8.8199 -2.5000 0.9473
10.9461 -7.5556 -2.5000 0.9473
11.2415 -7.1087 -2.5000 0.9473
11.7771 -6.1811 -2.5000 0.9473
12.7754 -3.7004 -2.5000 0.9473
12.9141 -3.1830 -2.5000 0.9473
13.0318 -2.6605 -2.5000 0.9473
13.2898 -0.5356 -2.5000 0.9473
13.2574 1.0703 -2.5000 0.9473
13.2036 1.6032 -2.5000 0.9473
13.1283 2.1336 -2.5000 0.9473
12.1268 2.9890 -2.3476 0.9504
11.9966 3.4749 -2.3476 0.9504
11.8470 3.9551 -2.3476 0.9504
11.0591 5.8043 -2.3476 0.9504
10.8164 6.2449 -2.3476 0.9504
8.9381 7.9185 -2.2445 0.9526
8.5855 8.2465 -2.2376 0.9527
7.7881 8.1083 -2.1132 0.9553
7.8601 9.6269 -2.3360 0.9507
6.1715 8.2128 -1.9310 0.9590
5.4273 8.5827 -1.9087 0.9595
5.5257 9.5708 -2.0772 0.9560
3.1350 8.2665 -1.6618 0.9647
2.8143 8.4299 -1.6705 0.9645
2.2456 9.1107 -1.7637 0.9625
1.5330 7.5091 -1.4405 0.9693
1.2848 7.9056 -1.5054 0.9679
-0.3037 7.5347 -1.4174 0.9698
-0.6781 8.3995 -1.5839 0.9663
-1.0197 8.3981 -1.5901 0.9662
-1.3646 8.3967 -1.5990 0.9660
-1.7139 8.3953 -1.6105 0.9657
-2.9775 8.9187 -1.7673 0.9625
-3.5333 8.2930 -1.6943 0.9640
-3.9265 8.2749 -1.7216 0.9634
-4.3430 8.2749 -1.7566 0.9627
-4.8047 8.3220 -1.8062 0.9616
-6.5842 10.4121 -2.3155 0.9511
-6.9964 10.1360 -2.3150 0.9511
-7.3970 9.8437 -2.3144 0.9511
-8.1649 9.2163 -2.3143 0.9511
-8.5294 8.8800 -2.3143 0.9511
-9.2163 8.1649 -2.3143 0.9511
-9.8379 7.3926 -2.3130 0.9511
-10.1145 6.9816 -2.3101 0.9512
-10.9671 5.7560 -2.3280 0.9508
-11.9110 5.6518 -2.4781 0.9478
-12.9121 3.1826 -2.4996 0.9473
-13.0315 2.6604 -2.4999 0.9473
-13.1283 2.1336 -2.5000 0.9473
-11.8174 -0.4762 -2.5000 0.9528
-11.7886 -0.9517 -2.5000 0.9528
-11.4833 -2.8304 -2.5000 0.9528
-11.0584 -4.1939 -2.5000 0.9528
-10.8806 -4.6358 -2.5000 0.9528
-10.4723 -5.4963 -2.5000 0.9528
-10.2425 -5.9135 -2.5000 0.9528
-9.9960 -6.3211 -2.5000 0.9528
-9.7334 -6.7185 -2.5000 0.9528
-9.4550 -7.1049 -2.5000 0.9528
-9.1613 -7.4799 -2.5000 0.9528
-8.8526 -7.8427 -2.5000 0.9528
-8.5296 -8.1928 -2.5000 0.9528
-8.1928 -8.5296 -2.5000 0.9528
-7.8427 -8.8526 -2.5000 0.9528
-7.1050 -9.4550 -2.5000 0.9528
-6.7185 -9.7334 -2.5000 0.9528
-6.3211 -9.9960 -2.5000 0.9528
-5.9135 -10.2424 -2.5000 0.9528
-5.4963 -10.4723 -2.5000 0.9528
-5.0702 -10.6851 -2.5000 0.9528
-3.2905 -11.3600 -2.5000 0.9528
-1.4256 -11.7407 -2.5000 0.9528
0.4762 -11.8174 -2.5000 0.9528
1.4256 -11.7407 -2.5000 0.9528
1.8972 -11.6738 -2.5000 0.9528
2.3657 -11.5880 -2.5000 0.9528
4.6360 -10.8805 -2.5000 0.9528
5.0701 -10.6851 -2.5000 0.9528
5.4963 -10.4722 -2.5000 0.9528
5.9134 -10.2425 -2.5000 0.9528
6.3212 -9.9960 -2.5000 0.9528
7.1050 -9.4550 -2.5000 0.9528
7.8427 -8.8526 -2.5000 0.9528
8.1928 -8.5296 -2.5000 0.9528
8.5296 -8.1928 -2.5000 0.9528
9.1612 -7.4799 -2.5000 0.9528
9.7334 -6.7185 -2.5000 0.9528
9.9960 -6.3211 -2.5000 0.9528
10.2425 -5.9135 -2.5000 0.9528
10.4723 -5.4963 -2.5000 0.9528
11.0584 -4.1939 -2.5000 0.9528
11.2183 -3.7452 -2.5000 0.9528
11.4833 -2.8304 -2.5000 0.9528
11.5880 -2.3657 -2.5000 0.9528
11.8174 -0.4762 -2.5000 0.9528
11.8270 0.0000 -2.5000 0.9528
11.7407 1.4256 -2.5000 0.9528
11.6738 1.8972 -2.5000 0.9528
11.5880 2.3657 -2.5000 0.9528
11.0223 2.7167 -2.3996 0.9546
10.3843 3.9382 -2.3476 0.9556
9.6181 5.5530 -2.3476 0.9556
9.3867 5.9358 -2.3476 0.9556
9.1400 6.3089 -2.3476 0.9556
8.5858 7.0101 -2.3429 0.9557
7.6409 7.9550 -2.3316 0.9559
5.6880 8.2406 -2.1166 0.9599
4.3726 8.3313 -1.9889 0.9623
3.5256 8.2749 -1.9013 0.9639
2.2456 9.1107 -1.9835 0.9624
1.4344 7.0260 -1.5158 0.9711
0.9963 8.2051 -1.7471 0.9668
0.3308 8.2078 -1.7364 0.9670
-0.9965 8.2070 -1.7475 0.9668
-1.6749 8.2042 -1.7700 0.9663
-2.6981 9.3150 -2.0499 0.9611
-3.1952 8.4251 -1.9047 0.9638
-3.5333 8.2930 -1.9055 0.9638
-3.9265 8.2749 -1.9361 0.9632
-4.3430 8.2749 -1.9754 0.9625
-4.8047 8.3220 -2.0312 0.9615
-5.8571 9.2623 -2.3165 0.9562
-6.2239 9.0170 -2.3160 0.9562
-6.9263 8.4833 -2.3150 0.9562
-7.2608 8.1958 -2.3145 0.9562
-7.5844 7.8962 -2.3143 0.9562
-7.8962 7.5844 -2.3143 0.9562
-9.0902 6.2746 -2.3348 0.9558
-9.8186 5.1532 -2.3439 0.9557
-11.2162 3.7445 -2.4995 0.9528
-11.4833 2.8304 -2.5000 0.9528
-11.5879 2.3657 -2.5000 0.9528
-11.6738 1.8972 -2.5000 0.9528
-11.7408 1.4256 -2.5000 0.9528
-11.7887 0.9517 -2.5000 0.9528
-11.8174 0.4762 -2.5000 0.9528
-10.6372 0.0000 -2.5000 0.9572
-10.6286 -0.4283 -2.5000 0.9572
-10.6027 -0.8559 -2.5000 0.9572
-10.5596 -1.2822 -2.5000 0.9572
-10.3281 -2.5457 -2.5000 0.9572
-10.2172 -2.9594 -2.5000 0.9572
-9.7860 -4.1694 -2.5000 0.9572
-9.6102 -4.5601 -2.5000 0.9572
-9.4188 -4.9433 -2.5000 0.9572
-9.2121 -5.3186 -2.5000 0.9572
-8.9904 -5.6852 -2.5000 0.9572
-8.7542 -6.0426 -2.5000 0.9572
-8.5038 -6.3902 -2.5000 0.9572
-8.2396 -6.7274 -2.5000 0.9572
-7.9621 -7.0538 -2.5000 0.9572
-7.6716 -7.3686 -2.5000 0.9572
-7.0538 -7.9620 -2.5000 0.9572
-6.7275 -8.2396 -2.5000 0.9572
-6.3902 -8.5038 -2.5000 0.9572
-6.0426 -8.7542 -2.5000 0.9572
-5.3186 -9.2121 -2.5000 0.9572
-4.5601 -9.6102 -2.5000 0.9572
-4.1694 -9.7860 -2.5000 0.9572
-3.7720 -9.9459 -2.5000 0.9572
-3.3685 -10.0897 -2.5000 0.9572
-2.5457 -10.3281 -2.5000 0.9572
-2.1277 -10.4222 -2.5000 0.9572
-1.7063 -10.4994 -2.5000 0.9572
-0.0000 -10.6372 -2.5000 0.9572
0.4283 -10.6286 -2.5000 0.9572
1.2822 -10.5596 -2.5000 0.9572
1.7063 -10.4994 -2.5000 0.9572
2.1277 -10.4222 -2.5000 0.9572
2.9595 -10.2172 -2.5000 0.9572
3.7720 -9.9459 -2.5000 0.9572
4.5601 -9.6102 -2.5000 0.9572
4.9434 -9.4187 -2.5000 0.9572
5.3186 -9.2121 -2.5000 0.9572
5.6852 -8.9904 -2.5000 0.9572
6.0426 -8.7542 -2.5000 0.9572
7.3686 -7.6716 -2.5000 0.9572
7.6716 -7.3686 -2.5000 0.9572
8.5038 -6.3902 -2.5000 0.9572
9.2121 -5.3186 -2.5000 0.9572
9.7860 -4.1694 -2.5000 0.9572
10.0898 -3.3685 -2.5000 0.9572
10.2172 -2.9595 -2.5000 0.9572
10.4222 -2.1277 -2.5000 0.9572
10.5596 -1.2822 -2.5000 0.9572
10.6286 -0.4283 -2.5000 0.9572
10.6286 0.4283 -2.5000 0.9572
10.6027 0.8559 -2.5000 0.9572
10.4994 1.7063 -2.5000 0.9572
10.4222 2.1277 -2.5000 0.9572
10.3281 2.5457 -2.5000 0.9572
9.4747 3.1631 -2.3476 0.9598
9.3396 3.5421 -2.3476 0.9598
9.1894 3.9153 -2.3476 0.9598
8.4424 5.3387 -2.3476 0.9598
7.7373 6.3173 -2.3476 0.9598
7.2040 6.9194 -2.3476 0.9598
6.8676 7.1499 -2.3300 0.9601
6.5728 7.4192 -2.3295 0.9601
5.9545 7.9240 -2.3295 0.9601
4.9577 8.5869 -2.3303 0.9601
4.3726 8.3313 -2.2114 0.9621
3.9265 8.2749 -2.1526 0.9631
2.5489 8.7998 -2.1532 0.9631
1.4424 7.0654 -1.6948 0.9708
1.2849 7.9065 -1.8826 0.9676
-0.2847 7.0639 -1.6615 0.9714
-0.9739 8.0210 -1.8990 0.9673
-1.3033 8.0196 -1.9095 0.9672
-1.6370 8.0183 -1.9233 0.9669
-1.7418 7.0668 -1.7106 0.9705
-3.5333 8.2930 -2.1186 0.9636
-3.9265 8.2749 -2.1526 0.9631
-4.2576 8.1121 -2.1532 0.9631
-4.8047 8.3220 -2.2584 0.9613
-5.2698 8.3335 -2.3173 0.9603
-6.5331 7.3743 -2.3155 0.9603
-6.8797 7.1625 -2.3341 0.9600
-7.2038 6.9193 -2.3475 0.9598
-7.4766 6.6237 -2.3475 0.9598
-7.7372 6.3173 -2.3476 0.9598
-7.9854 6.0007 -2.3476 0.9598
-8.4424 5.3387 -2.3476 0.9598
-8.6505 4.9944 -2.3476 0.9598
-8.8446 4.6420 -2.3476 0.9598
-9.0243 4.2821 -2.3476 0.9598
-9.1895 3.9152 -2.3476 0.9598
-10.2172 2.9594 -2.5000 0.9572
-10.4994 1.7063 -2.5000 0.9572
-10.5596 1.2822 -2.5000 0.9572
-10.6027 0.8559 -2.5000 0.9572
-9.6477 -0.3888 -2.5000 0.9609
-9.5305 -1.5488 -2.5000 0.9609
-9.2743 -2.6863 -2.5000 0.9609
-8.8829 -3.7846 -2.5000 0.9609
-8.7233 -4.1392 -2.5000 0.9609
-8.3619 -4.8278 -2.5000 0.9609
-6.4028 -7.2272 -2.5000 0.9609
-5.8005 -7.7190 -2.5000 0.9609
-5.4850 -7.9463 -2.5000 0.9609
-5.1605 -8.1607 -2.5000 0.9609
-4.4871 -8.5495 -2.5000 0.9609
-4.1393 -8.7233 -2.5000 0.9609
-3.7846 -8.8829 -2.5000 0.9609
-3.0576 -9.1586 -2.5000 0.9609
-2.3107 -9.3749 -2.5000 0.9609
-1.9314 -9.4604 -2.5000 0.9609
-1.5489 -9.5305 -2.5000 0.9609
-1.1638 -9.5851 -2.5000 0.9609
-0.7770 -9.6242 -2.5000 0.9609
-0.3888 -9.6477 -2.5000 0.9609
1.1638 -9.5851 -2.5000 0.9609
1.5489 -9.5305 -2.5000 0.9609
2.3107 -9.3749 -2.5000 0.9609
3.0576 -9.1586 -2.5000 0.9609
3.7846 -8.8829 -2.5000 0.9609
4.1392 -8.7233 -2.5000 0.9609
4.4871 -8.5495 -2.5000 0.9609
5.1605 -8.1607 -2.5000 0.9609
5.8005 -7.7190 -2.5000 0.9609
6.9636 -6.6886 -2.5000 0.9609
7.2272 -6.4028 -2.5000 0.9609
7.7190 -5.8005 -2.5000 0.9609
8.5495 -4.4871 -2.5000 0.9609
8.7233 -4.1392 -2.5000 0.9609
8.8829 -3.7846 -2.5000 0.9609
9.0280 -3.4239 -2.5000 0.9609
9.2743 -2.6863 -2.5000 0.9609
9.3749 -2.3107 -2.5000 0.9609
9.5305 -1.5488 -2.5000 0.9609
9.5851 -1.1638 -2.5000 0.9609
9.6242 -0.7769 -2.5000 0.9609
9.6477 -0.3888 -2.5000 0.9609
9.6555 0.0000 -2.5000 0.9609
9.6477 0.3888 -2.5000 0.9609
9.5851 1.1639 -2.5000 0.9609
8.6003 2.8712 -2.3476 0.9632
8.4777 3.2152 -2.3476 0.9632
8.3414 3.5539 -2.3476 0.9632
8.1915 3.8869 -2.3476 0.9632
8.0283 4.2136 -2.3476 0.9632
7.6633 4.8460 -2.3476 0.9632
7.4619 5.1506 -2.3476 0.9632
7.2485 5.4469 -2.3476 0.9632
6.7867 6.0125 -2.3476 0.9632
6.5391 6.2809 -2.3476 0.9632
6.0125 6.7867 -2.3476 0.9632
5.7256 7.0126 -2.3440 0.9633
5.1076 7.3996 -2.3280 0.9635
4.8046 7.5979 -2.3276 0.9635
4.4945 7.7846 -2.3274 0.9635
4.1776 7.9598 -2.3275 0.9635
3.1350 8.2665 -2.2891 0.9641
2.8143 8.4299 -2.3011 0.9639
2.5011 8.6348 -2.3276 0.9635
1.4440 7.0733 -1.8692 0.9706
0.9517 7.8383 -2.0444 0.9679
0.6329 7.8396 -2.0364 0.9680
-0.2850 7.0716 -1.8325 0.9712
-1.2740 7.8388 -2.0562 0.9677
-1.6001 7.8375 -2.0711 0.9675
-1.7438 7.0748 -1.8866 0.9703
-2.4943 8.6113 -2.3213 0.9636
-2.8384 8.5021 -2.3208 0.9636
-3.1777 8.3789 -2.3202 0.9637
-3.5113 8.2413 -2.3194 0.9637
-3.8389 8.0903 -2.3186 0.9637
-5.0835 7.3648 -2.3170 0.9637
-6.2809 6.5391 -2.3476 0.9632
-6.5391 6.2809 -2.3476 0.9632
-7.0233 5.7343 -2.3476 0.9632
-7.2485 5.4469 -2.3476 0.9632
-7.4619 5.1506 -2.3476 0.9632
-7.8522 4.5335 -2.3476 0.9632
-8.0284 4.2136 -2.3476 0.9632
-8.1915 3.8869 -2.3476 0.9632
-8.3414 3.5539 -2.3476 0.9632
-8.4777 3.2152 -2.3476 0.9632
-9.2743 2.6863 -2.5000 0.9609
-9.4603 1.9314 -2.5000 0.9609
-9.5305 1.5489 -2.5000 0.9609
-9.5851 1.1638 -2.5000 0.9609
-8.8310 0.0000 -2.5000 0.9640
-8.7666 -1.0645 -2.5000 0.9640
-8.6525 -1.7664 -2.5000 0.9640
-8.5744 -2.1134 -2.5000 0.9640
-8.3765 -2.7965 -2.5000 0.9640
-7.9783 -3.7858 -2.5000 0.9640
-7.8194 -4.1039 -2.5000 0.9640
-7.6479 -4.4155 -2.5000 0.9640
-6.8405 -5.5851 -2.5000 0.9640
-6.1174 -6.3689 -2.5000 0.9640
-5.8560 -6.6101 -2.5000 0.9640
-5.5851 -6.8405 -2.5000 0.9640
-4.7199 -7.4638 -2.5000 0.9640
-4.4155 -7.6478 -2.5000 0.9640
-4.1040 -7.8194 -2.5000 0.9640
-3.4614 -8.1243 -2.5000 0.9640
-3.1315 -8.2571 -2.5000 0.9640
-2.7965 -8.3765 -2.5000 0.9640
-2.4569 -8.4823 -2.5000 0.9640
-1.7664 -8.6525 -2.5000 0.9640
-0.7106 -8.8023 -2.5000 0.9640
-0.3556 -8.8238 -2.5000 0.9640
-0.0000 -8.8310 -2.5000 0.9640
0.3556 -8.8238 -2.5000 0.9640
0.7106 -8.8023 -2.5000 0.9640
1.0645 -8.7666 -2.5000 0.9640
1.7664 -8.6525 -2.5000 0.9640
2.1134 -8.5744 -2.5000 0.9640
2.7965 -8.3765 -2.5000 0.9640
3.7858 -7.9783 -2.5000 0.9640
4.1039 -7.8194 -2.5000 0.9640
4.4155 -7.6478 -2.5000 0.9640
4.7198 -7.4638 -2.5000 0.9640
5.5851 -6.8405 -2.5000 0.9640
5.8560 -6.6101 -2.5000 0.9640
6.1174 -6.3689 -2.5000 0.9640
6.3689 -6.1174 -2.5000 0.9640
7.2678 -5.0166 -2.5000 0.9640
7.4638 -4.7199 -2.5000 0.9640
7.8194 -4.1040 -2.5000 0.9640
7.9783 -3.7858 -2.5000 0.9640
8.1243 -3.4614 -2.5000 0.9640
8.3765 -2.7965 -2.5000 0.9640
8.5744 -2.1134 -2.5000 0.9640
8.6525 -1.7664 -2.5000 0.9640
8.8023 -0.7106 -2.5000 0.9640
8.8310 0.0000 -2.5000 0.9640
8.8238 0.3556 -2.5000 0.9640
8.6525 1.7664 -2.5000 0.9640
8.4823 2.4569 -2.5000 0.9640
8.1208 2.7111 -2.4237 0.9650
7.7537 2.9406 -2.3476 0.9661
7.1816 4.1463 -2.3476 0.9661
7.0088 4.4321 -2.3476 0.9661
6.4235 5.2446 -2.3476 0.9661
6.2071 5.4990 -2.3476 0.9661
4.7108 6.8247 -2.3476 0.9661
4.1243 7.1434 -2.3351 0.9663
2.9130 7.6809 -2.3255 0.9664
2.6010 7.7909 -2.3252 0.9664
1.9655 7.9743 -2.3250 0.9664
1.4456 7.0813 -2.0460 0.9704
1.2434 7.6510 -2.1944 0.9683
0.9291 7.6523 -2.1822 0.9685
0.6178 7.6536 -2.1737 0.9686
0.3085 7.6548 -2.1688 0.9687
-0.0000 7.6561 -2.1674 0.9687
-0.9294 7.6542 -2.1827 0.9685
-1.2437 7.6529 -2.1949 0.9683
-1.5621 7.6516 -2.2108 0.9681
-2.5947 7.7720 -2.3196 0.9665
-2.9051 7.6602 -2.3193 0.9665
-3.5112 7.3998 -2.3187 0.9665
-3.8059 7.2516 -2.3184 0.9665
-4.1239 7.1428 -2.3349 0.9663
-4.7108 6.8247 -2.3476 0.9661
-4.9817 6.6295 -2.3476 0.9661
-5.4990 6.2071 -2.3476 0.9661
-5.7445 5.9807 -2.3476 0.9661
-6.2071 5.4990 -2.3476 0.9661
-6.4235 5.2446 -2.3476 0.9661
-6.6295 4.9817 -2.3476 0.9661
-7.1816 4.1463 -2.3476 0.9661
-7.3427 3.8538 -2.3476 0.9661
-7.7537 2.9406 -2.3476 0.9661
-8.4823 2.4569 -2.5000 0.9640
-8.7166 1.4166 -2.5000 0.9640
-8.7666 1.0645 -2.5000 0.9640
-8.8023 0.7106 -2.5000 0.9640
-7.8918 -1.9451 -2.5000 0.9666
-7.8070 -2.2613 -2.5000 0.9666
-7.7097 -2.5739 -2.5000 0.9666
-7.5998 -2.8822 -2.5000 0.9666
-7.4776 -3.1859 -2.5000 0.9666
-7.3432 -3.4844 -2.5000 0.9666
-7.1970 -3.7772 -2.5000 0.9666
-7.0390 -4.0640 -2.5000 0.9666
-6.2960 -5.1405 -2.5000 0.9666
-6.0839 -5.3898 -2.5000 0.9666
-4.6172 -6.6892 -2.5000 0.9666
-3.4844 -7.3432 -2.5000 0.9666
-3.1859 -7.4775 -2.5000 0.9666
-2.8822 -7.5998 -2.5000 0.9666
-1.9452 -7.8918 -2.5000 0.9666
-1.6258 -7.9637 -2.5000 0.9666
-0.9797 -8.0687 -2.5000 0.9666
-0.3273 -8.1214 -2.5000 0.9666
0.9797 -8.0687 -2.5000 0.9666
1.3038 -8.0227 -2.5000 0.9666
1.6258 -7.9637 -2.5000 0.9666
1.9451 -7.8918 -2.5000 0.9666
2.8822 -7.5998 -2.5000 0.9666
3.4844 -7.3432 -2.5000 0.9666
3.7773 -7.1969 -2.5000 0.9666
4.0640 -7.0390 -2.5000 0.9666
4.8828 -6.4978 -2.5000 0.9666
5.3898 -6.0839 -2.5000 0.9666
5.6304 -5.8619 -2.5000 0.9666
6.2960 -5.1405 -2.5000 0.9666
6.4978 -4.8828 -2.5000 0.9666
6.8696 -4.3441 -2.5000 0.9666
7.0390 -4.0640 -2.5000 0.9666
7.7097 -2.5739 -2.5000 0.9666
7.9637 -1.6258 -2.5000 0.9666
8.0687 -0.9797 -2.5000 0.9666
8.1016 -0.6540 -2.5000 0.9666
8.1016 0.6540 -2.5000 0.9666
8.0227 1.3038 -2.5000 0.9666
7.7097 2.5739 -2.5000 0.9666
7.1799 2.7230 -2.3619 0.9684
7.0217 2.9917 -2.3476 0.9686
6.6099 3.8162 -2.3476 0.9686
5.7130 5.0613 -2.3476 0.9686
5.5046 5.2872 -2.3476 0.9686
5.0613 5.7130 -2.3476 0.9686
4.8271 5.9121 -2.3476 0.9686
4.3358 6.2814 -2.3476 0.9686
4.0793 6.4509 -2.3476 0.9686
3.8162 6.6099 -2.3476 0.9686
2.9885 7.0143 -2.3451 0.9686
2.6938 7.1031 -2.3366 0.9687
2.1029 7.2599 -2.3248 0.9689
1.2119 7.4572 -2.3238 0.9689
0.3016 7.4843 -2.3039 0.9691
-0.9087 7.4837 -2.3187 0.9689
-1.5093 7.3931 -2.3209 0.9689
-1.7478 7.0911 -2.2464 0.9699
-2.0988 7.2458 -2.3203 0.9689
-2.3966 7.1788 -2.3278 0.9688
-3.2720 6.8956 -2.3476 0.9686
-3.5470 6.7582 -2.3476 0.9686
-4.0793 6.4509 -2.3476 0.9686
-4.3357 6.2814 -2.3476 0.9686
-5.2872 5.5046 -2.3476 0.9686
-5.7130 5.0613 -2.3476 0.9686
-5.9121 4.8271 -2.3476 0.9686
-6.2814 4.3357 -2.3476 0.9686
-6.6099 3.8162 -2.3476 0.9686
-6.8956 3.2720 -2.3476 0.9686
-7.1884 2.7262 -2.3647 0.9683
-7.8071 2.2613 -2.5000 0.9666
-7.9637 1.6258 -2.5000 0.9666
-8.0227 1.3038 -2.5000 0.9666
-8.0687 0.9797 -2.5000 0.9666
-8.1016 0.6540 -2.5000 0.9666
-8.1214 0.3273 -2.5000 0.9666
-7.5209 0.0000 -2.5000 0.9688
-7.5148 -0.3028 -2.5000 0.9688
