ply
format ascii 1.0
element vertex 1578
property float32 x
property float32 y
property float32 z
property float32 I
end_header
-8.4142 -16.0319 -1.3276 0.9300
-7.5983 -16.0131 -1.2996 0.9314
-6.8580 -16.0962 -1.2829 0.9322
-6.0595 -15.9777 -1.2529 0.9338
-5.3285 -15.9608 -1.2338 0.9347
-4.6184 -15.9445 -1.2171 0.9356
-3.9261 -15.9285 -1.2029 0.9363
-2.5836 -15.8976 -1.1809 0.9374
-1.2810 -15.8676 -1.1672 0.9381
-0.0000 -15.8381 -1.1613 0.9385
1.2762 -15.8087 -1.1629 0.9384
1.9177 -15.7939 -1.1665 0.9382
2.5643 -15.7790 -1.1721 0.9379
3.8817 -15.7487 -1.1893 0.9370
4.5572 -15.7331 -1.2010 0.9364
5.2472 -15.7172 -1.2149 0.9357
5.9369 -15.6543 -1.2276 0.9351
7.4340 -15.6669 -1.2715 0.9328
14.8381 -28.2717 -2.3411 0.8798
11.7812 -15.6780 -1.4379 0.9244
14.8834 -15.4953 -1.5753 0.9174
16.1030 -15.4672 -1.6371 0.9143
24.8091 -20.2560 -2.3484 0.8795
27.2579 -20.4830 -2.5000 0.8722
29.5281 -17.0480 -2.5000 0.8722
30.8041 -14.6167 -2.5000 0.8722
32.3413 -10.7971 -2.5000 0.8722
32.7498 -9.4861 -2.5000 0.8722
33.1052 -8.1597 -2.5000 0.8722
33.6544 -5.4694 -2.5000 0.8722
33.8474 -4.1098 -2.5000 0.8722
33.9854 -2.7436 -2.5000 0.8722
34.0959 0.0000 -2.5000 0.8722
33.6545 5.4694 -2.5000 0.8722
33.4070 6.8201 -2.5000 0.8722
33.1053 8.1597 -2.5000 0.8722
32.7499 9.4861 -2.5000 0.8722
31.8804 12.0906 -2.5000 0.8722
31.3677 13.3645 -2.5000 0.8722
17.4738 8.2914 -1.4181 0.9254
12.4297 8.5796 -1.1074 0.9412
10.0206 8.1816 -0.9485 0.9494
9.0419 8.6849 -0.9193 0.9510
8.2198 8.5577 -0.8700 0.9535
7.1115 8.7100 -0.8245 0.9559
6.7718 9.0117 -0.8265 0.9558
6.1039 9.6526 -0.8374 0.9552
5.5729 9.6526 -0.8172 0.9563
5.0661 9.6526 -0.7993 0.9572
4.1923 8.8351 -0.7170 0.9615
1.0047 8.2749 -0.6112 0.9671
0.6592 8.1655 -0.6007 0.9677
0.3377 8.3797 -0.6149 0.9669
-0.0000 8.7989 -0.6452 0.9653
-0.3879 9.6247 -0.7063 0.9621
-0.7769 9.6238 -0.7079 0.9620
-1.0551 8.6892 -0.6418 0.9655
-2.3862 9.6811 -0.7311 0.9608
-4.1248 9.6811 -0.7716 0.9587
-4.3118 9.0868 -0.7375 0.9605
-4.3694 8.3251 -0.6894 0.9630
-5.5763 8.8181 -0.7650 0.9590
-6.1977 8.2476 -0.7564 0.9595
-7.3668 8.3153 -0.8145 0.9564
-23.2545 24.2105 -2.4614 0.8740
-24.2105 23.2545 -2.4614 0.8740
-26.0032 21.2309 -2.4614 0.8740
-26.5041 19.9165 -2.4309 0.8755
-27.9292 14.6584 -2.3127 0.8812
-28.5175 13.5317 -2.3144 0.8811
-29.5517 11.2075 -2.3174 0.8809
-26.6080 8.8831 -2.0568 0.8936
-30.7151 8.8967 -2.3447 0.8796
-31.0727 7.6588 -2.3465 0.8795
-31.3724 6.4047 -2.3477 0.8795
-26.0371 0.0000 -2.4997 0.9007
-25.8503 -3.1388 -2.5000 0.9006
-25.0120 -7.2448 -2.5000 0.9006
-24.7000 -8.2461 -2.5000 0.9006
-20.9068 -13.2207 -2.3748 0.9054
-19.5486 -14.6898 -2.3476 0.9064
-18.9422 -15.4658 -2.3477 0.9064
-14.3236 -16.1680 -2.0737 0.9169
-13.1793 -16.1417 -2.0006 0.9197
-11.1089 -16.0940 -1.8774 0.9244
-10.1634 -16.0722 -1.8256 0.9264
-8.4142 -16.0319 -1.7383 0.9298
-7.5983 -16.0131 -1.7016 0.9313
-6.0595 -15.9777 -1.6405 0.9336
-5.3453 -16.0112 -1.6205 0.9344
-6.7963 -23.4634 -2.3452 0.9065
-5.8454 -23.7158 -2.3450 0.9065
-4.8854 -23.9301 -2.3448 0.9065
-2.9437 -24.2431 -2.3445 0.9065
1.9177 -15.7939 -1.5274 0.9381
2.5643 -15.7790 -1.5347 0.9378
5.9369 -15.6543 -1.6073 0.9349
6.6824 -15.6842 -1.6367 0.9338
12.2310 -21.1847 -2.3485 0.9064
9.8716 -15.6107 -1.7732 0.9285
10.7611 -15.5902 -1.8187 0.9267
11.6990 -15.5686 -1.8696 0.9247
16.2434 -18.3350 -2.3517 0.9063
15.6637 -16.3076 -2.1708 0.9131
18.3034 -16.2152 -2.3476 0.9064
18.9412 -15.4650 -2.3476 0.9064
20.8841 -13.2064 -2.3722 0.9055
23.0574 -12.1015 -2.5000 0.9006
23.9564 -10.2069 -2.5000 0.9006
24.3480 -9.2340 -2.5000 0.9006
25.5139 -5.2087 -2.5000 0.9006
25.7030 -4.1771 -2.5000 0.9006
25.9557 -2.0954 -2.5000 0.9006
26.0402 0.0000 -2.5000 0.9006
26.0190 1.0485 -2.5000 0.9006
25.9557 2.0954 -2.5000 0.9006
25.8503 3.1388 -2.5000 0.9006
22.9107 8.6889 -2.3524 0.9062
22.5512 9.6082 -2.3534 0.9062
13.9815 7.3380 -1.5159 0.9385
12.5195 7.2281 -1.3879 0.9436
12.4308 7.8607 -1.4120 0.9426
12.4297 8.5796 -1.4500 0.9411
12.4287 9.3396 -1.4926 0.9394
9.9668 8.1377 -1.2353 0.9496
9.4627 8.3833 -1.2137 0.9505
9.0419 8.6849 -1.2036 0.9509
8.1129 8.4465 -1.1244 0.9540
7.4829 8.4464 -1.0834 0.9557
6.8963 8.4465 -1.0469 0.9571
6.7718 9.0117 -1.0822 0.9557
6.6627 9.6526 -1.1260 0.9540
4.3308 8.2517 -0.8947 0.9632
3.5480 8.3275 -0.8690 0.9643
3.1714 8.3623 -0.8586 0.9647
2.7722 9.5708 -0.9566 0.9608
2.0819 8.4466 -0.8352 0.9656
1.6896 8.2764 -0.8110 0.9666
1.3448 8.2749 -0.8049 0.9669
1.0047 8.2749 -0.8003 0.9671
0.6592 8.1655 -0.7865 0.9676
-0.0000 8.5947 -0.8251 0.9661
-0.3879 9.6247 -0.9248 0.9620
-0.7769 9.6238 -0.9269 0.9619
-1.0675 8.7915 -0.8502 0.9650
-1.5734 9.6811 -0.9416 0.9614
-1.9764 9.6811 -0.9486 0.9611
-2.5860 8.9280 -0.8924 0.9633
-2.6766 8.0173 -0.8115 0.9666
-4.1248 9.6811 -1.0103 0.9586
-5.2968 9.1743 -1.0170 0.9583
-5.8270 8.4417 -0.9848 0.9596
-6.1977 8.2476 -0.9905 0.9594
-7.3668 8.3153 -1.0665 0.9563
-17.7602 18.4903 -2.4614 0.9021
-19.1905 17.0013 -2.4614 0.9021
-19.8595 16.2147 -2.4614 0.9021
-20.4963 15.4019 -2.4614 0.9021
-21.6692 13.7028 -2.4614 0.9021
-22.2033 12.8191 -2.4614 0.9021
-23.9721 9.0914 -2.4614 0.9021
-24.3188 8.1188 -2.4614 0.9021
-24.9514 6.1500 -2.4672 0.9019
-25.8259 3.1358 -2.4976 0.9007
-26.0087 1.0481 -2.4990 0.9007
-21.0291 -0.8475 -2.5000 0.9187
-20.9779 -1.6935 -2.5000 0.9187
-20.8927 -2.5368 -2.5000 0.9187
-20.6208 -4.2098 -2.5000 0.9187
-20.4346 -5.0367 -2.5000 0.9187
-20.2152 -5.8554 -2.5000 0.9187
-19.9630 -6.6646 -2.5000 0.9187
-19.3621 -8.2494 -2.5000 0.9187
-18.2265 -10.5231 -2.5000 0.9187
-17.7880 -11.2485 -2.5000 0.9187
-17.3207 -11.9556 -2.5000 0.9187
-16.8252 -12.6433 -2.5000 0.9187
-16.1664 -13.1995 -2.4791 0.9194
-14.9218 -13.2196 -2.3680 0.9228
-13.1054 -14.7929 -2.3476 0.9235
-12.4991 -15.3087 -2.3476 0.9235
-11.8744 -15.8019 -2.3479 0.9235
-11.2299 -16.2693 -2.3482 0.9235
-9.1992 -17.5276 -2.3514 0.9234
-7.5983 -16.0131 -2.1054 0.9311
-4.6184 -15.9445 -1.9718 0.9353
-3.9261 -15.9285 -1.9487 0.9361
-2.5836 -15.8976 -1.9132 0.9372
-1.9303 -15.8970 -1.9022 0.9375
0.6376 -15.8234 -1.8811 0.9382
1.2762 -15.8087 -1.8840 0.9381
1.9177 -15.7939 -1.8899 0.9379
2.5643 -15.7790 -1.8989 0.9376
5.2472 -15.7172 -1.9683 0.9354
5.9369 -15.6543 -1.9887 0.9348
7.7591 -18.2114 -2.3514 0.9234
9.8834 -17.1186 -2.3480 0.9235
10.5639 -16.7055 -2.3478 0.9235
12.4991 -15.3086 -2.3476 0.9235
13.1054 -14.7929 -2.3476 0.9235
13.6904 -14.2532 -2.3476 0.9235
14.2532 -13.6904 -2.3476 0.9235
14.9087 -13.2080 -2.3660 0.9229
16.8252 -12.6433 -2.5000 0.9187
17.3206 -11.9556 -2.5000 0.9187
18.2265 -10.5231 -2.5000 0.9187
18.6354 -9.7806 -2.5000 0.9187
19.6785 -7.4631 -2.5000 0.9187
20.2152 -5.8554 -2.5000 0.9187
20.6208 -4.2098 -2.5000 0.9187
20.7736 -3.3761 -2.5000 0.9187
20.8927 -2.5369 -2.5000 0.9187
21.0461 0.0000 -2.5000 0.9187
20.9779 1.6935 -2.5000 0.9187
20.8927 2.5368 -2.5000 0.9187
19.1889 4.7296 -2.3476 0.9235
18.9829 5.4984 -2.3476 0.9235
18.7461 6.2584 -2.3476 0.9235
18.4702 7.0048 -2.3465 0.9235
15.6716 7.4363 -2.0605 0.9325
13.9456 7.3192 -1.8708 0.9385
12.4298 8.5796 -1.7941 0.9410
10.1024 8.2483 -1.5492 0.9488
9.4628 8.3833 -1.5017 0.9504
9.1668 8.8048 -1.5098 0.9501
8.1129 8.4465 -1.3912 0.9539
7.4829 8.4464 -1.3404 0.9556
6.8963 8.4465 -1.2953 0.9570
6.7718 9.0117 -1.3390 0.9556
6.6627 9.6526 -1.3932 0.9539
6.1039 9.6526 -1.3566 0.9550
5.5729 9.6526 -1.3240 0.9561
2.7722 9.5708 -1.1836 0.9607
2.1058 8.5438 -1.0453 0.9652
1.3293 8.1796 -0.9844 0.9672
0.9914 8.1653 -0.9770 0.9674
-0.3879 9.6247 -1.1442 0.9619
-1.3043 8.0253 -0.9658 0.9678
-1.9217 9.4132 -1.1412 0.9620
-2.2978 9.3225 -1.1405 0.9621
-2.6667 7.9876 -1.0003 0.9666
-3.0242 7.9741 -1.0130 0.9662
-3.8048 8.9302 -1.1530 0.9617
-4.2366 8.9284 -1.1739 0.9610
-4.3107 8.2134 -1.1018 0.9633
-4.5594 7.8970 -1.0832 0.9639
-5.4992 8.6962 -1.2222 0.9594
-5.7970 8.3984 -1.2122 0.9597
-6.1977 8.2476 -1.2255 0.9593
-14.0212 13.4675 -2.3094 0.9247
-16.5655 12.4481 -2.4614 0.9199
-17.9452 10.3606 -2.4614 0.9199
-18.3478 9.6297 -2.4614 0.9199
-19.0632 8.1220 -2.4614 0.9199
-19.3778 7.3490 -2.4618 0.9199
-20.5520 4.1957 -2.4916 0.9190
-20.7609 3.3740 -2.4985 0.9188
-20.9741 1.6932 -2.4995 0.9187
-21.0291 0.8474 -2.5000 0.9187
-17.6298 -0.7105 -2.5000 0.9312
-17.5869 -1.4198 -2.5000 0.9312
-17.1314 -4.2225 -2.5000 0.9312
-16.4976 -6.2567 -2.5000 0.9312
-16.2322 -6.9159 -2.5000 0.9312
-15.9406 -7.5639 -2.5000 0.9312
-15.6231 -8.1996 -2.5000 0.9312
-14.9127 -9.4302 -2.5000 0.9312
-14.1055 -10.5996 -2.5000 0.9312
-13.6672 -11.1589 -2.5000 0.9312
-12.7250 -12.2225 -2.5000 0.9312
-11.6891 -13.1943 -2.4976 0.9313
-9.4120 -13.6356 -2.3476 0.9353
-5.2469 -15.7165 -2.3477 0.9353
-3.9656 -16.0892 -2.3479 0.9352
-2.6583 -16.3571 -2.3480 0.9352
0.0000 -16.5721 -2.3481 0.9352
1.3335 -16.5178 -2.3480 0.9352
1.9974 -16.4503 -2.3479 0.9352
3.3144 -16.2349 -2.3478 0.9353
3.9652 -16.0874 -2.3476 0.9353
4.6099 -15.9144 -2.3476 0.9353
5.2467 -15.7159 -2.3476 0.9353
5.8753 -15.4918 -2.3476 0.9353
7.1028 -14.9688 -2.3476 0.9353
7.6998 -14.6707 -2.3476 0.9353
8.2843 -14.3488 -2.3476 0.9353
9.4120 -13.6356 -2.3476 0.9353
12.2225 -12.7250 -2.5000 0.9312
13.2068 -11.7002 -2.5000 0.9312
13.6672 -11.1589 -2.5000 0.9312
14.9126 -9.4302 -2.5000 0.9312
15.2802 -8.8221 -2.5000 0.9312
15.9406 -7.5639 -2.5000 0.9312
16.2322 -6.9159 -2.5000 0.9312
16.7361 -5.5873 -2.5000 0.9312
17.2875 -3.5293 -2.5000 0.9312
17.5869 -1.4198 -2.5000 0.9312
17.5869 1.4198 -2.5000 0.9312
17.5155 2.1268 -2.5000 0.9312
16.2337 3.3141 -2.3476 0.9353
15.4918 5.8753 -2.3476 0.9353
15.2427 6.4943 -2.3476 0.9353
14.9300 7.0843 -2.3415 0.9354
12.4305 7.8606 -2.0839 0.9423
12.4297 8.5796 -2.1400 0.9408
10.1024 8.2483 -1.8479 0.9487
9.4628 8.3833 -1.7913 0.9502
9.1668 8.8048 -1.8009 0.9499
6.4442 7.8927 -1.4437 0.9597
6.1039 9.6526 -1.6182 0.9549
5.5729 9.6526 -1.5792 0.9560
4.3104 8.2128 -1.3142 0.9632
3.8970 8.2128 -1.2880 0.9639
2.7722 9.5708 -1.4118 0.9605
2.0819 8.4466 -1.2326 0.9655
1.6896 8.2764 -1.1969 0.9664
0.6592 8.1655 -1.1607 0.9674
-0.0000 8.5947 -1.2178 0.9659
-0.3879 9.6247 -1.3648 0.9618
-0.7769 9.6239 -1.3680 0.9617
-1.2758 7.8504 -1.1269 0.9684
-2.1595 8.7612 -1.2785 0.9642
-2.6066 7.8077 -1.1663 0.9673
-2.8982 7.6417 -1.1580 0.9675
-3.7323 8.7600 -1.3492 0.9623
-6.7347 8.2485 -1.5088 0.9579
-7.3668 8.3153 -1.5741 0.9561
-11.7800 11.3148 -2.3143 0.9361
-12.2237 10.8292 -2.3139 0.9362
-12.6434 10.3230 -2.3127 0.9362
-13.7765 8.7118 -2.3095 0.9363
-15.0444 8.6859 -2.4614 0.9322
-15.3819 8.0731 -2.4614 0.9322
-16.8533 4.8816 -2.4861 0.9316
-17.2814 3.5280 -2.4991 0.9312
-17.5150 2.1267 -2.4999 0.9312
-17.6299 0.7105 -2.5000 0.9312
-15.1754 0.0000 -2.5000 0.9403
-14.9789 -2.4343 -2.5000 0.9403
-14.8687 -3.0354 -2.5000 0.9403
-14.7344 -3.6317 -2.5000 0.9403
-14.5763 -4.2221 -2.5000 0.9403
-14.3945 -4.8056 -2.5000 0.9403
-14.1893 -5.3813 -2.5000 0.9403
-13.9611 -5.9483 -2.5000 0.9403
-13.7102 -6.5056 -2.5000 0.9403
-11.3590 -10.0632 -2.5000 0.9403
-10.0632 -11.3590 -2.5000 0.9403
-9.5976 -11.7550 -2.5000 0.9403
-8.6206 -12.4891 -2.5000 0.9403
-7.5877 -13.1423 -2.5000 0.9403
-6.9279 -13.2001 -2.4559 0.9414
-6.2676 -13.2086 -2.4085 0.9425
-5.6309 -13.2161 -2.3666 0.9434
-5.0532 -13.3243 -2.3476 0.9439
-3.9647 -13.6877 -2.3476 0.9439
-2.8504 -13.9623 -2.3476 0.9439
-2.2859 -14.0658 -2.3476 0.9439
-1.7177 -14.1464 -2.3476 0.9439
-1.1467 -14.2041 -2.3476 0.9439
-0.5738 -14.2388 -2.3476 0.9439
-0.0000 -14.2503 -2.3476 0.9439
0.5738 -14.2387 -2.3476 0.9439
3.9647 -13.6877 -2.3476 0.9439
4.5126 -13.5169 -2.3476 0.9439
5.0532 -13.3243 -2.3476 0.9439
6.2652 -13.2037 -2.4076 0.9425
7.5877 -13.1423 -2.5000 0.9403
8.1107 -12.8261 -2.5000 0.9403
10.0632 -11.3589 -2.5000 0.9403
10.5124 -10.9445 -2.5000 0.9403
10.9445 -10.5124 -2.5000 0.9403
13.4371 -7.0524 -2.5000 0.9403
14.5762 -4.2221 -2.5000 0.9403
14.7344 -3.6317 -2.5000 0.9403
14.8687 -3.0355 -2.5000 0.9403
14.9789 -2.4343 -2.5000 0.9403
15.1262 -1.2211 -2.5000 0.9403
15.1631 -0.6111 -2.5000 0.9403
15.0647 1.8292 -2.5000 0.9403
14.9789 2.4343 -2.5000 0.9403
13.5169 4.5126 -2.3476 0.9439
13.3242 5.0532 -2.3476 0.9439
13.1100 5.5856 -2.3476 0.9439
12.2939 7.0979 -2.3386 0.9441
11.9979 7.5870 -2.3386 0.9441
10.1242 8.2662 -2.1532 0.9484
9.4628 8.3833 -2.0827 0.9500
9.1668 8.8048 -2.0939 0.9498
8.1129 8.4465 -1.9294 0.9536
7.4829 8.4464 -1.8590 0.9553
6.4558 7.9070 -1.6816 0.9595
5.5073 8.7091 -1.6975 0.9591
5.1607 8.9385 -1.7003 0.9590
3.4991 8.2128 -1.4707 0.9645
3.1147 8.2128 -1.4470 0.9650
2.7722 9.5708 -1.6415 0.9604
2.0819 8.4466 -1.4331 0.9653
1.0047 8.2749 -1.3732 0.9668
0.6592 8.1655 -1.3496 0.9673
0.3377 8.3797 -1.3816 0.9666
-0.0000 8.7989 -1.4495 0.9650
-0.3879 9.6247 -1.5869 0.9617
-0.7770 9.6241 -1.5906 0.9616
-1.0673 8.7899 -1.4587 0.9647
-1.7518 8.5810 -1.4428 0.9651
-2.1154 8.5825 -1.4562 0.9648
-2.4864 8.5840 -1.4722 0.9644
-2.8886 7.6166 -1.3420 0.9675
-4.3108 8.2135 -1.5281 0.9631
-5.7970 8.3984 -1.6811 0.9595
-6.1977 8.2476 -1.6996 0.9590
-7.3668 8.3153 -1.8301 0.9560
-10.1318 9.7317 -2.3143 0.9446
-10.5154 9.3158 -2.3143 0.9446
-11.2309 8.4395 -2.3143 0.9446
-5.0671 3.4975 -1.0143 0.9753
-11.8736 7.5084 -2.3143 0.9446
-12.1444 7.0116 -2.3102 0.9447
-12.4656 6.5425 -2.3192 0.9445
-12.7700 6.0594 -2.3285 0.9443
-13.2892 5.0399 -2.3414 0.9440
-14.3400 4.7874 -2.4905 0.9406
-14.7321 3.6311 -2.4996 0.9403
-15.0648 1.8292 -2.5000 0.9403
-15.1262 1.2211 -2.5000 0.9403
-13.2575 -1.0703 -2.5000 0.9473
-13.1283 -2.1336 -2.5000 0.9473
-12.9141 -3.1830 -2.5000 0.9473
-12.7754 -3.7005 -2.5000 0.9473
-12.6161 -4.2119 -2.5000 0.9473
-11.2415 -7.1087 -2.5000 0.9473
-10.3027 -8.4119 -2.5000 0.9473
-9.2136 -9.5924 -2.5000 0.9473
-8.8199 -9.9556 -2.5000 0.9473
-8.4119 -10.3027 -2.5000 0.9473
-7.1087 -11.2415 -2.5000 0.9473
-6.1809 -11.7770 -2.5000 0.9473
-5.2128 -12.2362 -2.5000 0.9473
-4.2119 -12.6161 -2.5000 0.9473
-2.6605 -13.0318 -2.5000 0.9473
-2.1336 -13.1283 -2.5000 0.9473
-0.5317 -13.1927 -2.4817 0.9477
1.0649 -13.1910 -2.4875 0.9476
1.6014 -13.1890 -2.4972 0.9474
2.1334 -13.1283 -2.5000 0.9473
3.1830 -12.9141 -2.5000 0.9473
4.2118 -12.6161 -2.5000 0.9473
5.2150 -12.2362 -2.5000 0.9473
6.1811 -11.7771 -2.5000 0.9473
6.6503 -11.5186 -2.5000 0.9473
7.1087 -11.2415 -2.5000 0.9473
7.5556 -10.9461 -2.5000 0.9473
7.9902 -10.6330 -2.5000 0.9473
8.4119 -10.3027 -2.5000 0.9473
8.8200 -9.9556 -2.5000 0.9473
9.2137 -9.5924 -2.5000 0.9473
9.5923 -9.2136 -2.5000 0.9473
9.9556 -8.8199 -2.5000 0.9473
10.3027 -8.4119 -2.5000 0.9473
10.6330 -7.9902 -2.5000 0.9473
10.9461 -7.5556 -2.5000 0.9473
11.2415 -7.1087 -2.5000 0.9473
11.5186 -6.6503 -2.5000 0.9473
11.7771 -6.1811 -2.5000 0.9473
12.0164 -5.7018 -2.5000 0.9473
12.2362 -5.2134 -2.5000 0.9473
12.4362 -4.7164 -2.5000 0.9473
12.6161 -4.2119 -2.5000 0.9473
12.9141 -3.1830 -2.5000 0.9473
13.0317 -2.6605 -2.5000 0.9473
13.2036 -1.6032 -2.5000 0.9473
13.2574 -1.0702 -2.5000 0.9473
13.2898 -0.5356 -2.5000 0.9473
13.3006 0.0000 -2.5000 0.9473
13.2898 0.5355 -2.5000 0.9473
13.2574 1.0702 -2.5000 0.9473
13.2036 1.6032 -2.5000 0.9473
13.1283 2.1336 -2.5000 0.9473
13.0317 2.6605 -2.5000 0.9473
11.6781 4.4289 -2.3476 0.9504
11.2838 5.3542 -2.3476 0.9504
11.0591 5.8043 -2.3476 0.9504
10.5562 6.6754 -2.3476 0.9504
10.2546 7.0783 -2.3420 0.9506
9.9352 7.4658 -2.3359 0.9507
9.6294 7.8621 -2.3366 0.9507
8.1437 8.4785 -2.2097 0.9533
5.9962 7.9795 -1.8761 0.9602
5.1607 8.9385 -1.9400 0.9589
3.8970 8.2128 -1.7087 0.9637
3.4991 8.2128 -1.6780 0.9643
2.0819 8.4466 -1.6351 0.9652
1.6896 8.2764 -1.5877 0.9662
-0.0000 8.7989 -1.6538 0.9648
-0.3879 9.6247 -1.8105 0.9616
-0.7770 9.6243 -1.8149 0.9615
-1.1733 7.2193 -1.3748 0.9707
-1.7143 8.3969 -1.6108 0.9657
-2.0700 8.3983 -1.6258 0.9654
-2.4331 8.3998 -1.6437 0.9650
-3.4968 8.2072 -1.6768 0.9643
-3.8936 8.2056 -1.7072 0.9637
-4.3058 8.2039 -1.7415 0.9630
-4.3095 7.4642 -1.6200 0.9655
-5.7970 8.3984 -1.9181 0.9593
-6.1977 8.2476 -1.9391 0.9589
-6.7347 8.2485 -2.0015 0.9576
-8.5368 8.8877 -2.3163 0.9511
-8.8858 8.5349 -2.3158 0.9511
-9.2204 8.1686 -2.3154 0.9511
-9.5397 7.7889 -2.3149 0.9511
-9.8448 7.3979 -2.3147 0.9511
-5.0671 3.4975 -1.1573 0.9753
-10.8132 6.2430 -2.3469 0.9505
-11.6781 4.4289 -2.3476 0.9504
-11.8470 3.9551 -2.3476 0.9504
-12.7754 3.7004 -2.5000 0.9473
-13.0318 2.6605 -2.5000 0.9473
-13.2036 1.6032 -2.5000 0.9473
-11.8270 0.0000 -2.5000 0.9528
-11.5880 -2.3657 -2.5000 0.9528
-11.4833 -2.8304 -2.5000 0.9528
-11.3600 -3.2905 -2.5000 0.9528
-10.2425 -5.9135 -2.5000 0.9528
-9.4550 -7.1050 -2.5000 0.9528
-8.1929 -8.5296 -2.5000 0.9528
-7.1050 -9.4550 -2.5000 0.9528
-6.3211 -9.9961 -2.5000 0.9528
-5.9135 -10.2425 -2.5000 0.9528
-4.1940 -11.0584 -2.5000 0.9528
-3.7452 -11.2183 -2.5000 0.9528
-3.2904 -11.3600 -2.5000 0.9528
-2.3657 -11.5880 -2.5000 0.9528
-0.9517 -11.7886 -2.5000 0.9528
2.3657 -11.5880 -2.5000 0.9528
2.8304 -11.4833 -2.5000 0.9528
3.2905 -11.3600 -2.5000 0.9528
5.0701 -10.6851 -2.5000 0.9528
5.9135 -10.2425 -2.5000 0.9528
8.1928 -8.5296 -2.5000 0.9528
8.5296 -8.1928 -2.5000 0.9528
8.8526 -7.8427 -2.5000 0.9528
9.1612 -7.4799 -2.5000 0.9528
9.4550 -7.1050 -2.5000 0.9528
9.7334 -6.7185 -2.5000 0.9528
10.4722 -5.4963 -2.5000 0.9528
11.2183 -3.7452 -2.5000 0.9528
11.3600 -3.2905 -2.5000 0.9528
11.4833 -2.8304 -2.5000 0.9528
11.6738 -1.8972 -2.5000 0.9528
11.7407 -1.4256 -2.5000 0.9528
11.7886 -0.9517 -2.5000 0.9528
11.8174 0.4762 -2.5000 0.9528
11.7886 0.9517 -2.5000 0.9528
11.7407 1.4256 -2.5000 0.9528
11.5879 2.3657 -2.5000 0.9528
10.5344 3.5169 -2.3476 0.9556
10.3843 3.9382 -2.3476 0.9556
9.8339 5.1612 -2.3476 0.9556
9.6181 5.5530 -2.3476 0.9556
9.1400 6.3089 -2.3476 0.9556
8.8786 6.6718 -2.3476 0.9556
8.5824 7.0073 -2.3420 0.9557
7.6509 7.9654 -2.3346 0.9558
7.3256 8.2689 -2.3351 0.9558
6.0044 7.9904 -2.1127 0.9600
5.1307 8.1136 -2.0292 0.9615
4.3104 8.2128 -1.9606 0.9628
2.8522 8.5434 -1.9039 0.9638
2.0819 8.4466 -1.8389 0.9651
0.6592 8.1655 -1.7316 0.9671
0.3377 8.3797 -1.7727 0.9663
-0.0000 8.7852 -1.8570 0.9647
-0.3879 9.6247 -2.0361 0.9614
-1.1503 7.0782 -1.5158 0.9711
-2.0228 8.2069 -1.7867 0.9660
-2.3776 8.2084 -1.8064 0.9657
-2.6635 7.0229 -1.5877 0.9698
-4.2083 8.0183 -1.9142 0.9637
-4.3096 7.4643 -1.8219 0.9654
-4.4700 7.0687 -1.7679 0.9664
-5.7970 8.3984 -2.1571 0.9591
-6.1977 8.2476 -2.1807 0.9587
-6.6203 8.1084 -2.2127 0.9581
-7.2717 8.2080 -2.3179 0.9562
-7.5929 7.9050 -2.3169 0.9562
-8.2027 7.2670 -2.3165 0.9562
-8.6026 7.0237 -2.3475 0.9556
-8.8786 6.6718 -2.3476 0.9556
-5.0671 3.4975 -1.3015 0.9751
-9.3867 5.9358 -2.3476 0.9556
-10.0337 4.7611 -2.3476 0.9556
-10.2173 4.3532 -2.3476 0.9556
-10.3843 3.9382 -2.3476 0.9556
-10.5344 3.5169 -2.3476 0.9556
-10.6675 3.0899 -2.3476 0.9556
-11.6738 1.8972 -2.5000 0.9528
-11.8174 0.4762 -2.5000 0.9528
-10.6372 0.0000 -2.5000 0.9572
-10.6286 -0.4283 -2.5000 0.9572
-10.6027 -0.8559 -2.5000 0.9572
-10.5596 -1.2822 -2.5000 0.9572
-10.4222 -2.1277 -2.5000 0.9572
-10.2172 -2.9595 -2.5000 0.9572
-10.0898 -3.3685 -2.5000 0.9572
-9.6102 -4.5601 -2.5000 0.9572
-9.2121 -5.3186 -2.5000 0.9572
-8.9905 -5.6852 -2.5000 0.9572
-8.2396 -6.7274 -2.5000 0.9572
-7.6716 -7.3686 -2.5000 0.9572
-7.3687 -7.6716 -2.5000 0.9572
-6.0426 -8.7542 -2.5000 0.9572
-5.6852 -8.9904 -2.5000 0.9572
-5.3186 -9.2121 -2.5000 0.9572
-4.5601 -9.6102 -2.5000 0.9572
-3.7720 -9.9459 -2.5000 0.9572
-3.3685 -10.0898 -2.5000 0.9572
-2.9595 -10.2172 -2.5000 0.9572
-2.5456 -10.3281 -2.5000 0.9572
-2.1277 -10.4222 -2.5000 0.9572
-1.7064 -10.4994 -2.5000 0.9572
-1.2821 -10.5596 -2.5000 0.9572
-0.4284 -10.6286 -2.5000 0.9572
0.0000 -10.6372 -2.5000 0.9572
0.8559 -10.6027 -2.5000 0.9572
1.7063 -10.4994 -2.5000 0.9572
2.9594 -10.2172 -2.5000 0.9572
3.3685 -10.0898 -2.5000 0.9572
3.7720 -9.9459 -2.5000 0.9572
4.1694 -9.7860 -2.5000 0.9572
4.5601 -9.6102 -2.5000 0.9572
4.9434 -9.4188 -2.5000 0.9572
5.3186 -9.2121 -2.5000 0.9572
5.6852 -8.9904 -2.5000 0.9572
6.0426 -8.7542 -2.5000 0.9572
6.3902 -8.5038 -2.5000 0.9572
6.7274 -8.2396 -2.5000 0.9572
7.3686 -7.6716 -2.5000 0.9572
7.6716 -7.3686 -2.5000 0.9572
7.9620 -7.0538 -2.5000 0.9572
8.2396 -6.7274 -2.5000 0.9572
9.2121 -5.3186 -2.5000 0.9572
9.4188 -4.9433 -2.5000 0.9572
9.6102 -4.5601 -2.5000 0.9572
9.7860 -4.1694 -2.5000 0.9572
9.9459 -3.7720 -2.5000 0.9572
10.0897 -3.3685 -2.5000 0.9572
10.5596 -1.2822 -2.5000 0.9572
10.6286 -0.4283 -2.5000 0.9572
10.6372 0.0000 -2.5000 0.9572
10.6285 0.4283 -2.5000 0.9572
10.5596 1.2822 -2.5000 0.9572
10.4995 1.7063 -2.5000 0.9572
9.5943 2.7790 -2.3476 0.9598
9.3396 3.5420 -2.3476 0.9598
9.1894 3.9153 -2.3476 0.9598
9.0243 4.2821 -2.3476 0.9598
8.8446 4.6420 -2.3476 0.9598
8.6505 4.9944 -2.3476 0.9598
8.4424 5.3386 -2.3476 0.9598
8.2205 5.6742 -2.3476 0.9598
7.4767 6.6238 -2.3476 0.9598
7.2037 6.9194 -2.3476 0.9598
6.8759 7.1584 -2.3327 0.9600
5.9622 7.9343 -2.3326 0.9600
5.6387 8.1691 -2.3329 0.9600
4.7617 8.2475 -2.2382 0.9616
4.3290 8.2483 -2.1893 0.9624
3.8921 9.1352 -2.3337 0.9600
3.0071 9.0073 -2.2318 0.9617
2.7611 9.5323 -2.3324 0.9600
2.0819 8.4466 -2.0445 0.9649
1.3448 8.2749 -1.9703 0.9661
-0.0000 8.7989 -2.0679 0.9645
-0.7770 9.6247 -2.2694 0.9611
-1.0674 8.7902 -2.0811 0.9643
-1.1482 7.0649 -1.6822 0.9710
-1.9769 8.0206 -1.9415 0.9666
-3.0128 7.0712 -1.8064 0.9689
-3.7198 7.8393 -2.0393 0.9650
-4.1136 7.8377 -2.0803 0.9643
-4.3096 7.4644 -2.0257 0.9652
-4.4757 7.0777 -1.9681 0.9662
-5.9269 7.8872 -2.3187 0.9603
-6.2390 7.6413 -2.3185 0.9603
-7.2039 6.9194 -2.3476 0.9598
-7.4767 6.6237 -2.3476 0.9598
-7.7373 6.3173 -2.3476 0.9598
-8.4424 5.3386 -2.3476 0.9598
-8.6505 4.9944 -2.3476 0.9598
-8.8446 4.6420 -2.3476 0.9598
-9.1895 3.9153 -2.3476 0.9598
-10.4995 1.7063 -2.5000 0.9572
-10.5596 1.2822 -2.5000 0.9572
-10.6027 0.8559 -2.5000 0.9572
-10.6286 0.4283 -2.5000 0.9572
-9.5851 -1.1639 -2.5000 0.9609
-9.3750 -2.3107 -2.5000 0.9609
-9.0281 -3.4239 -2.5000 0.9609
-8.8829 -3.7846 -2.5000 0.9609
-8.7233 -4.1393 -2.5000 0.9609
-8.5496 -4.4871 -2.5000 0.9609
-8.3619 -4.8278 -2.5000 0.9609
-8.1608 -5.1605 -2.5000 0.9609
-7.9463 -5.4850 -2.5000 0.9609
-7.7190 -5.8005 -2.5000 0.9609
-6.9636 -6.6886 -2.5000 0.9609
-6.1066 -7.4792 -2.5000 0.9609
-5.8005 -7.7190 -2.5000 0.9609
-5.1605 -8.1607 -2.5000 0.9609
-4.8278 -8.3619 -2.5000 0.9609
-4.1393 -8.7233 -2.5000 0.9609
-3.7847 -8.8829 -2.5000 0.9609
-3.4239 -9.0281 -2.5000 0.9609
-2.3107 -9.3749 -2.5000 0.9609
-1.9313 -9.4604 -2.5000 0.9609
-1.5488 -9.5305 -2.5000 0.9609
-0.0000 -9.6555 -2.5000 0.9609
0.3888 -9.6477 -2.5000 0.9609
0.7769 -9.6242 -2.5000 0.9609
1.1638 -9.5851 -2.5000 0.9609
3.0576 -9.1586 -2.5000 0.9609
3.4239 -9.0281 -2.5000 0.9609
3.7846 -8.8829 -2.5000 0.9609
4.4871 -8.5495 -2.5000 0.9609
4.8277 -8.3619 -2.5000 0.9609
5.1605 -8.1608 -2.5000 0.9609
6.4028 -7.2273 -2.5000 0.9609
6.6886 -6.9636 -2.5000 0.9609
7.2272 -6.4028 -2.5000 0.9609
7.4792 -6.1066 -2.5000 0.9609
9.1586 -3.0576 -2.5000 0.9609
9.2743 -2.6863 -2.5000 0.9609
9.5305 -1.5489 -2.5000 0.9609
9.5851 -1.1639 -2.5000 0.9609
9.6555 0.0000 -2.5000 0.9609
9.6477 0.3888 -2.5000 0.9609
9.6242 0.7769 -2.5000 0.9609
9.5305 1.5489 -2.5000 0.9609
9.3749 2.3107 -2.5000 0.9609
8.4777 3.2152 -2.3476 0.9632
8.3414 3.5539 -2.3476 0.9632
8.0283 4.2136 -2.3476 0.9632
7.8521 4.5335 -2.3476 0.9632
7.6633 4.8460 -2.3476 0.9632
7.4619 5.1506 -2.3476 0.9632
7.2485 5.4469 -2.3476 0.9632
7.0233 5.7343 -2.3476 0.9632
6.0125 6.7867 -2.3476 0.9632
5.7233 7.0098 -2.3431 0.9633
5.4088 7.1977 -2.3311 0.9635
4.5003 7.7948 -2.3304 0.9635
4.1831 7.9702 -2.3306 0.9635
2.0819 8.4466 -2.2524 0.9647
1.6896 8.2764 -2.1871 0.9657
1.3340 8.2084 -2.1532 0.9662
1.0024 8.2554 -2.1532 0.9662
-0.7233 8.9600 -2.3275 0.9635
-1.0672 8.7889 -2.2923 0.9641
-1.6002 7.8382 -2.0713 0.9675
-1.9322 7.8392 -2.0905 0.9672
-2.2464 7.7553 -2.0905 0.9672
-2.6842 7.0777 -1.9599 0.9692
-3.6317 7.6536 -2.1934 0.9656
-4.3097 7.4645 -2.2317 0.9650
-4.4815 7.0869 -2.1710 0.9659
-5.0896 7.3735 -2.3198 0.9637
-5.3975 7.1827 -2.3263 0.9636
-5.7333 7.0220 -2.3471 0.9632
-6.0125 6.7867 -2.3476 0.9632
-6.5391 6.2809 -2.3476 0.9632
-7.6633 4.8459 -2.3476 0.9632
-7.8522 4.5335 -2.3476 0.9632
-8.0284 4.2136 -2.3476 0.9632
-8.1915 3.8869 -2.3476 0.9632
-8.6220 2.8785 -2.3535 0.9631
-9.2743 2.6863 -2.5000 0.9609
-9.3750 2.3107 -2.5000 0.9609
-9.5305 1.5489 -2.5000 0.9609
-9.5851 1.1638 -2.5000 0.9609
-9.6477 0.3888 -2.5000 0.9609
-8.8310 0.0000 -2.5000 0.9640
-8.8238 -0.3556 -2.5000 0.9640
-8.8023 -0.7106 -2.5000 0.9640
-8.7666 -1.0645 -2.5000 0.9640
-8.7166 -1.4166 -2.5000 0.9640
-8.6525 -1.7664 -2.5000 0.9640
-8.4823 -2.4569 -2.5000 0.9640
-8.2571 -3.1315 -2.5000 0.9640
-8.1243 -3.4614 -2.5000 0.9640
-7.8194 -4.1040 -2.5000 0.9640
-7.0599 -5.3051 -2.5000 0.9640
-6.1174 -6.3689 -2.5000 0.9640
-5.8560 -6.6101 -2.5000 0.9640
-5.5851 -6.8405 -2.5000 0.9640
-5.3051 -7.0599 -2.5000 0.9640
-5.0166 -7.2677 -2.5000 0.9640
-4.4155 -7.6478 -2.5000 0.9640
-4.1040 -7.8195 -2.5000 0.9640
-3.1315 -8.2571 -2.5000 0.9640
-2.7965 -8.3765 -2.5000 0.9640
-2.4569 -8.4823 -2.5000 0.9640
-1.7664 -8.6525 -2.5000 0.9640
-1.4166 -8.7166 -2.5000 0.9640
-0.3556 -8.8238 -2.5000 0.9640
0.3556 -8.8238 -2.5000 0.9640
0.7106 -8.8023 -2.5000 0.9640
1.0644 -8.7666 -2.5000 0.9640
2.4569 -8.4823 -2.5000 0.9640
2.7965 -8.3765 -2.5000 0.9640
3.4614 -8.1243 -2.5000 0.9640
4.4155 -7.6479 -2.5000 0.9640
4.7198 -7.4638 -2.5000 0.9640
5.3051 -7.0599 -2.5000 0.9640
5.5851 -6.8405 -2.5000 0.9640
5.8560 -6.6101 -2.5000 0.9640
6.3689 -6.1174 -2.5000 0.9640
7.2677 -5.0166 -2.5000 0.9640
7.9783 -3.7858 -2.5000 0.9640
8.2571 -3.1315 -2.5000 0.9640
8.5744 -2.1134 -2.5000 0.9640
8.8023 -0.7106 -2.5000 0.9640
8.8310 0.0000 -2.5000 0.9640
8.7666 1.0645 -2.5000 0.9640
8.7166 1.4166 -2.5000 0.9640
8.5743 2.1134 -2.5000 0.9640
8.1235 2.7120 -2.4245 0.9650
7.4920 3.5550 -2.3476 0.9661
6.6295 4.9817 -2.3476 0.9661
6.4235 5.2446 -2.3476 0.9661
5.9807 5.7445 -2.3476 0.9661
5.4990 6.2071 -2.3476 0.9661
5.2446 6.4235 -2.3476 0.9661
4.9817 6.6295 -2.3476 0.9661
3.8239 7.2859 -2.3294 0.9664
3.5269 7.4328 -2.3290 0.9664
3.2242 7.5675 -2.3287 0.9664
2.9164 7.6900 -2.3283 0.9664
2.6044 7.8010 -2.3282 0.9664
2.2881 7.8993 -2.3282 0.9664
1.3190 8.1158 -2.3277 0.9664
0.9910 8.1615 -2.3274 0.9664
0.6615 8.1938 -2.3271 0.9664
-2.1910 7.5642 -2.2294 0.9678
-3.1890 7.4849 -2.3032 0.9667
-4.1229 7.1410 -2.3343 0.9663
-4.4322 7.0087 -2.3475 0.9661
-4.9818 6.6295 -2.3476 0.9661
-5.2446 6.4235 -2.3476 0.9661
-5.4991 6.2071 -2.3476 0.9661
-5.9807 5.7445 -2.3476 0.9661
-6.2071 5.4990 -2.3476 0.9661
-7.3428 3.8538 -2.3476 0.9661
-7.4920 3.5550 -2.3476 0.9661
-7.6291 3.2504 -2.3476 0.9661
-7.7538 2.9406 -2.3476 0.9661
-8.6525 1.7664 -2.5000 0.9640
-8.0687 -0.9797 -2.5000 0.9666
-7.9637 -1.6258 -2.5000 0.9666
-7.8918 -1.9452 -2.5000 0.9666
-7.7097 -2.5739 -2.5000 0.9666
-7.4776 -3.1859 -2.5000 0.9666
-7.3432 -3.4844 -2.5000 0.9666
-7.0390 -4.0640 -2.5000 0.9666
-6.4979 -4.8828 -2.5000 0.9666
-5.8619 -5.6304 -2.5000 0.9666
-5.3899 -6.0839 -2.5000 0.9666
-5.1405 -6.2960 -2.5000 0.9666
-4.8828 -6.4979 -2.5000 0.9666
-3.7773 -7.1969 -2.5000 0.9666
-3.4844 -7.3432 -2.5000 0.9666
-3.1859 -7.4776 -2.5000 0.9666
-2.5739 -7.7097 -2.5000 0.9666
-2.2613 -7.8071 -2.5000 0.9666
-1.9452 -7.8918 -2.5000 0.9666
-0.9797 -8.0687 -2.5000 0.9666
-0.3273 -8.1214 -2.5000 0.9666
0.6540 -8.1016 -2.5000 0.9666
1.3038 -8.0227 -2.5000 0.9666
2.2613 -7.8071 -2.5000 0.9666
2.8822 -7.5998 -2.5000 0.9666
3.4844 -7.3432 -2.5000 0.9666
3.7772 -7.1970 -2.5000 0.9666
4.0639 -7.0390 -2.5000 0.9666
4.6172 -6.6892 -2.5000 0.9666
5.1405 -6.2960 -2.5000 0.9666
5.8619 -5.6304 -2.5000 0.9666
6.0839 -5.3898 -2.5000 0.9666
6.2959 -5.1405 -2.5000 0.9666
6.4978 -4.8828 -2.5000 0.9666
6.8697 -4.3441 -2.5000 0.9666
7.0390 -4.0640 -2.5000 0.9666
7.1970 -3.7772 -2.5000 0.9666
7.3432 -3.4844 -2.5000 0.9666
7.7096 -2.5739 -2.5000 0.9666
7.9637 -1.6258 -2.5000 0.9666
8.0227 -1.3038 -2.5000 0.9666
8.0687 -0.9797 -2.5000 0.9666
8.1213 -0.3273 -2.5000 0.9666
8.1279 -0.0000 -2.5000 0.9666
8.1016 0.6540 -2.5000 0.9666
8.0227 1.3038 -2.5000 0.9666
7.9637 1.6258 -2.5000 0.9666
7.8070 2.2613 -2.5000 0.9666
6.8956 3.2720 -2.3476 0.9686
6.7582 3.5470 -2.3476 0.9686
6.6099 3.8162 -2.3476 0.9686
6.2814 4.3357 -2.3476 0.9686
6.1017 4.5851 -2.3476 0.9686
5.9121 4.8271 -2.3476 0.9686
5.7130 5.0613 -2.3476 0.9686
5.2872 5.5046 -2.3476 0.9686
5.0613 5.7130 -2.3476 0.9686
4.5851 6.1017 -2.3476 0.9686
3.8162 6.6099 -2.3476 0.9686
3.2720 6.8956 -2.3476 0.9686
2.9873 7.0116 -2.3442 0.9686
2.3966 7.1790 -2.3279 0.9688
1.5132 7.4122 -2.3269 0.9688
1.2133 7.4661 -2.3265 0.9688
0.9116 7.5078 -2.3262 0.9688
0.3044 7.5546 -2.3255 0.9689
-1.8077 7.3341 -2.3233 0.9689
-2.1013 7.2545 -2.3230 0.9689
-2.3945 7.1723 -2.3257 0.9689
-2.9900 7.0179 -2.3463 0.9686
-3.5470 6.7582 -2.3476 0.9686
-4.5852 6.1017 -2.3476 0.9686
-4.8271 5.9121 -2.3476 0.9686
-5.0613 5.7130 -2.3476 0.9686
-5.2872 5.5046 -2.3476 0.9686
-5.5046 5.2872 -2.3476 0.9686
-5.7130 5.0612 -2.3476 0.9686
-6.1017 4.5851 -2.3476 0.9686
-5.0671 3.4975 -1.8937 0.9746
-6.6099 3.8162 -2.3476 0.9686
-6.7582 3.5470 -2.3476 0.9686
-6.8956 3.2720 -2.3476 0.9686
-7.0217 2.9917 -2.3476 0.9686
-7.9637 1.6258 -2.5000 0.9666
-8.0227 1.3038 -2.5000 0.9666
-8.1214 0.3273 -2.5000 0.9666
-7.5209 0.0000 -2.5000 0.9688
-7.5148 -0.3028 -2.5000 0.9688
-7.4965 -0.6052 -2.5000 0.9688
-7.4235 -1.2064 -2.5000 0.9688
-7.3023 -1.7999 -2.5000 0.9688
-7.2240 -2.0925 -2.5000 0.9688
-6.9191 -2.9479 -2.5000 0.9688
-6.7948 -3.2241 -2.5000 0.9688
-6.6594 -3.4951 -2.5000 0.9688
-6.5133 -3.7604 -2.5000 0.9688
-6.3566 -4.0197 -2.5000 0.9688
-6.1896 -4.2724 -2.5000 0.9688
-6.0125 -4.5181 -2.5000 0.9688
-5.8257 -4.7565 -2.5000 0.9688
-5.6295 -4.9873 -2.5000 0.9688
-5.2099 -5.4241 -2.5000 0.9688
-4.7566 -5.8257 -2.5000 0.9688
-4.5181 -6.0125 -2.5000 0.9688
-3.7605 -6.5133 -2.5000 0.9688
-3.2241 -6.7947 -2.5000 0.9688
-2.9479 -6.9191 -2.5000 0.9688
-2.6670 -7.0322 -2.5000 0.9688
-2.3816 -7.1338 -2.5000 0.9688
-2.0924 -7.2239 -2.5000 0.9688
-1.7999 -7.3023 -2.5000 0.9688
-0.6052 -7.4965 -2.5000 0.9688
-0.0000 -7.5209 -2.5000 0.9688
0.9065 -7.4661 -2.5000 0.9688
1.2064 -7.4235 -2.5000 0.9688
2.0924 -7.2240 -2.5000 0.9688
2.6669 -7.0322 -2.5000 0.9688
2.9479 -6.9191 -2.5000 0.9688
3.7604 -6.5133 -2.5000 0.9688
4.0197 -6.3566 -2.5000 0.9688
4.2724 -6.1896 -2.5000 0.9688
4.7565 -5.8257 -2.5000 0.9688
5.6294 -4.9873 -2.5000 0.9688
5.8257 -4.7565 -2.5000 0.9688
6.0125 -4.5181 -2.5000 0.9688
6.3566 -4.0197 -2.5000 0.9688
6.5133 -3.7604 -2.5000 0.9688
6.7947 -3.2241 -2.5000 0.9688
7.0321 -2.6670 -2.5000 0.9688
7.3023 -1.7999 -2.5000 0.9688
7.4965 -0.6052 -2.5000 0.9688
7.5148 -0.3029 -2.5000 0.9688
7.3689 1.5044 -2.5000 0.9688
7.3023 1.7999 -2.5000 0.9688
7.2239 2.0924 -2.5000 0.9688
7.1338 2.3816 -2.5000 0.9688
6.4973 2.7682 -2.3476 0.9707
6.1162 3.5312 -2.3476 0.9707
5.9691 3.7746 -2.3476 0.9707
5.6460 4.2427 -2.3476 0.9707
5.2863 4.6832 -2.3476 0.9707
5.0934 4.8923 -2.3476 0.9707
4.8923 5.0934 -2.3476 0.9707
4.6832 5.2863 -2.3476 0.9707
4.4666 5.4706 -2.3476 0.9707
4.2427 5.6460 -2.3476 0.9707
4.0119 5.8122 -2.3476 0.9707
3.7746 5.9691 -2.3476 0.9707
3.5312 6.1162 -2.3476 0.9707
3.2821 6.2534 -2.3476 0.9707
3.0276 6.3805 -2.3476 0.9707
2.7682 6.4973 -2.3476 0.9707
2.5044 6.6035 -2.3476 0.9707
2.2364 6.6989 -2.3476 0.9707
1.9649 6.7836 -2.3476 0.9707
1.4126 6.9197 -2.3476 0.9707
0.5673 7.0276 -2.3436 0.9707
-0.2838 7.0416 -2.3426 0.9707
-0.5675 7.0288 -2.3440 0.9707
-0.8509 7.0074 -2.3464 0.9707
-1.1330 6.9708 -2.3475 0.9707
-1.4127 6.9197 -2.3476 0.9707
-1.9649 6.7836 -2.3476 0.9707
-2.2365 6.6990 -2.3476 0.9707
-2.5044 6.6035 -2.3476 0.9707
-3.0276 6.3805 -2.3476 0.9707
-3.2821 6.2534 -2.3476 0.9707
-3.7746 5.9691 -2.3476 0.9707
-4.0119 5.8123 -2.3476 0.9707
-4.2427 5.6460 -2.3476 0.9707
-4.4666 5.4706 -2.3476 0.9707
-4.8923 5.0934 -2.3476 0.9707
-5.0934 4.8923 -2.3476 0.9707
-5.2863 4.6832 -2.3476 0.9707
-5.4706 4.4666 -2.3476 0.9707
-6.3805 3.0276 -2.3476 0.9707
-7.0322 2.6669 -2.5000 0.9688
-7.1339 2.3816 -2.5000 0.9688
-7.4235 1.2064 -2.5000 0.9688
-7.4965 0.6052 -2.5000 0.9688
-6.9852 -0.2815 -2.5000 0.9707
-6.9682 -0.5625 -2.5000 0.9707
-6.8496 -1.3984 -2.5000 0.9707
-6.7877 -1.6730 -2.5000 0.9707
-6.3159 -2.9969 -2.5000 0.9707
-6.1901 -3.2488 -2.5000 0.9707
-5.7534 -3.9713 -2.5000 0.9707
-5.5888 -4.1997 -2.5000 0.9707
-5.4152 -4.4213 -2.5000 0.9707
-5.2328 -4.6358 -2.5000 0.9707
-4.8428 -5.0418 -2.5000 0.9707
-4.1997 -5.5888 -2.5000 0.9707
-3.9713 -5.7534 -2.5000 0.9707
-3.7364 -5.9086 -2.5000 0.9707
-3.2488 -6.1901 -2.5000 0.9707
-2.9970 -6.3159 -2.5000 0.9707
-2.4790 -6.5366 -2.5000 0.9707
-2.2138 -6.6311 -2.5000 0.9707
-1.9450 -6.7149 -2.5000 0.9707
-1.1214 -6.9003 -2.5000 0.9707
-0.2815 -6.9852 -2.5000 0.9707
-0.0000 -6.9909 -2.5000 0.9707
0.5625 -6.9682 -2.5000 0.9707
0.8426 -6.9399 -2.5000 0.9707
1.1214 -6.9003 -2.5000 0.9707
1.6730 -6.7877 -2.5000 0.9707
2.7402 -6.4315 -2.5000 0.9707
3.2488 -6.1901 -2.5000 0.9707
3.4954 -6.0543 -2.5000 0.9707
3.7364 -5.9086 -2.5000 0.9707
3.9712 -5.7534 -2.5000 0.9707
4.8427 -5.0418 -2.5000 0.9707
5.0418 -4.8428 -2.5000 0.9707
5.2327 -4.6358 -2.5000 0.9707
5.7534 -3.9713 -2.5000 0.9707
6.0543 -3.4954 -2.5000 0.9707
6.1901 -3.2488 -2.5000 0.9707
6.3159 -2.9969 -2.5000 0.9707
6.4314 -2.7402 -2.5000 0.9707
6.5366 -2.4790 -2.5000 0.9707
6.7148 -1.9450 -2.5000 0.9707
6.8496 -1.3984 -2.5000 0.9707
6.9003 -1.1214 -2.5000 0.9707
6.9399 -0.8427 -2.5000 0.9707
6.9682 -0.5625 -2.5000 0.9707
6.9852 -0.2815 -2.5000 0.9707
6.9908 -0.0000 -2.5000 0.9707
6.9852 0.2815 -2.5000 0.9707
6.9003 1.1214 -2.5000 0.9707
6.8496 1.3984 -2.5000 0.9707
6.6311 2.2138 -2.5000 0.9707
5.9310 2.8142 -2.3476 0.9725
5.6852 3.2824 -2.3476 0.9725
5.5484 3.5086 -2.3476 0.9725
5.4026 3.7292 -2.3476 0.9725
5.2481 3.9437 -2.3476 0.9725
5.0850 4.1518 -2.3476 0.9725
4.9137 4.3532 -2.3476 0.9725
4.5475 4.7345 -2.3476 0.9725
4.3532 4.9137 -2.3476 0.9725
3.9437 5.2481 -2.3476 0.9725
3.7292 5.4026 -2.3476 0.9725
3.2823 5.6852 -2.3476 0.9725
2.8142 5.9309 -2.3476 0.9725
2.5731 6.0394 -2.3476 0.9725
2.3279 6.1381 -2.3476 0.9725
1.5710 6.3739 -2.3476 0.9725
1.3131 6.4320 -2.3476 0.9725
1.0530 6.4797 -2.3476 0.9725
-0.0000 6.5647 -2.3476 0.9725
-0.2643 6.5594 -2.3476 0.9725
-0.5283 6.5434 -2.3476 0.9725
-0.7913 6.5168 -2.3476 0.9725
-1.0531 6.4797 -2.3476 0.9725
-1.3131 6.4320 -2.3476 0.9725
-1.8264 6.3055 -2.3476 0.9725
-3.5086 5.5484 -2.3476 0.9725
-3.7292 5.4026 -2.3476 0.9725
-3.9437 5.2481 -2.3476 0.9725
-4.1518 5.0851 -2.3476 0.9725
-4.5475 4.7345 -2.3476 0.9725
-4.7345 4.5475 -2.3476 0.9725
-5.2481 3.9437 -2.3476 0.9725
-5.9309 2.8142 -2.3476 0.9725
-6.3352 2.6992 -2.4626 0.9712
-6.7149 1.9450 -2.5000 0.9707
-6.9004 1.1214 -2.5000 0.9707
-6.9852 0.2815 -2.5000 0.9707
-3.5504 -0.0000 -1.3606 0.9849
-3.5589 -0.1434 -1.3649 0.9849
-3.5921 -0.4362 -1.3867 0.9846
-6.3341 -1.5612 -2.5000 0.9724
-6.2661 -1.8150 -2.5000 0.9724
-6.1879 -2.0658 -2.5000 0.9724
-6.0016 -2.5571 -2.5000 0.9724
-5.7764 -3.0317 -2.5000 0.9724
-5.6497 -3.2618 -2.5000 0.9724
-5.2153 -3.9190 -2.5000 0.9724
-4.7049 -4.5191 -2.5000 0.9724
-4.5191 -4.7049 -2.5000 0.9724
-4.1259 -5.0533 -2.5000 0.9724
-3.9191 -5.2153 -2.5000 0.9724
-3.7059 -5.3689 -2.5000 0.9724
-3.4867 -5.5137 -2.5000 0.9724
-3.2619 -5.6497 -2.5000 0.9724
-2.7967 -5.8938 -2.5000 0.9724
-2.5571 -6.0016 -2.5000 0.9724
-2.3133 -6.0997 -2.5000 0.9724
-2.0658 -6.1879 -2.5000 0.9724
-1.8150 -6.2661 -2.5000 0.9724
-1.5612 -6.3341 -2.5000 0.9724
-1.3049 -6.3918 -2.5000 0.9724
-0.2627 -6.5184 -2.5000 0.9724
0.2627 -6.5184 -2.5000 0.9724
1.0465 -6.4392 -2.5000 0.9724
1.5612 -6.3341 -2.5000 0.9724
1.8150 -6.2661 -2.5000 0.9724
2.3133 -6.0997 -2.5000 0.9724
2.7966 -5.8938 -2.5000 0.9724
3.0317 -5.7764 -2.5000 0.9724
3.4867 -5.5137 -2.5000 0.9724
3.9190 -5.2153 -2.5000 0.9724
4.3260 -4.8830 -2.5000 0.9724
4.8830 -4.3260 -2.5000 0.9724
5.3688 -3.7059 -2.5000 0.9724
5.6496 -3.2618 -2.5000 0.9724
5.8938 -2.7966 -2.5000 0.9724
6.0997 -2.3133 -2.5000 0.9724
6.1879 -2.0658 -2.5000 0.9724
6.4392 -1.0465 -2.5000 0.9724
6.4761 -0.7863 -2.5000 0.9724
6.5184 0.2627 -2.5000 0.9724
6.5025 0.5249 -2.5000 0.9724
6.4761 0.7863 -2.5000 0.9724
6.4392 1.0465 -2.5000 0.9724
6.3918 1.3049 -2.5000 0.9724
6.3341 1.5612 -2.5000 0.9724
6.1879 2.0658 -2.5000 0.9724
6.0997 2.3133 -2.5000 0.9724
5.4243 2.8469 -2.3476 0.9741
5.3052 3.0630 -2.3476 0.9741
5.1776 3.2741 -2.3476 0.9741
5.0416 3.4799 -2.3476 0.9741
4.4181 4.2436 -2.3476 0.9741
4.2436 4.4181 -2.3476 0.9741
4.0623 4.5854 -2.3476 0.9741
3.4800 5.0416 -2.3476 0.9741
3.2741 5.1776 -2.3476 0.9741
2.6261 5.5345 -2.3476 0.9741
1.9399 5.8107 -2.3476 0.9741
0.7384 6.0813 -2.3476 0.9741
0.4929 6.1061 -2.3476 0.9741
0.2467 6.1210 -2.3476 0.9741
0.0000 6.1260 -2.3476 0.9741
-0.2467 6.1210 -2.3476 0.9741
-0.7384 6.0813 -2.3476 0.9741
-0.9827 6.0466 -2.3476 0.9741
-1.7044 5.8841 -2.3476 0.9741
-1.9399 5.8107 -2.3476 0.9741
-2.4012 5.6358 -2.3476 0.9741
-2.6262 5.5345 -2.3476 0.9741
-3.2742 5.1776 -2.3476 0.9741
-3.4800 5.0416 -2.3476 0.9741
-4.0623 4.5854 -2.3476 0.9741
-4.5854 4.0623 -2.3476 0.9741
-4.7452 3.8743 -2.3476 0.9741
-4.8949 3.6783 -2.3464 0.9741
-4.8892 3.3748 -2.2766 0.9749
-5.1360 3.2478 -2.3287 0.9743
-5.3053 3.0630 -2.3476 0.9741
-5.7055 2.7073 -2.4201 0.9733
-6.0998 2.3133 -2.5000 0.9724
-6.3341 1.5612 -2.5000 0.9724
-6.4392 1.0465 -2.5000 0.9724
-3.5921 0.4362 -1.3867 0.9846
-3.5687 0.2881 -1.3720 0.9848
-3.5589 0.1434 -1.3649 0.9849
-2.8096 -0.2268 -1.1536 0.9879
-5.9308 -1.4618 -2.5000 0.9739
-5.7114 -2.1660 -2.5000 0.9739
-5.6196 -2.3943 -2.5000 0.9739
-5.5186 -2.6186 -2.5000 0.9739
-5.2900 -3.0542 -2.5000 0.9739
-5.0271 -3.4699 -2.5000 0.9739
-4.8833 -3.6695 -2.5000 0.9739
-4.7316 -3.8632 -2.5000 0.9739
-4.5722 -4.0506 -2.5000 0.9739
-4.4054 -4.2314 -2.5000 0.9739
-4.2314 -4.4054 -2.5000 0.9739
-4.0506 -4.5721 -2.5000 0.9739
-3.8632 -4.7315 -2.5000 0.9739
-3.6696 -4.8833 -2.5000 0.9739
-3.4699 -5.0271 -2.5000 0.9739
-3.0542 -5.2900 -2.5000 0.9739
-2.6186 -5.5186 -2.5000 0.9739
-1.9343 -5.7940 -2.5000 0.9739
-1.6995 -5.8672 -2.5000 0.9739
-1.4618 -5.9308 -2.5000 0.9739
-0.7363 -6.0638 -2.5000 0.9739
-0.4915 -6.0885 -2.5000 0.9739
-0.0000 -6.1083 -2.5000 0.9739
0.7363 -6.0638 -2.5000 0.9739
0.9798 -6.0292 -2.5000 0.9739
1.2218 -5.9849 -2.5000 0.9739
1.6994 -5.8672 -2.5000 0.9739
1.9343 -5.7940 -2.5000 0.9739
2.3942 -5.6195 -2.5000 0.9739
2.8387 -5.4087 -2.5000 0.9739
3.8632 -4.7315 -2.5000 0.9739
4.0506 -4.5721 -2.5000 0.9739
4.4053 -4.2314 -2.5000 0.9739
4.5721 -4.0506 -2.5000 0.9739
5.0271 -3.4699 -2.5000 0.9739
5.2900 -3.0542 -2.5000 0.9739
5.4086 -2.8387 -2.5000 0.9739
5.7114 -2.1660 -2.5000 0.9739
5.7940 -1.9343 -2.5000 0.9739
6.0638 -0.7363 -2.5000 0.9739
6.0885 -0.4915 -2.5000 0.9739
6.1034 -0.2460 -2.5000 0.9739
6.1083 -0.0000 -2.5000 0.9739
6.1034 0.2460 -2.5000 0.9739
6.0885 0.4915 -2.5000 0.9739
6.0292 0.9799 -2.5000 0.9739
5.9308 1.4618 -2.5000 0.9739
5.8672 1.6994 -2.5000 0.9739
5.7939 1.9343 -2.5000 0.9739
5.7114 2.1660 -2.5000 0.9739
5.5186 2.6186 -2.5000 0.9739
5.1763 2.7167 -2.3926 0.9751
4.9674 2.8680 -2.3476 0.9755
4.5856 3.4458 -2.3476 0.9755
4.1368 3.9734 -2.3476 0.9755
3.8036 4.2934 -2.3476 0.9755
3.4458 4.5856 -2.3476 0.9755
3.0657 4.8480 -2.3476 0.9755
2.8680 4.9675 -2.3476 0.9755
2.6656 5.0789 -2.3476 0.9755
2.2483 5.2770 -2.3476 0.9755
1.3727 5.5693 -2.3476 0.9755
1.1473 5.6200 -2.3476 0.9755
0.2310 5.7313 -2.3476 0.9755
-0.2310 5.7313 -2.3476 0.9755
-1.1473 5.6200 -2.3476 0.9755
-1.3727 5.5693 -2.3476 0.9755
-1.8164 5.4408 -2.3476 0.9755
-2.4590 5.1821 -2.3476 0.9755
-2.6656 5.0789 -2.3476 0.9755
-3.0657 4.8480 -2.3476 0.9755
-3.4459 4.5856 -2.3476 0.9755
-3.6277 4.4431 -2.3476 0.9755
-3.8037 4.2934 -2.3476 0.9755
-3.9734 4.1368 -2.3476 0.9755
-4.7206 3.2584 -2.3476 0.9755
-4.8480 3.0657 -2.3476 0.9755
-4.9675 2.8680 -2.3476 0.9755
-5.7114 2.1660 -2.5000 0.9739
-5.9308 1.4618 -2.5000 0.9739
-3.0246 0.4915 -1.2541 0.9868
-2.8096 0.2268 -1.1536 0.9879
-2.3650 0.0000 -1.0307 0.9897
-2.3650 -0.1909 -1.0340 0.9897
-2.3794 -0.2889 -1.0446 0.9896
-2.4021 -0.3904 -1.0606 0.9894
-5.5696 -1.3728 -2.5000 0.9753
-5.4411 -1.8165 -2.5000 0.9753
-5.3636 -2.0341 -2.5000 0.9753
-5.2773 -2.2484 -2.5000 0.9753
-5.1825 -2.4591 -2.5000 0.9753
-5.0793 -2.6658 -2.5000 0.9753
-4.8483 -3.0659 -2.5000 0.9753
-4.4434 -3.6279 -2.5000 0.9753
-4.1371 -3.9737 -2.5000 0.9753
-3.9737 -4.1370 -2.5000 0.9753
-3.8039 -4.2937 -2.5000 0.9753
-3.6279 -4.4434 -2.5000 0.9753
-3.4461 -4.5859 -2.5000 0.9753
-2.8682 -4.9678 -2.5000 0.9753
-2.6658 -5.0793 -2.5000 0.9753
-2.4591 -5.1825 -2.5000 0.9753
-2.2485 -5.2773 -2.5000 0.9753
-1.8165 -5.4411 -2.5000 0.9753
-1.5960 -5.5098 -2.5000 0.9753
-1.3728 -5.5696 -2.5000 0.9753
-0.9202 -5.6620 -2.5000 0.9753
-0.4616 -5.7177 -2.5000 0.9753
-0.2310 -5.7317 -2.5000 0.9753
-0.0000 -5.7363 -2.5000 0.9753
0.2310 -5.7317 -2.5000 0.9753
0.4616 -5.7177 -2.5000 0.9753
0.6914 -5.6945 -2.5000 0.9753
1.1474 -5.6204 -2.5000 0.9753
1.3728 -5.5696 -2.5000 0.9753
2.2484 -5.2773 -2.5000 0.9753
2.4591 -5.1825 -2.5000 0.9753
2.6658 -5.0793 -2.5000 0.9753
2.8681 -4.9678 -2.5000 0.9753
3.0659 -4.8483 -2.5000 0.9753
3.2586 -4.7209 -2.5000 0.9753
3.4460 -4.5859 -2.5000 0.9753
3.6279 -4.4434 -2.5000 0.9753
3.8039 -4.2937 -2.5000 0.9753
4.4434 -3.6279 -2.5000 0.9753
4.5859 -3.4461 -2.5000 0.9753
4.8483 -3.0659 -2.5000 0.9753
4.9678 -2.8682 -2.5000 0.9753
5.0792 -2.6658 -2.5000 0.9753
5.4411 -1.8165 -2.5000 0.9753
5.6204 -1.1474 -2.5000 0.9753
5.6621 -0.9202 -2.5000 0.9753
5.6945 -0.6914 -2.5000 0.9753
5.7317 -0.2310 -2.5000 0.9753
5.7317 0.2310 -2.5000 0.9753
5.7177 0.4616 -2.5000 0.9753
5.6945 0.6914 -2.5000 0.9753
5.6620 0.9202 -2.5000 0.9753
5.6204 1.1474 -2.5000 0.9753
5.5696 1.3728 -2.5000 0.9753
5.4411 1.8165 -2.5000 0.9753
5.2773 2.2484 -2.5000 0.9753
5.1825 2.4591 -2.5000 0.9753
4.7121 2.7205 -2.3713 0.9765
4.4331 3.0600 -2.3476 0.9768
4.3063 3.2360 -2.3476 0.9768
4.1725 3.4067 -2.3476 0.9768
4.0319 3.5720 -2.3476 0.9768
3.8849 3.7315 -2.3476 0.9768
3.7314 3.8848 -2.3476 0.9768
3.5720 4.0319 -2.3476 0.9768
3.4067 4.1725 -2.3476 0.9768
3.0599 4.4331 -2.3476 0.9768
2.6933 4.6650 -2.3476 0.9768
2.5033 4.7696 -2.3476 0.9768
1.9101 5.0366 -2.3476 0.9768
1.4986 5.1740 -2.3476 0.9768
1.2891 5.2301 -2.3476 0.9768
0.4334 5.3692 -2.3476 0.9768
0.2169 5.3823 -2.3476 0.9768
-0.2169 5.3823 -2.3476 0.9768
-0.8641 5.3169 -2.3476 0.9768
-1.7058 5.1094 -2.3476 0.9768
-1.9101 5.0366 -2.3476 0.9768
-2.5033 4.7696 -2.3476 0.9768
-2.8790 4.5527 -2.3476 0.9768
-3.0600 4.4331 -2.3476 0.9768
-3.2360 4.3063 -2.3476 0.9768
-4.1725 3.4068 -2.3476 0.9768
-4.3063 3.2360 -2.3476 0.9768
-4.5588 2.8828 -2.3507 0.9767
-4.7064 2.7173 -2.3685 0.9766
-5.2773 2.2484 -2.5000 0.9753
-2.4207 0.4942 -1.0767 0.9893
-2.3794 0.2889 -1.0446 0.9896
-2.3649 0.1909 -1.0340 0.9897
-2.3670 0.0954 -1.0324 0.9897
-2.2030 0.0000 -1.0198 0.9903
-2.2080 -0.2681 -1.0295 0.9902
-2.2302 -0.3625 -1.0459 0.9901
-2.2466 -0.4586 -1.0614 0.9899
-5.1876 -1.5026 -2.5000 0.9765
-5.0499 -1.9152 -2.5000 0.9765
-4.9687 -2.1170 -2.5000 0.9765
-4.8794 -2.3153 -2.5000 0.9765
-4.7823 -2.5099 -2.5000 0.9765
-4.5648 -2.8866 -2.5000 0.9765
-4.4448 -3.0681 -2.5000 0.9765
-4.3177 -3.2445 -2.5000 0.9765
-4.1836 -3.4158 -2.5000 0.9765
-3.8951 -3.7413 -2.5000 0.9765
-3.7413 -3.8951 -2.5000 0.9765
-3.5815 -4.0426 -2.5000 0.9765
-3.2446 -4.3177 -2.5000 0.9765
-2.8866 -4.5648 -2.5000 0.9765
-2.5099 -4.7822 -2.5000 0.9765
-2.3153 -4.8794 -2.5000 0.9765
-1.9152 -5.0499 -2.5000 0.9765
-1.7103 -5.1229 -2.5000 0.9765
-1.0803 -5.2917 -2.5000 0.9765
-0.8664 -5.3309 -2.5000 0.9765
-0.6510 -5.3615 -2.5000 0.9765
-0.4346 -5.3834 -2.5000 0.9765
0.2175 -5.3965 -2.5000 0.9765
0.6510 -5.3615 -2.5000 0.9765
0.8663 -5.3309 -2.5000 0.9765
1.0803 -5.2917 -2.5000 0.9765
1.7103 -5.1229 -2.5000 0.9765
2.1169 -4.9687 -2.5000 0.9765
2.5099 -4.7822 -2.5000 0.9765
2.8866 -4.5648 -2.5000 0.9765
3.0680 -4.4448 -2.5000 0.9765
3.8951 -3.7413 -2.5000 0.9765
4.0426 -3.5815 -2.5000 0.9765
4.3177 -3.2445 -2.5000 0.9765
4.8794 -2.3153 -2.5000 0.9765
5.2440 -1.2925 -2.5000 0.9765
5.2917 -1.0803 -2.5000 0.9765
5.3615 -0.6510 -2.5000 0.9765
5.3965 -0.2175 -2.5000 0.9765
5.3615 0.6510 -2.5000 0.9765
5.3309 0.8664 -2.5000 0.9765
5.2917 1.0803 -2.5000 0.9765
5.2439 1.2925 -2.5000 0.9765
4.9687 2.1170 -2.5000 0.9765
4.7822 2.5099 -2.5000 0.9765
4.0545 3.0467 -2.3476 0.9779
3.9285 3.2075 -2.3476 0.9779
3.7962 3.3631 -2.3476 0.9779
3.5132 3.6577 -2.3476 0.9779
3.3631 3.7962 -2.3476 0.9779
3.2075 3.9285 -2.3476 0.9779
3.0467 4.0545 -2.3476 0.9779
2.7106 4.2865 -2.3476 0.9779
1.9879 4.6658 -2.3476 0.9779
1.6060 4.8106 -2.3476 0.9779
1.4110 4.8714 -2.3476 0.9779
1.2137 4.9243 -2.3476 0.9779
0.8135 5.0060 -2.3476 0.9779
0.4081 5.0552 -2.3476 0.9779
-0.4081 5.0552 -2.3476 0.9779
-0.6113 5.0347 -2.3476 0.9779
-0.8136 5.0060 -2.3476 0.9779
-1.0145 4.9691 -2.3476 0.9779
-1.2137 4.9243 -2.3476 0.9779
-1.6060 4.8106 -2.3476 0.9779
-2.1742 4.5820 -2.3476 0.9779
-2.3569 4.4907 -2.3476 0.9779
-2.8810 4.1739 -2.3476 0.9779
-3.7962 3.3631 -2.3476 0.9779
-3.9285 3.2075 -2.3476 0.9779
-4.0545 3.0467 -2.3476 0.9779
-4.1780 2.8838 -2.3499 0.9779
-4.3061 2.7230 -2.3583 0.9778
-4.7822 2.5099 -2.5000 0.9765
-4.8794 2.3153 -2.5000 0.9765
-5.1229 1.7103 -2.5000 0.9765
-5.1877 1.5026 -2.5000 0.9765
-2.2466 0.4586 -1.0614 0.9899
-2.2302 0.3624 -1.0459 0.9901
-2.2037 0.0888 -1.0209 0.9903
-2.0575 -0.2498 -1.0167 0.9908
-2.1007 -0.5178 -1.0613 0.9904
-4.8343 -1.6139 -2.5000 0.9775
-4.5128 -2.3685 -2.5000 0.9775
-4.3076 -2.7239 -2.5000 0.9775
-4.1944 -2.8952 -2.5000 0.9775
-3.5305 -3.6757 -2.5000 0.9775
-3.3797 -3.8148 -2.5000 0.9775
-3.2233 -3.9478 -2.5000 0.9775
-2.8952 -4.1944 -2.5000 0.9775
-2.5483 -4.4138 -2.5000 0.9775
-2.3685 -4.5128 -2.5000 0.9775
-2.1849 -4.6045 -2.5000 0.9775
-1.9977 -4.6887 -2.5000 0.9775
-1.8073 -4.7654 -2.5000 0.9775
-1.6139 -4.8343 -2.5000 0.9775
-1.4180 -4.8954 -2.5000 0.9775
-1.2197 -4.9485 -2.5000 0.9775
-0.8176 -5.0306 -2.5000 0.9775
-0.6143 -5.0594 -2.5000 0.9775
-0.0000 -5.0966 -2.5000 0.9775
0.4101 -5.0800 -2.5000 0.9775
0.6143 -5.0594 -2.5000 0.9775
1.2197 -4.9485 -2.5000 0.9775
1.8073 -4.7654 -2.5000 0.9775
2.1849 -4.6045 -2.5000 0.9775
2.3685 -4.5128 -2.5000 0.9775
3.2233 -3.9478 -2.5000 0.9775
3.5305 -3.6757 -2.5000 0.9775
3.6756 -3.5305 -2.5000 0.9775
3.8148 -3.3797 -2.5000 0.9775
4.0744 -3.0617 -2.5000 0.9775
4.1944 -2.8952 -2.5000 0.9775
4.4137 -2.5483 -2.5000 0.9775
4.6045 -2.1849 -2.5000 0.9775
4.7654 -1.8073 -2.5000 0.9775
5.0305 -0.8176 -2.5000 0.9775
5.0924 -0.2052 -2.5000 0.9775
5.0965 -0.0000 -2.5000 0.9775
5.0924 0.2052 -2.5000 0.9775
5.0594 0.6143 -2.5000 0.9775
4.9935 1.0194 -2.5000 0.9775
4.9485 1.2197 -2.5000 0.9775
4.7654 1.8073 -2.5000 0.9775
4.6887 1.9977 -2.5000 0.9775
4.5128 2.3685 -2.5000 0.9775
3.9529 2.7285 -2.3561 0.9788
3.8365 2.8829 -2.3540 0.9788
3.5823 3.1736 -2.3476 0.9789
3.4516 3.3153 -2.3476 0.9789
3.3153 3.4516 -2.3476 0.9789
3.1736 3.5823 -2.3476 0.9789
2.7187 3.9387 -2.3476 0.9789
2.3929 4.1447 -2.3476 0.9789
2.0517 4.3238 -2.3476 0.9789
0.7677 4.7239 -2.3476 0.9789
0.5768 4.7510 -2.3476 0.9789
0.1927 4.7820 -2.3476 0.9789
-0.0000 4.7859 -2.3476 0.9789
-0.1927 4.7820 -2.3476 0.9789
-0.7677 4.7239 -2.3476 0.9789
-1.6971 4.4749 -2.3476 0.9789
-2.2241 4.2377 -2.3476 0.9789
-2.3929 4.1447 -2.3476 0.9789
-2.5579 4.0450 -2.3476 0.9789
-2.7187 3.9387 -2.3476 0.9789
-2.8751 3.8260 -2.3476 0.9789
-3.1736 3.5823 -2.3476 0.9789
-3.5823 3.1736 -2.3476 0.9789
-3.7072 3.0268 -2.3476 0.9789
-3.8343 2.8812 -2.3526 0.9789
-3.9505 2.7268 -2.3546 0.9788
-4.4138 2.5483 -2.5000 0.9775
-4.5128 2.3685 -2.5000 0.9775
-4.6887 1.9977 -2.5000 0.9775
-4.8343 1.6139 -2.5000 0.9775
-2.0898 0.4266 -1.0462 0.9905
-2.0575 0.2498 -1.0167 0.9908
-1.9479 0.0000 -1.0105 0.9913
-1.9520 -0.3172 -1.0259 0.9911
-2.3249 -0.6734 -1.2557 0.9892
-4.5710 -1.5260 -2.5000 0.9785
-4.3537 -2.0659 -2.5000 0.9785
-4.2670 -2.2395 -2.5000 0.9785
-4.1734 -2.4095 -2.5000 0.9785
-3.9659 -2.7375 -2.5000 0.9785
-3.8525 -2.8950 -2.5000 0.9785
-3.7328 -3.0477 -2.5000 0.9785
-3.4755 -3.3382 -2.5000 0.9785
-3.1956 -3.6071 -2.5000 0.9785
-3.0478 -3.7328 -2.5000 0.9785
-2.7375 -3.9659 -2.5000 0.9785
-2.4095 -4.1733 -2.5000 0.9785
-2.2395 -4.2670 -2.5000 0.9785
-1.8889 -4.4334 -2.5000 0.9785
-1.7088 -4.5058 -2.5000 0.9785
-1.5260 -4.5710 -2.5000 0.9785
-1.1533 -4.6790 -2.5000 0.9785
-0.7730 -4.7566 -2.5000 0.9785
-0.3878 -4.8034 -2.5000 0.9785
-0.1941 -4.8151 -2.5000 0.9785
-0.0000 -4.8190 -2.5000 0.9785
