ply
format ascii 1.0
element vertex 1573
property float32 x
property float32 y
property float32 z
property float32 I
end_header
-6.6366 -19.8790 1.7741 0.9193
-9.9660 -40.4336 3.5253 0.8461
-4.3587 -21.3501 1.8446 0.9162
-2.9400 -18.0904 1.5515 0.9291
-2.8804 -23.7218 2.0229 0.9085
-1.4852 -18.3980 1.5625 0.9286
0.0000 -18.3275 1.5515 0.9291
3.1522 -15.4403 1.3340 0.9387
4.3363 -17.5931 1.5339 0.9298
5.6348 -16.8783 1.5063 0.9311
15.1055 -39.8301 3.6061 0.8428
11.9431 -20.6860 2.0220 0.9086
13.0882 -20.6972 2.0730 0.9064
19.2926 -15.7519 2.1084 0.9049
46.0546 -15.3753 4.1102 0.8229
42.4048 1.7089 3.5926 0.8434
15.1666 3.0963 1.3104 0.9398
12.8082 9.6247 1.3563 0.9377
11.7348 9.5811 1.2824 0.9410
10.8415 9.6047 1.2261 0.9435
7.0915 8.6855 0.9492 0.9560
6.6030 9.5661 0.9840 0.9544
6.5913 10.4234 1.0440 0.9517
6.5913 12.5587 1.2007 0.9447
6.5913 13.8910 1.3016 0.9401
6.5800 15.4438 1.4211 0.9348
8.8508 23.3376 2.1129 0.9047
2.9951 10.3404 0.9113 0.9577
5.3695 26.3016 2.2724 0.8978
2.9741 24.4943 2.0887 0.9057
0.3649 9.0553 0.7672 0.9643
-0.3363 8.3457 0.7071 0.9670
-1.0047 8.2749 0.7056 0.9671
-1.3448 8.2749 0.7097 0.9669
-2.1677 8.7945 0.7668 0.9643
-3.2132 9.6248 0.8590 0.9601
-4.1307 9.6951 0.8921 0.9586
-4.5911 9.6755 0.9066 0.9579
-5.5894 9.6811 0.9463 0.9561
-6.1220 9.6811 0.9696 0.9551
-7.2325 9.6247 1.0192 0.9528
-7.4352 9.1065 0.9952 0.9539
-7.7987 8.8029 0.9956 0.9539
-8.0657 8.3973 0.9857 0.9543
-8.4899 8.1547 0.9965 0.9538
-9.2309 8.1778 1.0440 0.9517
-36.5373 29.8318 3.9930 0.8275
-35.6602 26.7969 3.7760 0.8361
-27.0501 15.6174 2.6441 0.8822
-27.1379 14.2431 2.5945 0.8842
-34.9294 14.8820 3.2141 0.8586
-46.3813 5.6317 3.9551 0.8290
-25.4942 -17.5974 1.9209 0.8832
-24.8141 -18.6466 1.9248 0.8830
-28.7698 -27.6338 2.4737 0.8523
-22.9543 -30.5467 2.3694 0.8580
-18.7563 -27.1731 2.0474 0.8761
-21.6369 -41.2256 2.8871 0.8298
-8.8705 -20.8198 1.4033 0.9133
-8.0603 -21.2533 1.4095 0.9129
-7.1399 -21.3865 1.3981 0.9136
-4.6832 -19.0004 1.2135 0.9246
-5.1775 -25.3609 1.6051 0.9015
0.0000 -24.9251 1.5456 0.9049
1.5648 -38.8313 2.4099 0.8558
4.2111 -17.0851 1.0912 0.9319
5.6308 -16.8662 1.1026 0.9312
6.4292 -16.9523 1.1243 0.9299
9.8460 -23.1092 1.5577 0.9042
11.0108 -20.9793 1.4692 0.9094
12.7951 -20.2339 1.4845 0.9085
19.2926 -15.7519 1.5445 0.9050
20.8681 7.9142 1.3840 0.9144
15.5353 8.1536 1.0880 0.9321
14.8323 8.5634 1.0620 0.9337
14.4558 9.1413 1.0606 0.9338
12.8833 9.6811 0.9993 0.9375
11.7425 9.5874 0.9400 0.9411
10.9277 9.6811 0.9053 0.9432
8.4933 8.1579 0.7303 0.9539
7.3877 8.3390 0.6908 0.9563
6.6030 9.5661 0.7208 0.9545
6.6364 15.5761 1.0499 0.9344
3.6110 10.8163 0.7071 0.9553
2.8021 9.6740 0.6245 0.9604
3.7484 23.0650 1.4490 0.9106
0.3649 9.0553 0.5620 0.9643
-1.0047 8.2749 0.5169 0.9671
-1.3448 8.2749 0.5199 0.9670
-1.6976 8.3152 0.5263 0.9666
-2.7879 9.6248 0.6214 0.9606
-3.2132 9.6248 0.6292 0.9601
-4.1247 9.6811 0.6525 0.9587
-4.5911 9.6756 0.6641 0.9580
-5.0514 9.6247 0.6740 0.9574
-5.5975 9.6951 0.6942 0.9561
-6.1283 9.6911 0.7110 0.9551
-6.6435 9.6248 0.7252 0.9542
-7.2325 9.6247 0.7466 0.9529
-7.4352 9.1065 0.7290 0.9540
-7.7719 8.7727 0.7268 0.9541
-35.7527 26.8664 2.7732 0.8359
-35.0218 22.1465 2.5695 0.8470
-7.2335 3.4324 0.4965 0.9684
-30.5445 11.5840 2.0257 0.8773
-40.6393 13.5674 2.6568 0.8422
-35.5531 5.7780 2.2336 0.8656
-46.7992 5.6824 2.9233 0.8278
-26.8786 -16.9970 1.2540 0.8805
-25.5646 -17.6460 1.2249 0.8831
-15.5642 -17.5684 0.9255 0.9103
-21.4760 -28.5793 1.4096 0.8667
-18.2223 -26.3995 1.2649 0.8795
-17.1599 -27.1362 1.2660 0.8794
-17.5516 -30.4003 1.3842 0.8689
-21.3517 -40.6822 1.8117 0.8320
-20.0204 -42.1920 1.8415 0.8295
-10.1059 -26.6472 1.1238 0.8922
-8.6421 -25.8862 1.0761 0.8965
-6.1088 -21.0900 0.8658 0.9159
-5.2877 -21.4532 0.8712 0.9153
-4.5351 -22.2147 0.8940 0.9132
-2.8540 -23.5052 0.9336 0.9096
-1.6045 -19.8749 0.7862 0.9233
-0.9610 -23.8471 0.9411 0.9089
0.0000 -25.7483 1.0153 0.9021
1.6563 -20.5171 0.8116 0.9209
3.3510 -16.4144 0.6606 0.9351
4.0142 -16.2861 0.6614 0.9351
4.5497 -15.7074 0.6448 0.9366
6.0879 -16.0526 0.6770 0.9336
8.9016 -18.7597 0.8188 0.9202
11.4187 -19.7777 0.9005 0.9126
13.6978 -19.8446 0.9508 0.9080
19.2926 -15.7519 0.9821 0.9051
14.4558 9.1413 0.6744 0.9338
13.9439 9.6248 0.6681 0.9344
12.8833 9.6811 0.6354 0.9375
11.7425 9.5874 0.5977 0.9411
10.9277 9.6811 0.5757 0.9432
8.4933 8.1579 0.4644 0.9540
7.9481 8.2749 0.4524 0.9551
7.3877 8.3390 0.4393 0.9564
6.8139 9.0677 0.4472 0.9556
6.5913 10.4233 0.4863 0.9518
6.6965 11.5986 0.5281 0.9478
6.5913 12.5587 0.5593 0.9448
6.6364 15.5761 0.6676 0.9345
8.8633 23.3708 0.9856 0.9048
3.6098 10.8126 0.4495 0.9554
9.6335 33.2587 1.3653 0.8706
2.3727 9.6265 0.3909 0.9611
0.3649 9.0553 0.3574 0.9644
0.0000 8.7587 0.3454 0.9655
-0.6583 8.1548 0.3226 0.9678
-1.3448 8.2749 0.3306 0.9670
-2.1677 8.7945 0.3571 0.9644
-2.7879 9.6248 0.3951 0.9607
-3.6716 9.6811 0.4083 0.9594
-4.1247 9.6811 0.4149 0.9587
-4.5912 9.6757 0.4223 0.9580
-5.5894 9.6811 0.4408 0.9562
-6.1271 9.6892 0.4520 0.9551
-6.6435 9.6248 0.4611 0.9543
-7.4352 9.1065 0.4636 0.9540
-7.7987 8.8029 0.4637 0.9540
-9.2309 8.1778 0.4863 0.9518
-34.9778 22.1187 1.6318 0.8473
-27.4075 15.8237 1.2479 0.8810
-27.2902 14.3230 1.2153 0.8839
-7.2335 3.4324 0.3157 0.9685
-35.8326 13.5895 1.5111 0.8578
-40.4838 13.5155 1.6829 0.8429
-37.3078 10.8063 1.5316 0.8560
-37.5392 6.1007 1.4996 0.8588
-45.9240 5.5762 1.8241 0.8309
-26.4531 -16.7279 0.5287 0.8823
-25.8382 -17.8348 0.5303 0.8820
-25.5338 -22.6210 0.5762 0.8724
-25.9309 -24.9071 0.6073 0.8660
-19.5933 -20.3988 0.4778 0.8930
-15.5623 -17.5662 0.3964 0.9104
-21.7354 -26.6210 0.5805 0.8715
-20.7813 -27.6550 0.5843 0.8708
-27.9426 -40.4818 0.8309 0.8214
-17.0705 -26.9947 0.5395 0.8801
-16.9049 -29.2801 0.5711 0.8735
-8.4516 -16.1033 0.3072 0.9298
-12.2567 -25.8305 0.4830 0.8919
-19.4252 -45.5926 0.8371 0.8202
-5.0892 -20.6476 0.3592 0.9184
-1.6040 -19.8695 0.3367 0.9233
-0.9928 -24.6365 0.4165 0.9061
0.0000 -24.5504 0.4147 0.9065
1.5025 -18.6121 0.3154 0.9280
2.2428 -18.4706 0.3143 0.9283
3.7808 -15.3391 0.2669 0.9388
4.6712 -16.1267 0.2836 0.9350
5.6070 -16.7950 0.2991 0.9316
6.5338 -17.2281 0.3112 0.9289
11.5458 -19.9979 0.3901 0.9118
9.8517 -15.5791 0.3114 0.9289
42.2626 5.1316 0.7191 0.8434
15.5354 8.1536 0.2964 0.9322
14.9582 8.6361 0.2918 0.9332
13.9439 9.6248 0.2862 0.9345
11.7425 9.5874 0.2561 0.9412
10.9277 9.6811 0.2466 0.9433
8.8633 23.3708 0.4222 0.9048
3.6085 10.8089 0.1925 0.9554
7.7930 26.9045 0.4731 0.8940
6.2094 25.1925 0.4383 0.9014
1.6254 10.0013 0.1712 0.9603
1.2336 10.1598 0.1729 0.9599
0.8271 10.2461 0.1736 0.9597
-0.3363 8.3457 0.1411 0.9671
-0.6583 8.1548 0.1382 0.9678
-1.0047 8.2749 0.1408 0.9672
-1.6976 8.3152 0.1434 0.9666
-2.7879 9.6248 0.1693 0.9607
-3.6716 9.6811 0.1749 0.9594
-4.5912 9.6758 0.1809 0.9581
-5.0515 9.6248 0.1836 0.9574
-5.5894 9.6811 0.1888 0.9563
-6.1272 9.6893 0.1936 0.9552
-7.2325 9.6247 0.2034 0.9530
-7.4352 9.1065 0.1986 0.9541
-8.0657 8.3973 0.1967 0.9545
-8.4899 8.1547 0.1988 0.9540
-36.6164 29.8963 0.7985 0.8277
-38.4487 26.5392 0.7892 0.8295
-36.2898 19.0464 0.6923 0.8488
-7.2335 3.4324 0.1352 0.9685
-34.9399 14.8865 0.6415 0.8590
-47.4822 13.7534 0.8350 0.8206
-36.7343 9.0542 0.6391 0.8595
-46.1131 3.7226 0.7815 0.8310
-44.5598 -21.1439 -0.2777 0.8210
-22.8888 -18.6881 -0.1664 0.8885
-20.1817 -19.3848 -0.1576 0.8941
-19.9590 -20.7795 -0.1622 0.8911
-15.5603 -17.5640 -0.1321 0.9104
-22.0267 -26.9778 -0.1961 0.8700
-10.2960 -24.1656 -0.1479 0.9003
-6.4819 -26.2981 -0.1525 0.8973
-3.8825 -23.8898 -0.1363 0.9077
-3.0030 -24.7323 -0.1403 0.9051
0.0000 -39.6389 -0.2232 0.8534
1.5855 -39.3435 -0.2217 0.8543
3.0268 -37.4935 -0.2118 0.8603
4.4707 -36.8199 -0.2088 0.8621
3.4504 -16.9013 -0.0971 0.9333
4.2160 -17.1047 -0.0992 0.9320
4.8700 -16.8129 -0.0986 0.9324
6.7481 -17.7934 -0.1071 0.9267
9.0902 -21.3354 -0.1306 0.9114
10.0939 -21.2724 -0.1326 0.9101
11.3447 -21.6155 -0.1374 0.9070
12.2244 -21.1732 -0.1377 0.9068
9.8222 -15.5326 -0.1035 0.9291
13.4730 -19.5190 -0.1335 0.9095
15.5354 8.1536 -0.0988 0.9322
14.9582 8.6361 -0.0972 0.9332
11.7425 9.5874 -0.0854 0.9412
10.9277 9.6811 -0.0822 0.9433
7.3877 8.3390 -0.0627 0.9564
6.6030 9.5661 -0.0654 0.9546
6.0522 9.5708 -0.0638 0.9557
5.5729 9.6526 -0.0628 0.9564
5.0661 9.6526 -0.0614 0.9573
4.5802 9.6526 -0.0602 0.9582
4.1126 9.6526 -0.0591 0.9589
3.6607 9.6526 -0.0581 0.9595
2.7959 9.6526 -0.0566 0.9606
1.1720 9.6526 -0.0547 0.9619
0.7726 9.5708 -0.0541 0.9623
0.3649 9.0553 -0.0510 0.9644
-0.3363 8.3457 -0.0470 0.9671
-0.6583 8.1548 -0.0461 0.9678
-1.0047 8.2749 -0.0469 0.9672
-2.1677 8.7945 -0.0510 0.9644
-4.1247 9.6811 -0.0592 0.9588
-5.5894 9.6811 -0.0629 0.9563
-7.4352 9.1065 -0.0662 0.9541
-7.7987 8.8029 -0.0662 0.9540
-9.2309 8.1778 -0.0694 0.9519
-36.6164 29.8963 -0.2661 0.8277
-35.7615 26.8730 -0.2519 0.8362
-38.4487 26.5392 -0.2630 0.8295
-36.2898 20.9520 -0.2359 0.8457
-36.2898 19.0464 -0.2307 0.8488
-7.2335 3.4324 -0.0451 0.9685
-34.6801 7.0800 -0.1993 0.8680
-37.5261 6.0986 -0.2141 0.8589
-39.2784 -16.7350 -1.2022 0.8430
-34.9708 -16.5938 -1.0899 0.8565
-31.7047 -16.6399 -1.0082 0.8665
-26.2450 -16.5964 -0.8744 0.8832
-24.5509 -21.7503 -0.9236 0.8770
-27.7539 -26.6580 -1.0836 0.8573
-14.4484 -16.3089 -0.6135 0.9165
-15.2469 -24.1111 -0.8033 0.8921
-8.3551 -15.9194 -0.5062 0.9306
-9.8385 -25.9421 -0.7812 0.8949
-5.0689 -24.8292 -0.7136 0.9036
-1.6031 -19.8586 -0.5610 0.9234
4.4137 -27.1584 -0.7748 0.8957
5.3679 -26.2932 -0.7556 0.8982
3.8537 -15.6348 -0.4534 0.9376
4.4807 -15.4692 -0.4535 0.9376
8.9486 -23.5953 -0.7106 0.9040
8.3044 -17.5011 -0.5455 0.9254
11.3629 -19.6810 -0.6399 0.9131
9.7930 -15.4864 -0.5159 0.9293
20.8870 -23.5765 -0.8869 0.8816
19.2926 -15.7519 -0.7013 0.9051
42.2626 5.1316 -1.1988 0.8434
15.5354 8.1536 -0.4940 0.9322
14.8323 8.5634 -0.4823 0.9338
13.6113 8.6073 -0.4535 0.9376
11.7425 9.5874 -0.4269 0.9411
8.4933 8.1579 -0.3316 0.9540
7.8148 8.1361 -0.3177 0.9559
7.3877 8.3390 -0.3137 0.9564
6.7237 8.9476 -0.3152 0.9562
6.6030 9.5661 -0.3273 0.9546
5.5729 9.6526 -0.3138 0.9564
5.0661 9.6526 -0.3070 0.9573
4.5802 9.6526 -0.3008 0.9581
3.6607 9.6526 -0.2907 0.9595
3.2225 9.6526 -0.2865 0.9601
1.9706 9.6526 -0.2774 0.9613
1.5687 9.6526 -0.2754 0.9616
1.1720 9.6526 -0.2738 0.9618
0.7726 9.5708 -0.2704 0.9623
0.3649 9.0553 -0.2552 0.9644
0.0000 8.7587 -0.2466 0.9656
-0.3363 8.3457 -0.2352 0.9671
-1.0047 8.2749 -0.2347 0.9672
-1.3448 8.2749 -0.2361 0.9670
-1.6976 8.3152 -0.2390 0.9666
-2.7879 9.6248 -0.2822 0.9607
-3.3595 8.8584 -0.2668 0.9628
-4.5913 9.6759 -0.3016 0.9580
-4.8060 9.1572 -0.2912 0.9595
-5.1980 9.0032 -0.2927 0.9593
-6.1273 9.6896 -0.3228 0.9552
-6.4361 9.3243 -0.3190 0.9557
-6.5305 8.6906 -0.3061 0.9574
-7.4352 9.1065 -0.3310 0.9540
-7.6839 8.6734 -0.3263 0.9547
-36.6154 29.8956 -1.3310 0.8277
-38.4487 26.5393 -1.3155 0.8295
-35.5049 20.4988 -1.1544 0.8487
-35.7702 18.7737 -1.1375 0.8507
-34.6801 11.5780 -1.0295 0.8639
-34.6801 8.5480 -1.0057 0.8668
-34.6801 7.0800 -0.9967 0.8679
-49.2955 0.0000 -2.5000 0.8208
-48.9361 -5.9419 -2.5000 0.8208
-48.6571 -7.9075 -2.5000 0.8208
-48.2992 -9.8604 -2.5000 0.8208
-45.6515 -13.2231 -2.4103 0.8267
-40.9088 -17.4296 -2.2551 0.8369
-31.4630 -16.5130 -1.8020 0.8673
-25.9110 -16.3851 -1.5548 0.8845
-23.6629 -16.3333 -1.4582 0.8912
-18.2970 -16.2098 -1.2397 0.9067
-14.2373 -16.0706 -1.0888 0.9176
-29.0747 -35.6100 -2.3314 0.8318
-26.0906 -37.7987 -2.3292 0.8320
-12.8050 -22.1789 -1.2988 0.9025
-8.3636 -15.9354 -0.9127 0.9305
-9.9942 -23.4572 -1.2931 0.9029
-14.5101 -43.4630 -2.3238 0.8323
-10.9615 -44.4723 -2.3229 0.8324
-9.1605 -44.8710 -2.3225 0.8324
-7.3455 -45.1984 -2.3223 0.8324
-1.8436 -45.7477 -2.3219 0.8325
0.0000 -45.7857 -2.3220 0.8325
1.8437 -45.7509 -2.3221 0.8324
5.5203 -45.4635 -2.3226 0.8324
4.4554 -27.4151 -1.4086 0.8947
6.5958 -26.7598 -1.3977 0.8955
7.6560 -26.4316 -1.3956 0.8956
14.5182 -43.4873 -2.3251 0.8322
16.2677 -42.8944 -2.3265 0.8322
10.6751 -15.4655 -0.9530 0.9275
13.7075 -15.4726 -1.0483 0.9205
16.0524 -15.4185 -1.1288 0.9147
39.1610 -24.7639 -2.3498 0.8306
40.1152 -23.1605 -2.3491 0.8307
41.8218 -19.8446 -2.3476 0.8308
42.5866 -18.1444 -2.3476 0.8308
43.9081 -14.6587 -2.3476 0.8308
48.2992 -9.8604 -2.5000 0.8208
48.9361 -5.9419 -2.5000 0.8208
49.2555 -1.9849 -2.5000 0.8208
49.2955 0.0000 -2.5000 0.8208
49.2555 1.9849 -2.5000 0.8208
46.1403 3.7248 -2.3476 0.8308
42.2626 5.1316 -2.1591 0.8432
45.7007 7.4271 -2.3481 0.8307
44.9785 11.0862 -2.3493 0.8307
44.5071 12.8917 -2.3499 0.8306
43.3475 16.4395 -2.3511 0.8305
42.6610 18.1762 -2.3517 0.8305
11.7861 8.8567 -0.7477 0.9427
10.2296 8.3522 -0.6697 0.9485
10.2670 9.0958 -0.6956 0.9465
8.4933 8.1579 -0.5972 0.9539
7.3877 8.3390 -0.5650 0.9564
7.0915 8.6855 -0.5687 0.9561
6.6030 9.5662 -0.5895 0.9545
5.5729 9.6526 -0.5653 0.9563
3.6607 9.6526 -0.5235 0.9595
3.2225 9.6526 -0.5161 0.9601
2.3792 9.6526 -0.5042 0.9610
1.9706 9.6526 -0.4996 0.9613
1.5687 9.6526 -0.4959 0.9616
0.7726 9.5708 -0.4870 0.9623
0.0000 8.4581 -0.4289 0.9667
-0.3319 8.2354 -0.4180 0.9675
-0.9781 8.0552 -0.4115 0.9680
-1.3142 8.0866 -0.4155 0.9677
-1.6719 8.1896 -0.4239 0.9671
-2.0818 8.4462 -0.4412 0.9658
-3.2127 9.6231 -0.5145 0.9602
-4.5913 9.6760 -0.5432 0.9580
-6.4745 9.3799 -0.5780 0.9554
-6.5302 8.6902 -0.5513 0.9574
-7.4352 9.1064 -0.5962 0.9540
-35.4625 28.9542 -2.3218 0.8325
-35.6272 26.7721 -2.2601 0.8365
-37.7221 26.0377 -2.3245 0.8323
-34.5046 18.1094 -1.9762 0.8555
-7.2335 3.4324 -0.4060 0.9684
-34.6801 8.5479 -1.8114 0.8667
-34.6801 7.0800 -1.7951 0.8678
-37.5261 6.0986 -1.9281 0.8588
-46.1431 3.7251 -2.3477 0.8308
-34.0959 0.0000 -2.5000 0.8722
-34.0683 -1.3729 -2.5000 0.8722
-33.9853 -2.7436 -2.5000 0.8722
-33.6544 -5.4694 -2.5000 0.8722
-32.7497 -9.4861 -2.5000 0.8722
-31.8803 -12.0906 -2.5000 0.8722
-28.3521 -14.8803 -2.3478 0.8795
-27.7390 -16.0151 -2.3485 0.8794
-26.1969 -16.5659 -2.2726 0.8831
-26.3765 -18.2064 -2.3500 0.8794
-21.6748 -16.2876 -1.9879 0.8970
-19.9087 -16.2549 -1.8845 0.9021
-18.2970 -16.2098 -1.7923 0.9066
-17.0096 -16.3379 -1.7293 0.9097
-19.1928 -25.5410 -2.3425 0.8797
-14.1200 -22.3289 -1.9371 0.8995
-9.2382 -16.0011 -1.3547 0.9286
-9.6137 -25.3494 -1.9879 0.8970
-3.2384 -15.8629 -1.1871 0.9371
-2.5609 -15.7576 -1.1705 0.9380
-1.2769 -15.8177 -1.1636 0.9383
-0.6368 -15.8030 -1.1596 0.9385
0.0000 -15.7883 -1.1576 0.9386
0.6357 -15.7737 -1.1575 0.9386
1.2722 -15.7590 -1.1592 0.9386
1.9117 -15.7443 -1.1629 0.9384
2.5563 -15.7294 -1.1684 0.9381
4.5428 -15.6837 -1.1972 0.9366
5.9358 -15.6516 -1.2274 0.9351
6.6614 -15.6349 -1.2461 0.9341
8.9957 -15.5811 -1.3192 0.9304
11.7897 -15.6892 -1.4390 0.9243
12.6528 -15.4969 -1.4669 0.9229
13.7608 -15.5327 -1.5215 0.9201
22.1951 -23.1075 -2.3493 0.8794
25.5213 -22.6099 -2.5000 0.8722
30.1905 -15.8452 -2.5000 0.8722
31.3676 -13.3645 -2.5000 0.8722
31.8803 -12.0906 -2.5000 0.8722
32.3413 -10.7971 -2.5000 0.8722
33.1052 -8.1597 -2.5000 0.8722
33.6544 -5.4694 -2.5000 0.8722
33.8474 -4.1098 -2.5000 0.8722
33.9854 -2.7436 -2.5000 0.8722
34.0959 0.0000 -2.5000 0.8722
33.9854 2.7436 -2.5000 0.8722
33.8474 4.1098 -2.5000 0.8722
33.6545 5.4694 -2.5000 0.8722
32.3414 10.7972 -2.5000 0.8722
31.8804 12.0906 -2.5000 0.8722
31.3677 13.3645 -2.5000 0.8722
13.5578 7.8276 -1.1479 0.9391
13.5114 8.5441 -1.1721 0.9379
11.7854 8.1349 -1.0500 0.9442
11.7863 8.8569 -1.0810 0.9426
10.2681 8.3836 -0.9719 0.9482
8.4933 8.1579 -0.8635 0.9539
7.8148 8.1361 -0.8272 0.9558
7.3877 8.3390 -0.8169 0.9563
6.7237 8.9476 -0.8206 0.9561
6.0982 8.8347 -0.7871 0.9579
5.6206 8.8883 -0.7711 0.9587
5.1596 8.9366 -0.7566 0.9595
4.7131 8.9801 -0.7436 0.9601
4.5802 9.6526 -0.7834 0.9581
3.6607 9.6526 -0.7569 0.9594
3.2225 9.6526 -0.7461 0.9600
2.7959 9.6526 -0.7368 0.9605
0.7726 9.5708 -0.7040 0.9622
0.0000 8.7587 -0.6422 0.9655
-0.3363 8.3457 -0.6124 0.9671
-0.6583 8.1548 -0.5999 0.9677
-1.0047 8.2749 -0.6112 0.9671
-1.3448 8.2749 -0.6147 0.9669
-2.7877 9.6242 -0.7347 0.9606
-3.2128 9.6233 -0.7439 0.9601
-3.1912 8.4145 -0.6598 0.9645
-4.1248 9.6811 -0.7716 0.9587
-4.5914 9.6761 -0.7853 0.9580
-6.4742 9.3795 -0.8356 0.9553
-6.5881 8.0690 -0.7638 0.9591
-8.0657 8.3973 -0.8537 0.9544
-9.1915 8.1430 -0.9004 0.9519
-26.0032 21.2309 -2.4614 0.8740
-26.8370 20.1667 -2.4614 0.8740
-27.6272 19.0697 -2.4614 0.8740
-28.4861 14.9506 -2.3589 0.8789
-28.9848 12.3492 -2.3101 0.8813
-31.0509 6.3391 -2.3237 0.8806
-31.7840 3.8593 -2.3476 0.8795
-26.0402 0.0000 -2.5000 0.9006
-26.0190 -1.0485 -2.5000 0.9006
-25.9557 -2.0954 -2.5000 0.9006
-25.8503 -3.1388 -2.5000 0.9006
-25.7030 -4.1771 -2.5000 0.9006
-24.7000 -8.2461 -2.5000 0.9006
-24.3480 -9.2340 -2.5000 0.9006
-23.9564 -10.2069 -2.5000 0.9006
-23.5260 -11.1632 -2.5000 0.9006
-22.5514 -13.0201 -2.5000 0.9006
-20.9055 -13.2198 -2.3747 0.9054
-20.1242 -13.8908 -2.3476 0.9064
-19.5486 -14.6898 -2.3476 0.9064
-18.3092 -16.2205 -2.3484 0.9064
-17.6449 -16.9480 -2.3488 0.9064
-13.1378 -16.0909 -1.9943 0.9199
-11.0739 -16.0434 -1.8715 0.9247
-13.0713 -20.6705 -2.3480 0.9064
-9.2382 -16.0011 -1.7738 0.9284
-8.3401 -15.8907 -1.7229 0.9304
-6.8477 -16.0721 -1.6772 0.9322
-6.7965 -23.4644 -2.3453 0.9065
-2.5609 -15.7576 -1.5327 0.9379
-0.9833 -24.4015 -2.3446 0.9065
0.0000 -24.4216 -2.3446 0.9065
1.9653 -24.3442 -2.3448 0.9065
3.9183 -24.1105 -2.3451 0.9065
3.2081 -15.7144 -1.5398 0.9376
3.8475 -15.6100 -1.5435 0.9374
5.2307 -15.6678 -1.5858 0.9358
5.9358 -15.6516 -1.6071 0.9349
8.9957 -15.5811 -1.7273 0.9303
9.8112 -15.5152 -1.7624 0.9289
10.7273 -15.5412 -1.8129 0.9269
12.6528 -15.4968 -1.9207 0.9228
16.2441 -18.3358 -2.3518 0.9063
17.6362 -16.9398 -2.3477 0.9064
22.0089 -13.9176 -2.5000 0.9006
22.5515 -13.0201 -2.5000 0.9006
23.0575 -12.1015 -2.5000 0.9006
25.0121 -7.2448 -2.5000 0.9006
25.5139 -5.2087 -2.5000 0.9006
25.8503 -3.1388 -2.5000 0.9006
25.9557 -2.0953 -2.5000 0.9006
26.0191 -1.0485 -2.5000 0.9006
25.9557 2.0954 -2.5000 0.9006
25.5140 5.2087 -2.5000 0.9006
25.2836 6.2319 -2.5000 0.9006
25.0122 7.2449 -2.5000 0.9006
24.7002 8.2461 -2.5000 0.9006
21.9685 8.3316 -2.2557 0.9099
22.4984 9.5857 -2.3478 0.9064
15.5353 8.1536 -1.6844 0.9319
13.5104 7.8002 -1.4977 0.9392
11.7855 8.1350 -1.3748 0.9441
10.2890 7.7317 -1.2356 0.9496
10.2681 8.3836 -1.2726 0.9481
8.5679 8.2296 -1.1405 0.9534
7.8586 8.1816 -1.0891 0.9554
6.7583 8.9937 -1.0801 0.9558
4.8947 8.4778 -0.9398 0.9614
4.6099 8.7835 -0.9523 0.9609
4.5802 9.6526 -1.0257 0.9580
4.1126 9.6526 -1.0073 0.9587
2.7959 9.6526 -0.9648 0.9604
2.0808 8.4420 -0.8347 0.9657
1.0307 8.4883 -0.8209 0.9662
0.7013 8.6877 -0.8368 0.9656
0.3645 9.0455 -0.8691 0.9643
-0.6583 8.1548 -0.7855 0.9677
-1.0047 8.2749 -0.8003 0.9671
-1.3448 8.2749 -0.8049 0.9669
-2.7877 9.6242 -0.9619 0.9605
-3.2295 8.5155 -0.8744 0.9641
-4.5914 9.6762 -1.0282 0.9579
-4.7085 8.1553 -0.9041 0.9629
-5.1079 8.0775 -0.9175 0.9623
-6.4739 9.3791 -1.0941 0.9552
-6.4731 8.6141 -1.0345 0.9576
-6.5298 7.9975 -0.9912 0.9594
-20.4963 15.4019 -2.4614 0.9021
-22.2033 12.8191 -2.4614 0.9021
-22.7015 11.9147 -2.4614 0.9021
-23.5866 10.0493 -2.4614 0.9021
-23.9721 9.0914 -2.4614 0.9021
-24.3188 8.1188 -2.4614 0.9021
-24.6623 7.1435 -2.4650 0.9020
-25.8302 3.1364 -2.4980 0.9007
-25.9426 2.0943 -2.4987 0.9007
-21.0460 0.0000 -2.5000 0.9187
-20.9779 -1.6935 -2.5000 0.9187
-20.6208 -4.2098 -2.5000 0.9187
-20.4346 -5.0367 -2.5000 0.9187
-20.2152 -5.8554 -2.5000 0.9187
-19.0141 -9.0223 -2.5000 0.9187
-18.2265 -10.5230 -2.5000 0.9187
-17.3206 -11.9556 -2.5000 0.9187
-16.8252 -12.6433 -2.5000 0.9187
-16.1654 -13.1986 -2.4790 0.9194
-14.2532 -13.6904 -2.3476 0.9235
-13.6904 -14.2532 -2.3476 0.9235
-12.4991 -15.3086 -2.3476 0.9235
-11.8740 -15.8015 -2.3479 0.9235
-11.2296 -16.2688 -2.3482 0.9235
-9.8863 -17.1229 -2.3486 0.9234
-8.3401 -15.8907 -2.1318 0.9303
-8.4851 -17.8820 -2.3511 0.9234
-6.7934 -15.9448 -2.0588 0.9326
-5.3118 -15.9107 -1.9925 0.9347
-4.6038 -15.8943 -1.9656 0.9355
-3.9137 -15.8784 -1.9426 0.9362
-3.2384 -15.8629 -1.9232 0.9369
-1.9224 -15.8326 -1.8945 0.9378
-1.2769 -15.8177 -1.8850 0.9381
0.0000 -15.7883 -1.8754 0.9384
0.6357 -15.7736 -1.8752 0.9384
2.5563 -15.7294 -1.8929 0.9378
3.2081 -15.7144 -1.9052 0.9374
4.5428 -15.6837 -1.9396 0.9363
5.2307 -15.6678 -1.9621 0.9356
5.9359 -15.6516 -1.9884 0.9348
7.7595 -18.2121 -2.3515 0.9234
8.4879 -17.8878 -2.3519 0.9233
9.8832 -17.1181 -2.3480 0.9235
11.2269 -16.2648 -2.3476 0.9235
11.8726 -15.7995 -2.3476 0.9235
14.2532 -13.6904 -2.3476 0.9235
14.9078 -13.2071 -2.3658 0.9229
16.1501 -13.1861 -2.4766 0.9194
16.8252 -12.6433 -2.5000 0.9187
18.2265 -10.5231 -2.5000 0.9187
19.6785 -7.4631 -2.5000 0.9187
19.9630 -6.6646 -2.5000 0.9187
20.4346 -5.0367 -2.5000 0.9187
20.6208 -4.2098 -2.5000 0.9187
20.8927 -2.5368 -2.5000 0.9187
21.0291 -0.8474 -2.5000 0.9187
21.0462 0.0000 -2.5000 0.9187
19.3638 3.9532 -2.3476 0.9235
19.1889 4.7296 -2.3476 0.9235
13.5089 7.0900 -1.8122 0.9404
13.5106 7.8003 -1.8531 0.9391
11.7843 7.4519 -1.6562 0.9454
10.5028 7.2496 -1.5159 0.9499
10.2691 7.7167 -1.5258 0.9496
10.2671 9.0959 -1.6294 0.9462
8.4933 8.1579 -1.3989 0.9537
7.9481 8.2749 -1.3629 0.9548
7.3877 8.3390 -1.3234 0.9561
5.8302 8.4465 -1.2191 0.9595
5.3412 8.4465 -1.1871 0.9605
4.8766 8.4465 -1.1585 0.9615
4.5850 8.7359 -1.1719 0.9610
4.1126 9.6526 -1.2463 0.9586
3.6607 9.6526 -1.2263 0.9593
3.2225 9.6526 -1.2088 0.9598
2.0243 8.2128 -1.0048 0.9665
1.6767 8.2128 -0.9957 0.9668
1.3347 8.2128 -0.9884 0.9670
0.9976 8.2159 -0.9831 0.9672
0.6903 8.5511 -1.0191 0.9660
0.3695 9.1694 -1.0901 0.9637
0.0000 8.5998 -1.0215 0.9660
-0.3363 8.3457 -0.9922 0.9669
-0.9902 8.1547 -0.9758 0.9675
-1.6976 8.3152 -1.0081 0.9664
-2.7877 9.6242 -1.1902 0.9604
-3.3252 7.8046 -1.0077 0.9664
-4.7472 8.2224 -1.1278 0.9625
-4.9779 7.8720 -1.1064 0.9632
-6.0462 8.7594 -1.2643 0.9580
-8.0657 8.3973 -1.3831 0.9542
-8.4899 8.1547 -1.3983 0.9537
-9.2309 8.1778 -1.4649 0.9515
-15.0778 12.3106 -2.3122 0.9246
-15.5524 11.6868 -2.3109 0.9246
-17.5134 11.0748 -2.4614 0.9199
-17.9451 10.3606 -2.4614 0.9199
-18.3478 9.6296 -2.4614 0.9199
-19.0631 8.1220 -2.4614 0.9199
-19.3786 7.3493 -2.4619 0.9199
-19.7036 6.5780 -2.4675 0.9197
-20.0465 5.8066 -2.4791 0.9194
-20.3014 5.0039 -2.4837 0.9192
-20.9776 1.6935 -2.5000 0.9187
-17.6298 -0.7104 -2.5000 0.9312
-17.5869 -1.4197 -2.5000 0.9312
-17.5155 -2.1268 -2.5000 0.9312
-17.2875 -3.5293 -2.5000 0.9312
-16.9475 -4.9089 -2.5000 0.9312
-16.7361 -5.5873 -2.5000 0.9312
-16.4975 -6.2567 -2.5000 0.9312
-14.5208 -10.0230 -2.5000 0.9312
-13.6672 -11.1589 -2.5000 0.9312
-13.2068 -11.7002 -2.5000 0.9312
-12.7250 -12.2225 -2.5000 0.9312
-12.2225 -12.7250 -2.5000 0.9312
-9.9534 -13.2456 -2.3476 0.9353
-9.4120 -13.6356 -2.3476 0.9353
-8.8553 -14.0035 -2.3476 0.9353
-6.4943 -15.2427 -2.3476 0.9353
-5.8753 -15.4919 -2.3476 0.9353
-0.6673 -16.5583 -2.3480 0.9352
0.0000 -16.5716 -2.3480 0.9352
1.3334 -16.5173 -2.3479 0.9352
1.9974 -16.4498 -2.3479 0.9352
3.3143 -16.2344 -2.3477 0.9353
3.8475 -15.6100 -2.2780 0.9371
4.6096 -15.9144 -2.3476 0.9353
6.4943 -15.2427 -2.3476 0.9353
7.1028 -14.9688 -2.3476 0.9353
8.2843 -14.3488 -2.3476 0.9353
8.8553 -14.0036 -2.3476 0.9353
9.4120 -13.6356 -2.3476 0.9353
10.7773 -13.1998 -2.4145 0.9335
11.6804 -13.1844 -2.4957 0.9313
12.2225 -12.7250 -2.5000 0.9312
13.2068 -11.7002 -2.5000 0.9312
13.6672 -11.1589 -2.5000 0.9312
14.1055 -10.5996 -2.5000 0.9312
15.2803 -8.8221 -2.5000 0.9312
15.9406 -7.5639 -2.5000 0.9312
16.2322 -6.9159 -2.5000 0.9312
16.7361 -5.5873 -2.5000 0.9312
17.4156 -2.8303 -2.5000 0.9312
17.6298 -0.7104 -2.5000 0.9312
17.6298 0.7105 -2.5000 0.9312
15.9144 4.6097 -2.3476 0.9353
15.4919 5.8753 -2.3476 0.9353
15.2427 6.4943 -2.3476 0.9353
13.5084 7.0898 -2.1616 0.9402
13.2535 7.6519 -2.1684 0.9400
10.2701 7.0890 -1.7682 0.9508
10.2690 7.7167 -1.8200 0.9494
10.2682 8.3837 -1.8782 0.9479
10.2672 9.0959 -1.9435 0.9461
8.4933 8.1579 -1.6686 0.9535
5.8302 8.4465 -1.4542 0.9594
4.2093 8.0201 -1.2834 0.9641
3.2225 9.6526 -1.4419 0.9597
2.0243 8.2128 -1.1985 0.9664
1.3347 8.2128 -1.1789 0.9669
0.0000 8.5266 -1.2081 0.9661
-0.6583 8.1548 -1.1592 0.9675
-2.1042 8.5370 -1.2458 0.9651
-2.7877 9.6242 -1.4197 0.9603
-3.2295 8.5156 -1.2904 0.9639
-4.1569 8.7606 -1.3739 0.9616
-4.8543 7.6764 -1.2869 0.9640
-6.4469 8.5792 -1.5205 0.9576
-6.5629 7.4080 -1.4023 0.9608
-8.0657 8.3973 -1.6498 0.9541
-9.2309 8.1778 -1.7474 0.9514
-13.0579 9.8124 -2.3143 0.9361
-13.8052 8.7299 -2.3143 0.9361
-14.4568 7.5875 -2.3134 0.9362
-15.6410 5.2217 -2.3364 0.9356
-17.2843 3.5286 -2.4995 0.9312
-17.4149 2.8302 -2.4999 0.9312
-17.5154 2.1268 -2.5000 0.9312
-17.5869 1.4198 -2.5000 0.9312
-17.6298 0.7105 -2.5000 0.9312
-15.1631 -0.6110 -2.5000 0.9403
-15.0648 -1.8292 -2.5000 0.9403
-14.7344 -3.6317 -2.5000 0.9403
-14.5763 -4.2221 -2.5000 0.9403
-13.4372 -7.0524 -2.5000 0.9403
-13.1423 -7.5877 -2.5000 0.9403
-12.8261 -8.1107 -2.5000 0.9403
-11.3590 -10.0632 -2.5000 0.9403
-10.9445 -10.5124 -2.5000 0.9403
-9.5976 -11.7549 -2.5000 0.9403
-8.6206 -12.4891 -2.5000 0.9403
-7.5876 -13.1423 -2.5000 0.9403
-5.6305 -13.2153 -2.3664 0.9434
-5.0532 -13.3243 -2.3476 0.9439
-1.7177 -14.1464 -2.3476 0.9439
-0.5738 -14.2387 -2.3476 0.9439
0.0000 -14.2503 -2.3476 0.9439
1.1467 -14.2041 -2.3476 0.9439
2.8504 -13.9623 -2.3476 0.9439
3.4103 -13.8362 -2.3476 0.9439
5.0532 -13.3243 -2.3476 0.9439
6.9247 -13.1939 -2.4547 0.9414
7.5876 -13.1423 -2.5000 0.9403
8.1107 -12.8261 -2.5000 0.9403
9.1165 -12.1319 -2.5000 0.9403
10.0632 -11.3589 -2.5000 0.9403
10.5124 -10.9445 -2.5000 0.9403
11.3590 -10.0632 -2.5000 0.9403
12.4891 -8.6206 -2.5000 0.9403
12.8261 -8.1107 -2.5000 0.9403
13.4372 -7.0524 -2.5000 0.9403
14.5763 -4.2221 -2.5000 0.9403
14.8687 -3.0355 -2.5000 0.9403
14.9789 -2.4343 -2.5000 0.9403
15.0648 -1.8292 -2.5000 0.9403
15.1631 -0.6110 -2.5000 0.9403
14.9789 2.4343 -2.5000 0.9403
13.5169 4.5126 -2.3476 0.9439
13.3243 5.0532 -2.3476 0.9439
13.1100 5.5856 -2.3476 0.9439
12.3065 7.1051 -2.3410 0.9440
11.7845 7.4521 -2.2970 0.9450
10.2706 7.0893 -2.0559 0.9507
8.4933 8.1579 -1.9401 0.9534
7.9227 8.2483 -1.8841 0.9547
5.8302 8.4465 -1.6908 0.9592
5.3412 8.4465 -1.6463 0.9603
4.8766 8.4465 -1.6067 0.9612
4.1126 9.6526 -1.7285 0.9584
3.6607 9.6526 -1.7007 0.9590
3.2225 9.6526 -1.6764 0.9596
2.3811 8.2204 -1.4099 0.9659
2.0243 8.2128 -1.3935 0.9663
1.6767 8.2128 -1.3809 0.9666
1.3347 8.2128 -1.3707 0.9668
0.9972 8.2128 -1.3629 0.9670
0.6903 8.5511 -1.4133 0.9658
0.3649 9.0552 -1.4930 0.9639
0.0000 8.7587 -1.4429 0.9651
-0.3363 8.3457 -1.3760 0.9667
-0.6583 8.1548 -1.3478 0.9674
-1.3448 8.2749 -1.3811 0.9666
-1.6976 8.3152 -1.3981 0.9662
-2.1677 8.7945 -1.4922 0.9639
-2.7877 9.6242 -1.6506 0.9602
-3.2296 8.5157 -1.5004 0.9638
-3.2365 7.5963 -1.3603 0.9671
-4.0034 8.4371 -1.5385 0.9628
-4.4082 8.3991 -1.5626 0.9623
-4.7473 8.2225 -1.5641 0.9622
-5.1452 7.4541 -1.4921 0.9639
-6.4724 7.9272 -1.6859 0.9594
-6.4326 7.2608 -1.5980 0.9614
-9.2309 8.1778 -2.0316 0.9512
-11.2369 8.4440 -2.3156 0.9446
-11.8758 7.5098 -2.3148 0.9446
-12.6141 6.6204 -2.3469 0.9439
-13.5169 4.5126 -2.3476 0.9439
-13.8362 3.4104 -2.3476 0.9439
-15.0648 1.8292 -2.5000 0.9403
-13.2898 -0.5356 -2.5000 0.9473
-13.2574 -1.0702 -2.5000 0.9473
-13.0318 -2.6605 -2.5000 0.9473
-12.9141 -3.1830 -2.5000 0.9473
-12.7754 -3.7005 -2.5000 0.9473
-12.6161 -4.2119 -2.5000 0.9473
-12.4362 -4.7164 -2.5000 0.9473
-12.0164 -5.7018 -2.5000 0.9473
-11.5186 -6.6503 -2.5000 0.9473
-10.3027 -8.4119 -2.5000 0.9473
-9.5924 -9.2136 -2.5000 0.9473
-9.2136 -9.5924 -2.5000 0.9473
-8.4119 -10.3027 -2.5000 0.9473
-7.9902 -10.6330 -2.5000 0.9473
-7.5555 -10.9461 -2.5000 0.9473
-6.1811 -11.7771 -2.5000 0.9473
-5.7018 -12.0164 -2.5000 0.9473
-4.7164 -12.4362 -2.5000 0.9473
-4.2119 -12.6161 -2.5000 0.9473
-3.7004 -12.7754 -2.5000 0.9473
-3.1830 -12.9141 -2.5000 0.9473
-2.6605 -13.0318 -2.5000 0.9473
-1.6015 -13.1894 -2.4973 0.9474
-0.5316 -13.1919 -2.4816 0.9477
0.0000 -13.1921 -2.4796 0.9477
2.1335 -13.1283 -2.5000 0.9473
2.6604 -13.0317 -2.5000 0.9473
4.2119 -12.6161 -2.5000 0.9473
5.7019 -12.0164 -2.5000 0.9473
6.1811 -11.7771 -2.5000 0.9473
8.4119 -10.3027 -2.5000 0.9473
9.2137 -9.5924 -2.5000 0.9473
9.5925 -9.2136 -2.5000 0.9473
9.9554 -8.8199 -2.5000 0.9473
10.6330 -7.9902 -2.5000 0.9473
10.9462 -7.5556 -2.5000 0.9473
11.7771 -6.1811 -2.5000 0.9473
12.6161 -4.2119 -2.5000 0.9473
12.7754 -3.7004 -2.5000 0.9473
13.0318 -2.6605 -2.5000 0.9473
13.1283 -2.1336 -2.5000 0.9473
13.2036 -1.6032 -2.5000 0.9473
13.2574 -1.0703 -2.5000 0.9473
13.2574 1.0703 -2.5000 0.9473
13.2036 1.6032 -2.5000 0.9473
13.1283 2.1336 -2.5000 0.9473
11.9966 3.4749 -2.3476 0.9504
11.8470 3.9551 -2.3476 0.9504
11.6781 4.4289 -2.3476 0.9504
11.4903 4.8956 -2.3476 0.9504
11.0591 5.8043 -2.3476 0.9504
10.5562 6.6754 -2.3476 0.9504
9.6400 7.8708 -2.3392 0.9506
9.3183 8.2553 -2.3399 0.9506
8.4933 8.1579 -2.2135 0.9532
7.9355 8.2617 -2.1532 0.9544
7.3877 8.3390 -2.0940 0.9557
7.0915 8.6855 -2.1076 0.9554
6.8139 9.0677 -2.1319 0.9549
5.8302 8.4465 -1.9291 0.9591
3.3029 8.7092 -1.7507 0.9628
2.9988 8.9824 -1.7800 0.9622
2.3811 8.2204 -1.6086 0.9658
0.0000 8.7587 -1.6463 0.9650
-0.6583 8.1548 -1.5378 0.9672
-1.0047 8.2749 -1.5668 0.9666
-3.2131 9.6244 -1.9072 0.9595
-3.4575 7.2865 -1.5159 0.9677
-4.7396 8.2092 -1.7817 0.9622
-4.7461 7.5053 -1.6691 0.9645
-6.0264 8.0197 -1.8855 0.9600
-6.4708 7.3040 -1.8341 0.9611
-8.4899 8.1547 -2.2127 0.9532
-9.5493 7.7967 -2.3172 0.9511
-9.8546 7.4053 -2.3170 0.9511
-11.0591 5.8043 -2.3476 0.9504
-7.2335 3.4324 -1.5049 0.9679
-11.6781 4.4289 -2.3476 0.9504
-11.8470 3.9551 -2.3476 0.9504
-12.1268 2.9890 -2.3476 0.9504
-13.0318 2.6605 -2.5000 0.9473
-13.2036 1.6032 -2.5000 0.9473
-13.2574 1.0703 -2.5000 0.9473
-11.8270 0.0000 -2.5000 0.9528
-11.8174 -0.4762 -2.5000 0.9528
-11.7886 -0.9517 -2.5000 0.9528
-11.7407 -1.4256 -2.5000 0.9528
-11.6738 -1.8972 -2.5000 0.9528
-11.5879 -2.3657 -2.5000 0.9528
-11.4833 -2.8304 -2.5000 0.9528
-11.3600 -3.2905 -2.5000 0.9528
-11.2183 -3.7452 -2.5000 0.9528
-11.0584 -4.1939 -2.5000 0.9528
-10.2425 -5.9135 -2.5000 0.9528
-9.9960 -6.3211 -2.5000 0.9528
-9.7334 -6.7185 -2.5000 0.9528
-8.8526 -7.8427 -2.5000 0.9528
-8.5296 -8.1928 -2.5000 0.9528
-8.1928 -8.5296 -2.5000 0.9528
-7.1050 -9.4550 -2.5000 0.9528
-6.7185 -9.7334 -2.5000 0.9528
-5.4962 -10.4723 -2.5000 0.9528
-5.0701 -10.6851 -2.5000 0.9528
-4.6358 -10.8806 -2.5000 0.9528
-3.2905 -11.3600 -2.5000 0.9528
-2.3657 -11.5880 -2.5000 0.9528
-1.8972 -11.6738 -2.5000 0.9528
-0.9517 -11.7886 -2.5000 0.9528
1.8972 -11.6738 -2.5000 0.9528
3.7452 -11.2183 -2.5000 0.9528
5.9135 -10.2425 -2.5000 0.9528
6.3212 -9.9960 -2.5000 0.9528
6.7186 -9.7334 -2.5000 0.9528
8.1928 -8.5296 -2.5000 0.9528
9.1613 -7.4799 -2.5000 0.9528
9.4550 -7.1050 -2.5000 0.9528
9.9960 -6.3211 -2.5000 0.9528
10.2425 -5.9135 -2.5000 0.9528
10.6851 -5.0701 -2.5000 0.9528
10.8806 -4.6358 -2.5000 0.9528
11.0584 -4.1939 -2.5000 0.9528
11.2183 -3.7452 -2.5000 0.9528
11.5880 -2.3657 -2.5000 0.9528
11.6738 -1.8972 -2.5000 0.9528
11.7408 -1.4256 -2.5000 0.9528
11.7886 -0.9517 -2.5000 0.9528
11.8270 0.0000 -2.5000 0.9528
11.7886 0.9517 -2.5000 0.9528
11.7407 1.4256 -2.5000 0.9528
11.6738 1.8972 -2.5000 0.9528
10.6675 3.0899 -2.3476 0.9556
10.5345 3.5169 -2.3476 0.9556
9.8339 5.1612 -2.3476 0.9556
9.1401 6.3089 -2.3476 0.9556
8.8786 6.6718 -2.3476 0.9556
8.5836 7.0083 -2.3423 0.9557
8.2737 7.3298 -2.3365 0.9558
7.6593 7.9741 -2.3372 0.9558
7.3336 8.2780 -2.3377 0.9558
5.5338 9.5847 -2.3394 0.9558
4.1527 7.9123 -1.8889 0.9641
3.8278 8.0670 -1.8874 0.9642
3.8130 8.9495 -2.0563 0.9610
3.1068 8.1920 -1.8520 0.9648
2.9988 8.9824 -2.0017 0.9620
2.3811 8.2204 -1.8091 0.9656
1.6767 8.2128 -1.7718 0.9663
0.0000 8.7271 -1.8447 0.9649
-0.3363 8.3457 -1.7655 0.9664
-1.0047 8.2749 -1.7620 0.9665
-1.3448 8.2749 -1.7721 0.9663
-2.1677 8.7945 -1.9146 0.9636
-3.2296 8.5158 -1.9252 0.9634
-3.3518 7.0637 -1.6527 0.9685
-4.7462 7.5055 -1.8771 0.9643
-5.8908 7.8393 -2.0728 0.9607
-6.2543 7.6602 -2.0904 0.9604
-9.3867 5.9358 -2.3476 0.9556
-9.6181 5.5530 -2.3476 0.9556
-10.2173 4.3532 -2.3476 0.9556
-10.3843 3.9383 -2.3476 0.9556
-10.6675 3.0899 -2.3476 0.9556
-11.5879 2.3657 -2.5000 0.9528
-11.7407 1.4256 -2.5000 0.9528
-11.7886 0.9517 -2.5000 0.9528
-11.8174 0.4762 -2.5000 0.9528
-10.6027 -0.8559 -2.5000 0.9572
-10.5596 -1.2822 -2.5000 0.9572
-10.4994 -1.7063 -2.5000 0.9572
-10.3281 -2.5456 -2.5000 0.9572
-10.2172 -2.9594 -2.5000 0.9572
-9.9460 -3.7720 -2.5000 0.9572
-9.7860 -4.1694 -2.5000 0.9572
-9.6102 -4.5601 -2.5000 0.9572
-9.2121 -5.3186 -2.5000 0.9572
-8.2396 -6.7274 -2.5000 0.9572
-7.9621 -7.0538 -2.5000 0.9572
-7.3686 -7.6716 -2.5000 0.9572
-7.0538 -7.9620 -2.5000 0.9572
-6.7274 -8.2396 -2.5000 0.9572
-6.3902 -8.5038 -2.5000 0.9572
-5.6852 -8.9904 -2.5000 0.9572
-5.3186 -9.2121 -2.5000 0.9572
-4.5601 -9.6102 -2.5000 0.9572
-4.1694 -9.7860 -2.5000 0.9572
-3.3685 -10.0898 -2.5000 0.9572
-2.9595 -10.2172 -2.5000 0.9572
-2.5457 -10.3281 -2.5000 0.9572
-2.1277 -10.4222 -2.5000 0.9572
-1.7064 -10.4994 -2.5000 0.9572
-0.8559 -10.6027 -2.5000 0.9572
0.0002 -10.6372 -2.5000 0.9572
0.8558 -10.6027 -2.5000 0.9572
2.1275 -10.4222 -2.5000 0.9572
2.5456 -10.3281 -2.5000 0.9572
3.3686 -10.0897 -2.5000 0.9572
3.7720 -9.9459 -2.5000 0.9572
4.1694 -9.7860 -2.5000 0.9572
4.9434 -9.4187 -2.5000 0.9572
5.3186 -9.2121 -2.5000 0.9572
5.6853 -8.9904 -2.5000 0.9572
6.0426 -8.7542 -2.5000 0.9572
6.3902 -8.5038 -2.5000 0.9572
6.7274 -8.2396 -2.5000 0.9572
7.0538 -7.9620 -2.5000 0.9572
7.3686 -7.6716 -2.5000 0.9572
7.6716 -7.3686 -2.5000 0.9572
7.9621 -7.0538 -2.5000 0.9572
8.2396 -6.7274 -2.5000 0.9572
8.9904 -5.6852 -2.5000 0.9572
9.2121 -5.3186 -2.5000 0.9572
9.4188 -4.9433 -2.5000 0.9572
9.6102 -4.5601 -2.5000 0.9572
10.3281 -2.5456 -2.5000 0.9572
10.4995 -1.7063 -2.5000 0.9572
10.6027 -0.8559 -2.5000 0.9572
10.6372 0.0000 -2.5000 0.9572
10.6286 0.4283 -2.5000 0.9572
10.6027 0.8559 -2.5000 0.9572
10.5596 1.2822 -2.5000 0.9572
10.4222 2.1277 -2.5000 0.9572
9.5944 2.7791 -2.3476 0.9598
9.3396 3.5421 -2.3476 0.9598
9.1894 3.9153 -2.3476 0.9598
9.0243 4.2821 -2.3476 0.9598
8.8446 4.6420 -2.3476 0.9598
8.6505 4.9944 -2.3476 0.9598
8.4424 5.3386 -2.3476 0.9598
8.2206 5.6743 -2.3476 0.9598
7.9854 6.0007 -2.3476 0.9598
6.2827 7.6950 -2.3347 0.9600
5.6449 8.1780 -2.3354 0.9600
5.3116 8.3996 -2.3357 0.9600
4.9696 8.6075 -2.3359 0.9600
3.8130 8.9495 -2.2863 0.9608
3.0756 8.1096 -2.0384 0.9650
2.7511 8.2406 -2.0418 0.9649
2.2271 9.0359 -2.1872 0.9625
1.3347 8.2128 -1.9555 0.9664
0.9972 8.2128 -1.9444 0.9666
0.3649 9.0552 -2.1299 0.9634
0.0000 8.7587 -2.0585 0.9647
-1.0047 8.2749 -1.9591 0.9663
-1.3448 8.2749 -1.9703 0.9661
-2.7554 9.5127 -2.3276 0.9601
-3.1355 9.3919 -2.3271 0.9601
-3.2295 8.5155 -2.1404 0.9633
-3.3558 7.0722 -1.8398 0.9683
-4.4475 7.7033 -2.0905 0.9641
-4.7463 7.5057 -2.0871 0.9642
-4.8872 7.0803 -2.0220 0.9653
-6.1087 7.4818 -2.2700 0.9611
-6.4708 7.3040 -2.2934 0.9607
-6.8793 7.1621 -2.3340 0.9600
-7.9854 6.0007 -2.3476 0.9598
-8.2206 5.6743 -2.3476 0.9598
-8.6505 4.9944 -2.3476 0.9598
-7.2335 3.4324 -1.8817 0.9676
-9.1894 3.9152 -2.3476 0.9598
-9.3396 3.5421 -2.3476 0.9598
-10.3281 2.5456 -2.5000 0.9572
-10.4222 2.1277 -2.5000 0.9572
-10.6286 0.4283 -2.5000 0.9572
-9.6555 0.0000 -2.5000 0.9609
-9.6477 -0.3888 -2.5000 0.9609
-9.6242 -0.7769 -2.5000 0.9609
-9.5305 -1.5488 -2.5000 0.9609
-9.4604 -1.9313 -2.5000 0.9609
-9.3749 -2.3107 -2.5000 0.9609
-9.2743 -2.6863 -2.5000 0.9609
-9.0281 -3.4239 -2.5000 0.9609
-8.7233 -4.1392 -2.5000 0.9609
-8.3619 -4.8277 -2.5000 0.9609
-8.1607 -5.1605 -2.5000 0.9609
-7.9463 -5.4850 -2.5000 0.9609
-7.7190 -5.8005 -2.5000 0.9609
-7.4792 -6.1066 -2.5000 0.9609
-7.2272 -6.4028 -2.5000 0.9609
-6.9636 -6.6886 -2.5000 0.9609
-6.1066 -7.4792 -2.5000 0.9609
-5.1605 -8.1607 -2.5000 0.9609
-4.8278 -8.3619 -2.5000 0.9609
-3.7846 -8.8829 -2.5000 0.9609
-3.4239 -9.0280 -2.5000 0.9609
-3.0576 -9.1586 -2.5000 0.9609
-2.6863 -9.2743 -2.5000 0.9609
-2.3107 -9.3749 -2.5000 0.9609
-1.9314 -9.4604 -2.5000 0.9609
-1.5488 -9.5305 -2.5000 0.9609
-0.7769 -9.6242 -2.5000 0.9609
-0.3888 -9.6477 -2.5000 0.9609
0.3888 -9.6477 -2.5000 0.9609
0.7770 -9.6242 -2.5000 0.9609
2.3107 -9.3749 -2.5000 0.9609
3.0576 -9.1586 -2.5000 0.9609
3.4239 -9.0280 -2.5000 0.9609
3.7846 -8.8829 -2.5000 0.9609
4.1393 -8.7233 -2.5000 0.9609
4.8278 -8.3619 -2.5000 0.9609
5.1606 -8.1607 -2.5000 0.9609
5.8005 -7.7190 -2.5000 0.9609
6.6886 -6.9636 -2.5000 0.9609
7.2273 -6.4028 -2.5000 0.9609
7.9463 -5.4850 -2.5000 0.9609
8.3619 -4.8278 -2.5000 0.9609
8.5495 -4.4871 -2.5000 0.9609
8.7233 -4.1392 -2.5000 0.9609
9.0281 -3.4239 -2.5000 0.9609
9.1586 -3.0576 -2.5000 0.9609
9.2743 -2.6863 -2.5000 0.9609
9.3749 -2.3107 -2.5000 0.9609
9.6242 -0.7769 -2.5000 0.9609
9.6555 0.0000 -2.5000 0.9609
9.4604 1.9314 -2.5000 0.9609
9.2743 2.6863 -2.5000 0.9609
8.4777 3.2152 -2.3476 0.9632
8.3414 3.5539 -2.3476 0.9632
8.1915 3.8869 -2.3476 0.9632
7.8522 4.5335 -2.3476 0.9632
7.0233 5.7343 -2.3476 0.9632
6.5391 6.2809 -2.3476 0.9632
6.0125 6.7867 -2.3476 0.9632
5.7215 7.0076 -2.3423 0.9633
4.8154 7.6149 -2.3328 0.9635
4.5053 7.8033 -2.3330 0.9635
4.1630 7.9320 -2.3194 0.9637
3.8632 8.1415 -2.3332 0.9634
2.3861 8.2377 -2.2206 0.9652
2.1564 8.7490 -2.3331 0.9635
1.4452 8.8926 -2.3327 0.9635
1.0005 8.2398 -2.1491 0.9663
0.7248 8.9778 -2.3321 0.9635
0.3626 8.9983 -2.3317 0.9635
0.0000 8.5266 -2.2077 0.9654
-0.6583 8.1548 -2.1183 0.9668
-1.6976 8.3152 -2.1974 0.9655
-2.1282 8.6343 -2.3025 0.9639
-2.5008 8.6337 -2.3273 0.9635
-2.8455 8.5233 -2.3266 0.9636
-4.0011 7.6235 -2.2292 0.9651
-4.7335 7.4855 -2.2931 0.9641
-4.8937 7.0898 -2.2305 0.9650
-5.7314 7.0197 -2.3464 0.9632
-6.0125 6.7867 -2.3476 0.9632
-6.2809 6.5391 -2.3476 0.9632
-7.4619 5.1506 -2.3476 0.9632
-7.6633 4.8460 -2.3476 0.9632
-7.1754 3.4047 -2.0564 0.9677
-8.6234 2.8789 -2.3539 0.9631
-9.2743 2.6863 -2.5000 0.9609
-9.5305 1.5488 -2.5000 0.9609
-8.8238 -0.3556 -2.5000 0.9640
-8.7166 -1.4166 -2.5000 0.9640
-8.6525 -1.7664 -2.5000 0.9640
-8.5744 -2.1134 -2.5000 0.9640
-8.2571 -3.1315 -2.5000 0.9640
-7.9783 -3.7858 -2.5000 0.9640
-7.6478 -4.4155 -2.5000 0.9640
-7.4638 -4.7199 -2.5000 0.9640
-7.0599 -5.3051 -2.5000 0.9640
-6.8405 -5.5851 -2.5000 0.9640
-6.6101 -5.8560 -2.5000 0.9640
-6.3689 -6.1174 -2.5000 0.9640
-5.8560 -6.6101 -2.5000 0.9640
-5.5851 -6.8405 -2.5000 0.9640
-5.3051 -7.0599 -2.5000 0.9640
-4.7198 -7.4638 -2.5000 0.9640
-4.1039 -7.8194 -2.5000 0.9640
-2.7965 -8.3765 -2.5000 0.9640
-2.4569 -8.4823 -2.5000 0.9640
-2.1134 -8.5744 -2.5000 0.9640
-1.7664 -8.6525 -2.5000 0.9640
-0.3556 -8.8238 -2.5000 0.9640
0.0000 -8.8310 -2.5000 0.9640
0.3556 -8.8238 -2.5000 0.9640
1.0645 -8.7666 -2.5000 0.9640
1.4166 -8.7166 -2.5000 0.9640
1.7664 -8.6525 -2.5000 0.9640
2.4569 -8.4823 -2.5000 0.9640
2.7965 -8.3765 -2.5000 0.9640
3.1315 -8.2571 -2.5000 0.9640
4.4155 -7.6478 -2.5000 0.9640
4.7199 -7.4638 -2.5000 0.9640
5.0166 -7.2677 -2.5000 0.9640
5.3051 -7.0599 -2.5000 0.9640
5.8560 -6.6101 -2.5000 0.9640
6.3689 -6.1174 -2.5000 0.9640
6.8405 -5.5851 -2.5000 0.9640
7.0598 -5.3051 -2.5000 0.9640
7.2678 -5.0166 -2.5000 0.9640
7.4639 -4.7199 -2.5000 0.9640
7.9783 -3.7858 -2.5000 0.9640
8.4823 -2.4569 -2.5000 0.9640
8.7666 -1.0645 -2.5000 0.9640
8.8310 0.0000 -2.5000 0.9640
8.7666 1.0645 -2.5000 0.9640
8.7166 1.4166 -2.5000 0.9640
8.6526 1.7664 -2.5000 0.9640
8.1257 2.7128 -2.4251 0.9650
7.7538 2.9406 -2.3476 0.9661
7.6290 3.2504 -2.3476 0.9661
7.4920 3.5550 -2.3476 0.9661
7.1816 4.1463 -2.3476 0.9661
7.0088 4.4321 -2.3476 0.9661
6.6295 4.9817 -2.3476 0.9661
6.2071 5.4990 -2.3476 0.9661
5.9807 5.7445 -2.3476 0.9661
5.7445 5.9807 -2.3476 0.9661
5.2446 6.4235 -2.3476 0.9661
3.2275 7.5751 -2.3310 0.9663
2.9196 7.6984 -2.3308 0.9664
2.6072 7.8096 -2.3308 0.9664
0.9921 8.1704 -2.3300 0.9664
0.0000 8.2270 -2.3290 0.9664
-0.3312 8.2189 -2.3286 0.9664
-1.3186 8.1139 -2.3271 0.9664
-1.6439 8.0523 -2.3266 0.9664
-1.9663 7.9775 -2.3260 0.9664
-2.2853 7.8897 -2.3253 0.9664
-2.6004 7.7890 -2.3247 0.9664
-2.9115 7.6770 -2.3243 0.9664
-3.2179 7.5526 -2.3241 0.9664
-4.7107 6.8247 -2.3476 0.9661
-5.2446 6.4235 -2.3476 0.9661
-5.7445 5.9807 -2.3476 0.9661
-5.9807 5.7445 -2.3476 0.9661
-6.2071 5.4990 -2.3476 0.9661
-6.4235 5.2446 -2.3476 0.9661
-6.6295 4.9817 -2.3476 0.9661
-6.8247 4.7108 -2.3476 0.9661
-7.0088 4.4321 -2.3476 0.9661
-7.3428 3.8538 -2.3476 0.9661
-7.6290 3.2504 -2.3476 0.9661
-8.1090 2.7072 -2.4202 0.9651
-8.5743 2.1134 -2.5000 0.9640
-8.6525 1.7664 -2.5000 0.9640
-8.8023 0.7106 -2.5000 0.9640
-8.1280 0.0000 -2.5000 0.9666
-8.1213 -0.3273 -2.5000 0.9666
-8.0227 -1.3038 -2.5000 0.9666
-7.9637 -1.6258 -2.5000 0.9666
-7.8070 -2.2613 -2.5000 0.9666
-7.5997 -2.8822 -2.5000 0.9666
-7.3432 -3.4844 -2.5000 0.9666
-7.1970 -3.7772 -2.5000 0.9666
-7.0390 -4.0640 -2.5000 0.9666
-6.6892 -4.6172 -2.5000 0.9666
-6.0839 -5.3898 -2.5000 0.9666
-5.6304 -5.8619 -2.5000 0.9666
-5.3898 -6.0838 -2.5000 0.9666
-5.1405 -6.2960 -2.5000 0.9666
-4.8828 -6.4978 -2.5000 0.9666
-4.6172 -6.6892 -2.5000 0.9666
-4.0640 -7.0390 -2.5000 0.9666
-3.7772 -7.1969 -2.5000 0.9666
-3.4844 -7.3432 -2.5000 0.9666
-3.1859 -7.4775 -2.5000 0.9666
-2.2613 -7.8071 -2.5000 0.9666
-1.3038 -8.0227 -2.5000 0.9666
-0.9797 -8.0687 -2.5000 0.9666
-0.6540 -8.1016 -2.5000 0.9666
-0.3273 -8.1214 -2.5000 0.9666
0.0000 -8.1280 -2.5000 0.9666
0.3273 -8.1214 -2.5000 0.9666
0.9797 -8.0687 -2.5000 0.9666
1.3038 -8.0227 -2.5000 0.9666
1.6258 -7.9637 -2.5000 0.9666
1.9452 -7.8918 -2.5000 0.9666
2.5739 -7.7097 -2.5000 0.9666
3.1859 -7.4775 -2.5000 0.9666
3.4844 -7.3432 -2.5000 0.9666
4.0640 -7.0390 -2.5000 0.9666
4.3441 -6.8697 -2.5000 0.9666
5.3898 -6.0839 -2.5000 0.9666
5.6304 -5.8619 -2.5000 0.9666
5.8619 -5.6304 -2.5000 0.9666
6.0839 -5.3898 -2.5000 0.9666
7.0390 -4.0640 -2.5000 0.9666
7.4775 -3.1859 -2.5000 0.9666
7.7097 -2.5738 -2.5000 0.9666
7.8071 -2.2613 -2.5000 0.9666
7.8918 -1.9451 -2.5000 0.9666
7.9637 -1.6258 -2.5000 0.9666
8.0687 -0.9797 -2.5000 0.9666
8.1214 -0.3273 -2.5000 0.9666
8.1280 0.0000 -2.5000 0.9666
8.0687 0.9797 -2.5000 0.9666
8.0227 1.3038 -2.5000 0.9666
7.9637 1.6258 -2.5000 0.9666
7.8071 2.2613 -2.5000 0.9666
7.0217 2.9917 -2.3476 0.9686
6.7582 3.5470 -2.3476 0.9686
6.6099 3.8162 -2.3476 0.9686
6.4509 4.0793 -2.3476 0.9686
5.7130 5.0613 -2.3476 0.9686
5.5046 5.2872 -2.3476 0.9686
5.0613 5.7130 -2.3476 0.9686
4.5851 6.1017 -2.3476 0.9686
4.3358 6.2814 -2.3476 0.9686
3.5470 6.7582 -2.3476 0.9686
2.6968 7.1108 -2.3391 0.9687
2.3992 7.1862 -2.3302 0.9688
2.1075 7.2758 -2.3299 0.9688
1.5147 7.4196 -2.3292 0.9688
0.3047 7.5622 -2.3278 0.9688
-1.2132 7.4651 -2.3262 0.9688
-2.1034 7.2617 -2.3254 0.9689
-2.3937 7.1703 -2.3251 0.9689
-2.6935 7.1022 -2.3363 0.9687
-3.2720 6.8956 -2.3476 0.9686
-3.5470 6.7582 -2.3476 0.9686
-3.8162 6.6099 -2.3476 0.9686
-4.3357 6.2814 -2.3476 0.9686
-5.7130 5.0613 -2.3476 0.9686
-6.1017 4.5852 -2.3476 0.9686
-6.4509 4.0793 -2.3476 0.9686
-6.7582 3.5470 -2.3476 0.9686
-6.8956 3.2720 -2.3476 0.9686
-7.0217 2.9917 -2.3476 0.9686
-7.8070 2.2613 -2.5000 0.9666
-7.9637 1.6258 -2.5000 0.9666
-8.0227 1.3038 -2.5000 0.9666
-8.0687 0.9797 -2.5000 0.9666
-7.5148 -0.3028 -2.5000 0.9688
-7.4235 -1.2064 -2.5000 0.9688
-7.3689 -1.5044 -2.5000 0.9688
-7.3023 -1.7999 -2.5000 0.9688
-7.2239 -2.0924 -2.5000 0.9688
-7.0321 -2.6669 -2.5000 0.9688
-6.6594 -3.4951 -2.5000 0.9688
-6.5133 -3.7604 -2.5000 0.9688
-6.3566 -4.0196 -2.5000 0.9688
-6.1896 -4.2724 -2.5000 0.9688
-6.0125 -4.5181 -2.5000 0.9688
-5.6295 -4.9873 -2.5000 0.9688
-4.2723 -6.1896 -2.5000 0.9688
-3.2241 -6.7947 -2.5000 0.9688
-2.6669 -7.0321 -2.5000 0.9688
-2.0924 -7.2239 -2.5000 0.9688
-1.5044 -7.3689 -2.5000 0.9688
-1.2064 -7.4235 -2.5000 0.9688
-0.6052 -7.4965 -2.5000 0.9688
0.3029 -7.5148 -2.5000 0.9688
0.6052 -7.4965 -2.5000 0.9688
1.5044 -7.3689 -2.5000 0.9688
2.9479 -6.9191 -2.5000 0.9688
3.2242 -6.7947 -2.5000 0.9688
3.4951 -6.6594 -2.5000 0.9688
4.2724 -6.1896 -2.5000 0.9688
4.5181 -6.0125 -2.5000 0.9688
4.7566 -5.8257 -2.5000 0.9688
5.2099 -5.4241 -2.5000 0.9688
5.4241 -5.2099 -2.5000 0.9688
5.6295 -4.9873 -2.5000 0.9688
5.8257 -4.7565 -2.5000 0.9688
6.0125 -4.5181 -2.5000 0.9688
6.1896 -4.2723 -2.5000 0.9688
6.3566 -4.0197 -2.5000 0.9688
6.5133 -3.7604 -2.5000 0.9688
6.6594 -3.4951 -2.5000 0.9688
6.9191 -2.9479 -2.5000 0.9688
7.1338 -2.3816 -2.5000 0.9688
7.5148 -0.3028 -2.5000 0.9688
7.5209 0.0000 -2.5000 0.9688
7.4965 0.6052 -2.5000 0.9688
7.4661 0.9066 -2.5000 0.9688
7.4235 1.2064 -2.5000 0.9688
7.3023 1.7999 -2.5000 0.9688
7.2240 2.0925 -2.5000 0.9688
6.4973 2.7682 -2.3476 0.9707
6.3805 3.0276 -2.3476 0.9707
6.2535 3.2821 -2.3476 0.9707
6.1162 3.5312 -2.3476 0.9707
5.9691 3.7746 -2.3476 0.9707
5.8122 4.0119 -2.3476 0.9707
5.4706 4.4666 -2.3476 0.9707
5.0934 4.8923 -2.3476 0.9707
4.8923 5.0934 -2.3476 0.9707
4.2427 5.6460 -2.3476 0.9707
3.5312 6.1162 -2.3476 0.9707
3.2821 6.2535 -2.3476 0.9707
3.0276 6.3805 -2.3476 0.9707
1.9649 6.7836 -2.3476 0.9707
0.8504 7.0033 -2.3450 0.9707
0.5671 7.0253 -2.3429 0.9707
0.2836 7.0387 -2.3416 0.9707
-0.2837 7.0393 -2.3418 0.9707
-0.5672 7.0265 -2.3433 0.9707
-1.1332 6.9708 -2.3475 0.9707
-1.6901 6.8572 -2.3476 0.9707
-1.9649 6.7836 -2.3476 0.9707
-2.2364 6.6989 -2.3476 0.9707
-2.7682 6.4973 -2.3476 0.9707
-3.2821 6.2535 -2.3476 0.9707
-3.5312 6.1162 -2.3476 0.9707
-3.7746 5.9691 -2.3476 0.9707
-4.2427 5.6460 -2.3476 0.9707
-4.6832 5.2863 -2.3476 0.9707
-4.8923 5.0934 -2.3476 0.9707
-5.9691 3.7746 -2.3476 0.9707
-6.1162 3.5312 -2.3476 0.9707
-6.2534 3.2821 -2.3476 0.9707
-7.1338 2.3816 -2.5000 0.9688
-7.2240 2.0924 -2.5000 0.9688
-7.4661 0.9065 -2.5000 0.9688
-7.5148 0.3029 -2.5000 0.9688
-6.9909 0.0000 -2.5000 0.9707
-6.9852 -0.2815 -2.5000 0.9707
-6.9003 -1.1214 -2.5000 0.9707
-6.8496 -1.3984 -2.5000 0.9707
-6.7148 -1.9450 -2.5000 0.9707
-6.6311 -2.2138 -2.5000 0.9707
-6.5366 -2.4790 -2.5000 0.9707
-6.3159 -2.9969 -2.5000 0.9707
-6.1901 -3.2488 -2.5000 0.9707
-5.7534 -3.9713 -2.5000 0.9707
-5.4152 -4.4213 -2.5000 0.9707
-5.2327 -4.6358 -2.5000 0.9707
-5.0418 -4.8427 -2.5000 0.9707
-4.8427 -5.0418 -2.5000 0.9707
-3.9713 -5.7534 -2.5000 0.9707
-3.7364 -5.9086 -2.5000 0.9707
-3.4954 -6.0543 -2.5000 0.9707
-3.2488 -6.1901 -2.5000 0.9707
-2.2138 -6.6311 -2.5000 0.9707
-1.9450 -6.7148 -2.5000 0.9707
-1.6730 -6.7877 -2.5000 0.9707
-1.3984 -6.8496 -2.5000 0.9707
-1.1214 -6.9003 -2.5000 0.9707
-0.5625 -6.9682 -2.5000 0.9707
-0.2815 -6.9852 -2.5000 0.9707
0.0000 -6.9909 -2.5000 0.9707
0.2815 -6.9852 -2.5000 0.9707
0.5625 -6.9682 -2.5000 0.9707
1.6730 -6.7877 -2.5000 0.9707
2.4790 -6.5366 -2.5000 0.9707
2.7402 -6.4315 -2.5000 0.9707
2.9969 -6.3159 -2.5000 0.9707
3.4954 -6.0543 -2.5000 0.9707
3.9713 -5.7534 -2.5000 0.9707
4.1997 -5.5888 -2.5000 0.9707
4.4213 -5.4152 -2.5000 0.9707
4.6358 -5.2327 -2.5000 0.9707
5.0418 -4.8427 -2.5000 0.9707
5.4152 -4.4213 -2.5000 0.9707
5.7534 -3.9712 -2.5000 0.9707
6.0543 -3.4954 -2.5000 0.9707
6.1901 -3.2488 -2.5000 0.9707
6.3159 -2.9969 -2.5000 0.9707
6.5366 -2.4790 -2.5000 0.9707
6.6311 -2.2138 -2.5000 0.9707
6.7148 -1.9450 -2.5000 0.9707
6.8496 -1.3983 -2.5000 0.9707
6.9852 0.2815 -2.5000 0.9707
6.9682 0.5625 -2.5000 0.9707
6.9399 0.8427 -2.5000 0.9707
6.7148 1.9450 -2.5000 0.9707
6.6311 2.2138 -2.5000 0.9707
6.5366 2.4790 -2.5000 0.9707
5.6852 3.2824 -2.3476 0.9725
5.4026 3.7292 -2.3476 0.9725
5.0850 4.1518 -2.3476 0.9725
4.9138 4.3532 -2.3476 0.9725
4.5475 4.7345 -2.3476 0.9725
4.3532 4.9137 -2.3476 0.9725
4.1518 5.0850 -2.3476 0.9725
3.9437 5.2481 -2.3476 0.9725
3.5086 5.5484 -2.3476 0.9725
3.2824 5.6852 -2.3476 0.9725
3.0508 5.8128 -2.3476 0.9725
2.5732 6.0394 -2.3476 0.9725
2.3279 6.1381 -2.3476 0.9725
1.8264 6.3055 -2.3476 0.9725
1.3131 6.4320 -2.3476 0.9725
0.7913 6.5168 -2.3476 0.9725
0.2643 6.5594 -2.3476 0.9725
0.0000 6.5647 -2.3476 0.9725
-0.5282 6.5434 -2.3476 0.9725
-0.7913 6.5168 -2.3476 0.9725
-1.0530 6.4797 -2.3476 0.9725
-1.3131 6.4320 -2.3476 0.9725
-1.5710 6.3739 -2.3476 0.9725
-2.0788 6.2269 -2.3476 0.9725
-2.3279 6.1381 -2.3476 0.9725
-2.8142 5.9309 -2.3476 0.9725
-3.7292 5.4026 -2.3476 0.9725
-4.1518 5.0851 -2.3476 0.9725
-4.3532 4.9137 -2.3476 0.9725
-4.7345 4.5475 -2.3476 0.9725
-4.9137 4.3532 -2.3476 0.9725
-5.4026 3.7292 -2.3476 0.9725
-5.6852 3.2824 -2.3476 0.9725
-6.3369 2.6999 -2.4632 0.9712
-6.7877 1.6730 -2.5000 0.9707
-6.9003 1.1214 -2.5000 0.9707
-3.5687 -0.2881 -1.3720 0.9848
-3.5921 -0.4362 -1.3867 0.9846
-6.4392 -1.0465 -2.5000 0.9724
-6.1879 -2.0658 -2.5000 0.9724
-6.0016 -2.5570 -2.5000 0.9724
