ply
format ascii 1.0
element vertex 1581
property float32 x
property float32 y
property float32 z
property float32 I
end_header
-24.4204 19.9386 -2.3116 0.8812
-27.5733 15.9194 -2.3345 0.8801
-28.2123 14.8070 -2.3362 0.8800
-28.8068 13.6690 -2.3379 0.8800
-29.2374 8.4688 -2.2319 0.8851
-29.2374 7.2064 -2.2079 0.8862
-29.4566 6.0136 -2.2044 0.8864
-31.6121 5.1375 -2.3483 0.8795
-33.3131 2.6893 -2.4505 0.8746
-34.0682 1.3729 -2.5000 0.8722
-26.0304 0.0000 -2.4991 0.9007
-25.8503 -3.1388 -2.5000 0.9006
-25.7029 -4.1771 -2.5000 0.9006
-25.5139 -5.2087 -2.5000 0.9006
-25.0120 -7.2448 -2.5000 0.9006
-24.7000 -8.2461 -2.5000 0.9006
-24.3480 -9.2339 -2.5000 0.9006
-23.9564 -10.2069 -2.5000 0.9006
-20.1243 -13.8908 -2.3476 0.9064
-19.5488 -14.6900 -2.3476 0.9064
-18.9421 -15.4658 -2.3477 0.9064
-17.6465 -16.9493 -2.3490 0.9064
-16.9617 -17.6590 -2.3507 0.9063
-14.3920 -16.2452 -2.0836 0.9165
-8.4543 -16.1084 -1.7465 0.9295
-7.6346 -16.0895 -1.7097 0.9309
-6.8638 -16.1101 -1.6812 0.9321
-7.3094 -21.8943 -2.2160 0.9114
-3.2457 -15.8987 -1.5578 0.9369
-2.5959 -15.9735 -1.5537 0.9370
-2.9435 -24.2415 -2.3444 0.9065
-1.9649 -24.3398 -2.3443 0.9065
-0.9832 -24.3990 -2.3443 0.9065
2.9438 -24.2443 -2.3447 0.9065
3.9179 -24.1080 -2.3449 0.9065
3.2154 -15.7499 -1.5433 0.9374
4.5789 -15.8082 -1.5800 0.9360
9.5816 -22.4887 -2.3468 0.9064
10.4814 -22.0891 -2.3473 0.9064
8.2913 -15.7978 -1.7129 0.9308
9.0161 -15.6163 -1.7312 0.9301
9.9187 -15.6852 -1.7817 0.9281
10.8125 -15.6646 -1.8273 0.9264
11.7549 -15.6429 -1.8786 0.9244
17.6374 -16.9409 -2.3478 0.9064
22.5515 -13.0201 -2.5000 0.9006
23.5260 -11.1632 -2.5000 0.9006
24.7000 -8.2460 -2.5000 0.9006
25.0120 -7.2448 -2.5000 0.9006
25.5139 -5.2087 -2.5000 0.9006
25.7029 -4.1771 -2.5000 0.9006
25.8503 -3.1388 -2.5000 0.9006
25.9557 -2.0953 -2.5000 0.9006
26.0401 0.0000 -2.5000 0.9006
25.9557 2.0954 -2.5000 0.9006
24.2744 2.9475 -2.3476 0.9064
24.1361 3.9225 -2.3476 0.9064
23.2010 7.7456 -2.3483 0.9064
15.7111 8.2458 -1.7035 0.9312
15.7099 9.0701 -1.7415 0.9297
13.0279 8.2384 -1.4798 0.9399
12.5506 8.6630 -1.4641 0.9406
11.2402 8.4465 -1.3498 0.9451
10.3450 8.4465 -1.2822 0.9477
10.0494 9.6526 -1.3378 0.9455
9.2714 9.6526 -1.2849 0.9476
6.1330 8.8852 -1.0365 0.9575
4.2590 8.1149 -0.8799 0.9638
3.9066 8.2329 -0.8749 0.9640
3.5788 8.3999 -0.8766 0.9640
3.2654 8.6102 -0.8841 0.9637
3.0058 9.0036 -0.9113 0.9626
2.0196 8.1941 -0.8102 0.9667
1.1755 9.6811 -0.9363 0.9616
0.6631 8.2146 -0.7912 0.9674
0.3311 8.2164 -0.7895 0.9675
-0.3901 9.6811 -0.9302 0.9618
-1.5640 9.6238 -0.9361 0.9616
-1.9528 9.5654 -0.9373 0.9615
-2.7772 8.3187 -0.8420 0.9654
-3.8733 8.1627 -0.8674 0.9643
-13.7027 21.6692 -2.4614 0.9021
-16.2148 19.8595 -2.4614 0.9021
-18.4903 17.7602 -2.4614 0.9021
-20.4963 15.4019 -2.4614 0.9021
-21.0998 14.5642 -2.4614 0.9021
-21.6692 13.7028 -2.4614 0.9021
-22.8706 10.8522 -2.4303 0.9033
-22.8014 8.6474 -2.3412 0.9067
-23.7674 4.8522 -2.3289 0.9071
-24.2762 3.9453 -2.3612 0.9059
-25.4682 3.0924 -2.4630 0.9020
-25.9557 2.0954 -2.5000 0.9006
-26.0190 1.0485 -2.5000 0.9006
-20.9779 -1.6935 -2.5000 0.9187
-20.8927 -2.5368 -2.5000 0.9187
-20.7736 -3.3760 -2.5000 0.9187
-20.6208 -4.2098 -2.5000 0.9187
-20.4346 -5.0367 -2.5000 0.9187
-20.2152 -5.8554 -2.5000 0.9187
-19.6785 -7.4630 -2.5000 0.9187
-19.0142 -9.0223 -2.5000 0.9187
-18.6354 -9.7806 -2.5000 0.9187
-18.2265 -10.5231 -2.5000 0.9187
-16.8252 -12.6433 -2.5000 0.9187
-14.2533 -13.6904 -2.3476 0.9235
-9.2591 -16.0372 -2.1997 0.9281
-9.1986 -17.5265 -2.3512 0.9234
-6.8474 -16.0714 -2.0751 0.9321
-6.0884 -16.0539 -2.0395 0.9332
-3.2457 -15.8987 -1.9275 0.9367
-1.9528 -16.0829 -1.9245 0.9368
-1.3007 -16.1117 -1.9201 0.9370
-0.6494 -16.1142 -1.9157 0.9371
1.2889 -15.9654 -1.9026 0.9375
1.9269 -15.8693 -1.8989 0.9376
3.2154 -15.7499 -1.9095 0.9373
3.9002 -15.8238 -1.9359 0.9365
5.2722 -15.7922 -1.9777 0.9351
5.9830 -15.7758 -2.0042 0.9343
8.4870 -17.8859 -2.3516 0.9234
10.5644 -16.7062 -2.3480 0.9235
11.8726 -15.7995 -2.3476 0.9235
12.4991 -15.3086 -2.3476 0.9235
16.8252 -12.6433 -2.5000 0.9187
17.3206 -11.9556 -2.5000 0.9187
17.7880 -11.2484 -2.5000 0.9187
19.3620 -8.2494 -2.5000 0.9187
19.6785 -7.4630 -2.5000 0.9187
20.7736 -3.3760 -2.5000 0.9187
21.0291 -0.8474 -2.5000 0.9187
21.0461 0.0000 -2.5000 0.9187
21.0290 0.8474 -2.5000 0.9187
20.8927 2.5368 -2.5000 0.9187
19.5072 3.1702 -2.3476 0.9235
19.3638 3.9532 -2.3476 0.9235
19.1889 4.7296 -2.3476 0.9235
18.9829 5.4985 -2.3476 0.9235
18.7461 6.2584 -2.3476 0.9235
15.7099 9.0701 -2.1548 0.9295
13.0279 8.2384 -1.8310 0.9398
11.2402 8.4465 -1.6701 0.9449
9.6678 7.8935 -1.4826 0.9510
7.2759 8.2128 -1.3033 0.9568
6.7055 8.2128 -1.2594 0.9582
6.1715 8.2128 -1.2203 0.9595
6.0145 8.7135 -1.2577 0.9582
4.2845 8.1634 -1.0951 0.9635
3.2855 8.6633 -1.1006 0.9634
2.7878 9.6245 -1.1902 0.9604
1.9234 9.4217 -1.1422 0.9620
1.5416 9.4857 -1.1415 0.9620
0.6486 8.0342 -0.9575 0.9681
0.3238 8.0364 -0.9554 0.9681
-0.3868 9.5994 -1.1412 0.9620
-1.0302 8.4846 -1.0153 0.9662
-1.9528 9.5654 -1.1597 0.9614
-2.7772 8.3187 -1.0418 0.9653
-3.9010 8.2211 -1.0809 0.9640
-1.7979 3.4256 -0.4595 0.9845
-9.7335 16.8589 -2.3124 0.9246
-10.3963 16.4404 -2.3106 0.9246
-11.0422 15.9975 -2.3090 0.9247
-12.4481 16.5655 -2.4614 0.9199
-13.1051 16.0508 -2.4614 0.9199
-14.9442 14.3541 -2.4614 0.9199
-16.0508 13.1051 -2.4614 0.9199
-16.5655 12.4481 -2.4614 0.9199
-17.0533 11.7710 -2.4614 0.9199
-17.5134 11.0748 -2.4614 0.9199
-18.3478 9.6297 -2.4614 0.9199
-19.0632 8.1221 -2.4614 0.9199
-19.3846 7.3516 -2.4626 0.9199
-20.5303 4.1913 -2.4890 0.9191
-20.8791 2.5352 -2.4984 0.9188
-20.9688 1.6928 -2.4989 0.9188
-21.0246 0.8473 -2.4995 0.9187
-17.6441 0.0000 -2.5000 0.9312
-17.6298 -0.7104 -2.5000 0.9312
-17.5869 -1.4197 -2.5000 0.9312
-17.4156 -2.8303 -2.5000 0.9312
-16.7361 -5.5873 -2.5000 0.9312
-16.4975 -6.2567 -2.5000 0.9312
-16.2322 -6.9159 -2.5000 0.9312
-15.6231 -8.1996 -2.5000 0.9312
-15.2803 -8.8221 -2.5000 0.9312
-14.9126 -9.4302 -2.5000 0.9312
-14.5208 -10.0230 -2.5000 0.9312
-14.1055 -10.5996 -2.5000 0.9312
-13.2068 -11.7002 -2.5000 0.9312
-12.7250 -12.2225 -2.5000 0.9312
-8.8553 -14.0035 -2.3476 0.9353
-7.1028 -14.9688 -2.3476 0.9353
-6.4943 -15.2427 -2.3476 0.9353
-4.6103 -15.9165 -2.3479 0.9352
-3.9658 -16.0899 -2.3480 0.9352
-2.6584 -16.3578 -2.3481 0.9352
-0.6673 -16.5595 -2.3482 0.9352
0.0000 -16.5729 -2.3482 0.9352
0.6673 -16.5592 -2.3482 0.9352
1.3335 -16.5186 -2.3481 0.9352
2.6582 -16.3566 -2.3480 0.9352
3.9654 -16.0881 -2.3477 0.9353
4.6097 -15.9145 -2.3476 0.9353
6.4943 -15.2427 -2.3476 0.9353
8.2843 -14.3488 -2.3476 0.9353
9.4120 -13.6356 -2.3476 0.9353
9.9534 -13.2456 -2.3476 0.9353
11.6822 -13.1865 -2.4961 0.9313
12.2225 -12.7250 -2.5000 0.9312
14.5208 -10.0230 -2.5000 0.9312
15.6231 -8.1996 -2.5000 0.9312
16.2322 -6.9159 -2.5000 0.9312
16.4975 -6.2567 -2.5000 0.9312
17.1314 -4.2225 -2.5000 0.9312
17.2875 -3.5293 -2.5000 0.9312
17.4156 -2.8303 -2.5000 0.9312
7.2380 -0.2917 -1.0264 0.9712
7.1771 0.0000 -1.0169 0.9714
17.5869 1.4198 -2.5000 0.9312
16.7273 2.7185 -2.4012 0.9338
16.2337 3.3141 -2.3476 0.9353
16.0871 3.9651 -2.3476 0.9353
15.9144 4.6097 -2.3476 0.9353
15.7158 5.2467 -2.3476 0.9353
15.4919 5.8753 -2.3476 0.9353
12.5064 8.6326 -2.1532 0.9405
9.6860 7.9084 -1.7718 0.9507
9.2650 8.2081 -1.7538 0.9512
6.7055 8.2128 -1.5023 0.9581
6.1330 8.8852 -1.5297 0.9573
5.3092 8.3958 -1.4075 0.9607
3.9066 8.2329 -1.2912 0.9639
3.3311 8.7833 -1.3310 0.9628
1.7881 8.7585 -1.2666 0.9645
1.0748 8.8523 -1.2635 0.9646
0.6346 7.8606 -1.1174 0.9686
-0.0000 8.9161 -1.2633 0.9646
-0.3592 8.9128 -1.2639 0.9646
-1.0303 8.4849 -1.2110 0.9661
-1.2757 7.8497 -1.1268 0.9684
-1.9528 9.5654 -1.3833 0.9613
-2.2169 8.9943 -1.3125 0.9633
-2.7772 8.3187 -1.2426 0.9652
-3.0901 8.1479 -1.2347 0.9654
-3.4492 8.0955 -1.2468 0.9651
-8.1669 14.1455 -2.3143 0.9361
-8.7299 13.8052 -2.3143 0.9361
-9.2744 13.4363 -2.3133 0.9362
-9.8018 13.0438 -2.3118 0.9362
-10.3128 12.6309 -2.3104 0.9362
-13.0030 11.5196 -2.4614 0.9322
-13.4563 10.9867 -2.4614 0.9322
-14.6825 9.2846 -2.4614 0.9322
-15.3819 8.0731 -2.4614 0.9322
-15.6964 7.4480 -2.4617 0.9322
-16.3297 6.1930 -2.4745 0.9319
-16.8253 4.8735 -2.4820 0.9317
-17.0746 4.2085 -2.4917 0.9314
-17.4076 2.8290 -2.4988 0.9312
-17.5105 2.1262 -2.4993 0.9312
-17.5852 1.4196 -2.4997 0.9312
-15.1262 -1.2211 -2.5000 0.9403
-15.0648 -1.8292 -2.5000 0.9403
-14.9789 -2.4343 -2.5000 0.9403
-14.8687 -3.0355 -2.5000 0.9403
-14.1893 -5.3812 -2.5000 0.9403
-13.9611 -5.9483 -2.5000 0.9403
-13.4372 -7.0524 -2.5000 0.9403
-12.4891 -8.6206 -2.5000 0.9403
-12.1319 -9.1165 -2.5000 0.9403
-11.7550 -9.5976 -2.5000 0.9403
-10.9446 -10.5124 -2.5000 0.9403
-10.5124 -10.9445 -2.5000 0.9403
-9.5976 -11.7549 -2.5000 0.9403
-8.1107 -12.8261 -2.5000 0.9403
-6.9286 -13.2013 -2.4561 0.9414
-5.6314 -13.2174 -2.3668 0.9434
-4.5126 -13.5169 -2.3476 0.9439
-3.9647 -13.6877 -2.3476 0.9439
-3.4103 -13.8362 -2.3476 0.9439
-1.7177 -14.1464 -2.3476 0.9439
-0.5738 -14.2387 -2.3476 0.9439
0.5738 -14.2387 -2.3476 0.9439
1.1467 -14.2041 -2.3476 0.9439
2.8504 -13.9623 -2.3476 0.9439
3.9647 -13.6877 -2.3476 0.9439
5.6295 -13.2130 -2.3660 0.9434
9.1165 -12.1319 -2.5000 0.9403
9.5976 -11.7550 -2.5000 0.9403
10.0632 -11.3589 -2.5000 0.9403
11.3588 -10.0632 -2.5000 0.9403
11.7550 -9.5976 -2.5000 0.9403
12.1319 -9.1165 -2.5000 0.9403
13.7102 -6.5056 -2.5000 0.9403
13.9611 -5.9482 -2.5000 0.9403
14.1892 -5.3813 -2.5000 0.9403
14.5763 -4.2221 -2.5000 0.9403
14.7344 -3.6317 -2.5000 0.9403
14.8687 -3.0355 -2.5000 0.9403
14.9789 -2.4343 -2.5000 0.9403
6.7771 -0.5471 -1.1201 0.9728
6.6903 0.0000 -1.1022 0.9732
6.6982 0.2699 -1.1044 0.9732
6.7738 0.5468 -1.1195 0.9728
15.0648 1.8292 -2.5000 0.9403
14.9789 2.4343 -2.5000 0.9403
13.9623 2.8504 -2.3476 0.9439
13.5169 4.5126 -2.3476 0.9439
13.3243 5.0532 -2.3476 0.9439
12.8744 6.1090 -2.3476 0.9439
12.6180 6.6225 -2.3476 0.9439
12.3081 7.1061 -2.3413 0.9440
11.3397 8.5212 -2.3367 0.9441
9.7046 7.9235 -2.0639 0.9505
9.2803 8.2217 -2.0425 0.9510
7.9762 8.3042 -1.8969 0.9544
7.2759 8.2128 -1.8076 0.9565
6.7055 8.2128 -1.7467 0.9579
6.1715 8.2128 -1.6924 0.9592
6.1330 8.8852 -1.7786 0.9572
3.9066 8.2329 -1.5012 0.9637
3.0311 9.0791 -1.5768 0.9619
1.9907 8.0767 -1.3704 0.9668
1.7516 8.5801 -1.4426 0.9651
1.0421 8.5830 -1.4243 0.9656
0.6211 7.6933 -1.2715 0.9692
0.3101 7.6962 -1.2689 0.9693
0.0000 8.5833 -1.4140 0.9658
-0.6927 8.5805 -1.4181 0.9657
-1.0303 8.4852 -1.4081 0.9659
-2.7772 8.3187 -1.4448 0.9651
-3.1382 8.2749 -1.4579 0.9648
-3.8733 8.1627 -1.4884 0.9640
-1.7979 3.4256 -0.6373 0.9844
-7.9804 11.5617 -2.3143 0.9446
-8.4395 11.2309 -2.3143 0.9446
-8.8838 10.8807 -2.3140 0.9446
-9.7208 10.1204 -2.3117 0.9447
-11.9446 8.9758 -2.4614 0.9412
-12.2963 8.4876 -2.4614 0.9412
-12.6281 7.9855 -2.4614 0.9412
-12.9415 7.4718 -2.4618 0.9412
-13.2352 6.9463 -2.4624 0.9412
-14.0906 5.3439 -2.4826 0.9407
-14.5398 4.2115 -2.4937 0.9405
-14.8640 3.0345 -2.4992 0.9404
-15.1630 0.6111 -2.5000 0.9403
-13.3006 0.0000 -2.5000 0.9473
-13.2898 -0.5356 -2.5000 0.9473
-13.2036 -1.6032 -2.5000 0.9473
-12.9141 -3.1830 -2.5000 0.9473
-12.6161 -4.2118 -2.5000 0.9473
-12.0164 -5.7018 -2.5000 0.9473
-11.5186 -6.6503 -2.5000 0.9473
-10.6330 -7.9902 -2.5000 0.9473
-9.9556 -8.8199 -2.5000 0.9473
-9.5924 -9.2136 -2.5000 0.9473
-9.2136 -9.5924 -2.5000 0.9473
-8.8199 -9.9556 -2.5000 0.9473
-8.4119 -10.3027 -2.5000 0.9473
-6.6503 -11.5186 -2.5000 0.9473
-6.1811 -11.7771 -2.5000 0.9473
-5.2126 -12.2362 -2.5000 0.9473
-4.2119 -12.6161 -2.5000 0.9473
-3.7005 -12.7754 -2.5000 0.9473
-3.1830 -12.9141 -2.5000 0.9473
-2.1336 -13.1283 -2.5000 0.9473
-1.6017 -13.1915 -2.4977 0.9474
-1.0651 -13.1931 -2.4879 0.9476
-0.5317 -13.1940 -2.4820 0.9477
0.0000 -13.1941 -2.4800 0.9477
1.0650 -13.1923 -2.4877 0.9476
1.6016 -13.1903 -2.4975 0.9474
2.1335 -13.1283 -2.5000 0.9473
3.1830 -12.9141 -2.5000 0.9473
3.7004 -12.7754 -2.5000 0.9473
5.2151 -12.2362 -2.5000 0.9473
7.1087 -11.2415 -2.5000 0.9473
7.5556 -10.9461 -2.5000 0.9473
8.4121 -10.3027 -2.5000 0.9473
9.2136 -9.5924 -2.5000 0.9473
9.5925 -9.2136 -2.5000 0.9473
10.3027 -8.4119 -2.5000 0.9473
10.9462 -7.5556 -2.5000 0.9473
11.2415 -7.1087 -2.5000 0.9473
11.5186 -6.6503 -2.5000 0.9473
12.4362 -4.7164 -2.5000 0.9473
12.6161 -4.2119 -2.5000 0.9473
12.7754 -3.7005 -2.5000 0.9473
6.4513 -0.5208 -1.2165 0.9740
6.3832 0.0000 -1.1998 0.9744
6.4487 0.5206 -1.2160 0.9740
13.2036 1.6032 -2.5000 0.9473
13.1283 2.1336 -2.5000 0.9473
11.9966 3.4749 -2.3476 0.9504
11.8470 3.9551 -2.3476 0.9504
11.4903 4.8956 -2.3476 0.9504
11.0591 5.8043 -2.3476 0.9504
10.8164 6.2449 -2.3476 0.9504
9.9201 7.4545 -2.3324 0.9507
9.6134 7.8491 -2.3327 0.9507
9.2926 8.2325 -2.3335 0.9507
8.4437 8.1103 -2.2006 0.9535
8.2395 9.3004 -2.3355 0.9507
7.8567 9.6227 -2.3350 0.9507
6.1715 8.2128 -1.9310 0.9590
4.7431 8.2154 -1.7831 0.9621
3.9066 8.2329 -1.7128 0.9636
3.5788 8.3999 -1.7162 0.9635
3.3311 8.7833 -1.7657 0.9625
3.0310 9.0791 -1.7991 0.9618
2.0811 7.1848 -1.4060 0.9700
1.9907 8.0768 -1.5636 0.9667
1.3647 8.3977 -1.5992 0.9660
1.0198 8.3991 -1.5903 0.9662
0.5885 7.2903 -1.3748 0.9707
0.3036 7.5351 -1.4174 0.9698
-0.3384 8.3980 -1.5798 0.9664
-1.0194 8.3952 -1.5896 0.9662
-1.2219 7.5188 -1.4318 0.9695
-2.2169 8.9943 -1.7412 0.9630
-2.7772 8.3187 -1.6484 0.9649
-3.8733 8.1627 -1.6982 0.9639
-1.7979 3.4256 -0.7272 0.9844
-6.9945 10.1333 -2.3143 0.9511
-7.3968 9.8434 -2.3143 0.9511
-8.1649 9.2163 -2.3143 0.9511
-8.5294 8.8800 -2.3143 0.9511
-8.8781 8.5275 -2.3138 0.9511
-9.2106 8.1598 -2.3129 0.9512
-9.5280 7.7794 -2.3120 0.9512
-12.5929 4.2041 -2.4954 0.9474
-12.7694 3.6987 -2.4988 0.9473
-13.0308 2.6602 -2.4998 0.9473
-13.1283 2.1336 -2.5000 0.9473
-13.2036 1.6032 -2.5000 0.9473
-13.2898 0.5356 -2.5000 0.9473
-11.8270 -0.0000 -2.5000 0.9528
-11.8174 -0.4762 -2.5000 0.9528
-11.7886 -0.9517 -2.5000 0.9528
-11.6738 -1.8972 -2.5000 0.9528
-10.8806 -4.6358 -2.5000 0.9528
-10.6851 -5.0701 -2.5000 0.9528
-10.4723 -5.4963 -2.5000 0.9528
-10.2425 -5.9135 -2.5000 0.9528
-9.7334 -6.7185 -2.5000 0.9528
-9.4550 -7.1050 -2.5000 0.9528
-8.5296 -8.1928 -2.5000 0.9528
-8.1928 -8.5296 -2.5000 0.9528
-7.4799 -9.1612 -2.5000 0.9528
-7.1050 -9.4550 -2.5000 0.9528
-6.7185 -9.7334 -2.5000 0.9528
-5.0701 -10.6851 -2.5000 0.9528
-4.6358 -10.8806 -2.5000 0.9528
-3.7452 -11.2183 -2.5000 0.9528
-3.2905 -11.3600 -2.5000 0.9528
-1.8972 -11.6738 -2.5000 0.9528
-1.4256 -11.7407 -2.5000 0.9528
-0.4762 -11.8174 -2.5000 0.9528
0.9517 -11.7886 -2.5000 0.9528
2.3657 -11.5879 -2.5000 0.9528
4.1939 -11.0584 -2.5000 0.9528
4.6359 -10.8805 -2.5000 0.9528
5.9134 -10.2425 -2.5000 0.9528
6.3211 -9.9960 -2.5000 0.9528
6.7186 -9.7334 -2.5000 0.9528
7.1050 -9.4550 -2.5000 0.9528
7.4799 -9.1612 -2.5000 0.9528
8.1928 -8.5296 -2.5000 0.9528
9.1612 -7.4799 -2.5000 0.9528
9.4550 -7.1050 -2.5000 0.9528
10.4723 -5.4963 -2.5000 0.9528
11.0584 -4.1939 -2.5000 0.9528
11.2183 -3.7452 -2.5000 0.9528
11.3600 -3.2905 -2.5000 0.9528
11.4833 -2.8304 -2.5000 0.9528
11.6738 -1.8972 -2.5000 0.9528
6.1144 -0.2464 -1.2935 0.9753
6.1042 0.0000 -1.2903 0.9754
6.1137 0.2464 -1.2934 0.9753
6.1302 0.4949 -1.3000 0.9752
7.1579 0.8691 -1.5242 0.9710
11.6738 1.8972 -2.5000 0.9528
11.0213 2.7165 -2.3994 0.9547
10.5344 3.5169 -2.3476 0.9556
10.3843 3.9382 -2.3476 0.9556
9.8339 5.1612 -2.3476 0.9556
9.1401 6.3089 -2.3476 0.9556
8.8786 6.6718 -2.3476 0.9556
8.2529 7.3114 -2.3306 0.9559
7.9502 7.6363 -2.3302 0.9559
7.6382 7.9522 -2.3307 0.9559
7.3134 8.2552 -2.3313 0.9559
6.2547 8.3235 -2.2008 0.9583
5.3091 8.3958 -2.0998 0.9602
3.0311 9.0791 -2.0233 0.9616
0.2887 7.1657 -1.5159 0.9711
0.0000 8.2081 -1.7350 0.9670
-0.6624 8.2054 -1.7401 0.9669
-0.9962 8.2041 -1.7469 0.9668
-1.1503 7.0782 -1.5158 0.9711
-2.7772 8.3187 -1.8538 0.9648
-3.1280 8.2479 -1.8646 0.9646
-3.5256 8.2749 -1.9013 0.9639
-1.7979 3.4256 -0.8178 0.9843
-6.2213 9.0132 -2.3150 0.9562
-7.2603 8.1952 -2.3143 0.9562
-7.5844 7.8962 -2.3143 0.9562
-7.8962 7.5844 -2.3143 0.9562
-9.0618 6.2550 -2.3275 0.9560
-11.0442 4.1885 -2.4968 0.9529
-11.2151 3.7442 -2.4993 0.9528
-11.5880 2.3657 -2.5000 0.9528
-11.7886 0.9517 -2.5000 0.9528
-10.6372 0.0000 -2.5000 0.9572
-10.4222 -2.1277 -2.5000 0.9572
-10.3281 -2.5457 -2.5000 0.9572
-9.9460 -3.7720 -2.5000 0.9572
-9.7860 -4.1694 -2.5000 0.9572
-9.6102 -4.5601 -2.5000 0.9572
-9.4188 -4.9433 -2.5000 0.9572
-8.9905 -5.6852 -2.5000 0.9572
-8.5038 -6.3902 -2.5000 0.9572
-8.2396 -6.7274 -2.5000 0.9572
-7.6716 -7.3686 -2.5000 0.9572
-7.3686 -7.6716 -2.5000 0.9572
-7.0538 -7.9620 -2.5000 0.9572
-6.7275 -8.2396 -2.5000 0.9572
-6.3902 -8.5038 -2.5000 0.9572
-6.0426 -8.7542 -2.5000 0.9572
-4.1694 -9.7860 -2.5000 0.9572
-2.5457 -10.3281 -2.5000 0.9572
-2.1277 -10.4222 -2.5000 0.9572
-1.7063 -10.4994 -2.5000 0.9572
-1.2822 -10.5596 -2.5000 0.9572
0.4283 -10.6286 -2.5000 0.9572
0.8559 -10.6027 -2.5000 0.9572
1.2821 -10.5597 -2.5000 0.9572
2.1277 -10.4222 -2.5000 0.9572
2.5456 -10.3281 -2.5000 0.9572
2.9594 -10.2172 -2.5000 0.9572
3.7719 -9.9460 -2.5000 0.9572
4.1694 -9.7860 -2.5000 0.9572
4.5601 -9.6102 -2.5000 0.9572
4.9433 -9.4188 -2.5000 0.9572
5.3186 -9.2121 -2.5000 0.9572
5.6852 -8.9904 -2.5000 0.9572
6.3902 -8.5038 -2.5000 0.9572
6.7274 -8.2396 -2.5000 0.9572
7.6716 -7.3686 -2.5000 0.9572
7.9620 -7.0538 -2.5000 0.9572
8.2396 -6.7274 -2.5000 0.9572
8.7542 -6.0426 -2.5000 0.9572
9.4187 -4.9433 -2.5000 0.9572
9.6102 -4.5601 -2.5000 0.9572
9.7860 -4.1694 -2.5000 0.9572
9.9459 -3.7720 -2.5000 0.9572
10.2172 -2.9595 -2.5000 0.9572
10.3281 -2.5456 -2.5000 0.9572
10.4222 -2.1277 -2.5000 0.9572
10.4994 -1.7063 -2.5000 0.9572
6.0209 -0.7311 -1.4254 0.9754
10.4994 1.7063 -2.5000 0.9572
10.4222 2.1277 -2.5000 0.9572
9.1894 3.9153 -2.3476 0.9598
9.0243 4.2821 -2.3476 0.9598
8.6505 4.9944 -2.3476 0.9598
8.4424 5.3386 -2.3476 0.9598
8.2206 5.6743 -2.3476 0.9598
7.7373 6.3173 -2.3476 0.9598
7.4767 6.6238 -2.3476 0.9598
7.2099 6.9194 -2.3476 0.9598
6.5707 7.4168 -2.3288 0.9601
5.2970 8.3765 -2.3293 0.9601
3.2654 8.6102 -2.1642 0.9629
3.0058 9.0036 -2.2309 0.9617
1.9762 8.0179 -1.9408 0.9666
1.3035 8.0206 -1.9098 0.9672
-0.0000 8.0221 -1.8854 0.9676
-2.1925 8.8953 -2.1532 0.9631
-2.4514 8.4632 -2.0708 0.9644
-2.7772 8.3187 -2.0612 0.9646
-3.1382 8.2749 -2.0800 0.9643
-3.5256 8.2749 -2.1139 0.9637
-3.8733 8.1627 -2.1234 0.9636
-1.7979 3.4256 -0.9092 0.9842
-4.9288 8.5370 -2.3168 0.9603
-6.5310 7.3719 -2.3147 0.9603
-6.8505 7.1321 -2.3242 0.9602
-7.1599 6.8772 -2.3332 0.9600
-7.9783 5.9953 -2.3455 0.9598
-8.2151 5.6705 -2.3460 0.9598
-8.4390 5.3365 -2.3466 0.9598
-8.8440 4.6417 -2.3474 0.9598
-10.0894 3.3683 -2.4999 0.9572
-10.6027 0.8559 -2.5000 0.9572
-10.6286 0.4283 -2.5000 0.9572
-9.6477 -0.3888 -2.5000 0.9609
-9.5851 -1.1638 -2.5000 0.9609
-9.5305 -1.5488 -2.5000 0.9609
-9.4604 -1.9313 -2.5000 0.9609
-9.2743 -2.6863 -2.5000 0.9609
-9.1586 -3.0576 -2.5000 0.9609
-8.5495 -4.4871 -2.5000 0.9609
-8.3619 -4.8278 -2.5000 0.9609
-7.4792 -6.1066 -2.5000 0.9609
-7.2273 -6.4028 -2.5000 0.9609
-6.9636 -6.6886 -2.5000 0.9609
-6.6886 -6.9636 -2.5000 0.9609
-5.8005 -7.7190 -2.5000 0.9609
-5.4850 -7.9463 -2.5000 0.9609
-4.8278 -8.3619 -2.5000 0.9609
-4.4871 -8.5495 -2.5000 0.9609
-3.4239 -9.0281 -2.5000 0.9609
-3.0576 -9.1586 -2.5000 0.9609
-2.6864 -9.2743 -2.5000 0.9609
-0.3888 -9.6477 -2.5000 0.9609
0.3888 -9.6477 -2.5000 0.9609
0.7769 -9.6242 -2.5000 0.9609
1.5489 -9.5305 -2.5000 0.9609
1.9314 -9.4604 -2.5000 0.9609
2.3107 -9.3749 -2.5000 0.9609
3.7846 -8.8829 -2.5000 0.9609
4.4871 -8.5495 -2.5000 0.9609
4.8277 -8.3619 -2.5000 0.9609
5.1605 -8.1607 -2.5000 0.9609
5.4850 -7.9463 -2.5000 0.9609
5.8005 -7.7190 -2.5000 0.9609
6.4028 -7.2272 -2.5000 0.9609
6.6886 -6.9636 -2.5000 0.9609
6.9636 -6.6886 -2.5000 0.9609
7.4792 -6.1066 -2.5000 0.9609
7.7190 -5.8005 -2.5000 0.9609
8.1607 -5.1605 -2.5000 0.9609
8.3619 -4.8278 -2.5000 0.9609
8.5495 -4.4871 -2.5000 0.9609
8.7233 -4.1392 -2.5000 0.9609
9.1586 -3.0576 -2.5000 0.9609
9.2743 -2.6863 -2.5000 0.9609
9.3749 -2.3107 -2.5000 0.9609
9.5305 -1.5488 -2.5000 0.9609
5.7377 -0.6967 -1.4965 0.9764
5.5297 0.0000 -1.4317 0.9774
5.5652 0.2243 -1.4421 0.9772
5.7335 0.6962 -1.4954 0.9764
9.4604 1.9314 -2.5000 0.9609
9.3749 2.3107 -2.5000 0.9609
9.2743 2.6863 -2.5000 0.9609
8.4777 3.2152 -2.3476 0.9632
8.3414 3.5539 -2.3476 0.9632
8.1915 3.8869 -2.3476 0.9632
7.6632 4.8460 -2.3476 0.9632
7.0233 5.7343 -2.3476 0.9632
6.7867 6.0125 -2.3476 0.9632
6.2809 6.5391 -2.3476 0.9632
6.0125 6.7867 -2.3476 0.9632
5.4006 7.1868 -2.3276 0.9635
4.8031 7.5955 -2.3268 0.9635
3.5226 8.2678 -2.3269 0.9635
3.1868 8.4030 -2.3269 0.9635
1.9317 7.8372 -2.0899 0.9672
0.2850 7.0723 -1.8326 0.9712
-0.0000 7.8412 -2.0302 0.9681
-0.3159 7.8398 -2.0315 0.9681
-0.9516 7.8373 -2.0441 0.9679
-1.1495 7.0728 -1.8553 0.9708
-2.1451 8.7028 -2.3207 0.9636
-2.4679 8.5200 -2.2967 0.9640
-3.0901 8.1479 -2.2563 0.9646
-1.7979 3.4256 -1.0017 0.9841
-4.7818 7.5618 -2.3165 0.9637
-5.0819 7.3624 -2.3163 0.9637
-5.7345 7.0231 -2.3475 0.9632
-6.7867 6.0125 -2.3476 0.9632
-7.0233 5.7343 -2.3476 0.9632
-7.2485 5.4469 -2.3476 0.9632
-7.6633 4.8460 -2.3476 0.9632
-7.8522 4.5335 -2.3476 0.9632
-8.1915 3.8869 -2.3476 0.9632
-8.3414 3.5539 -2.3476 0.9632
-9.2743 2.6863 -2.5000 0.9609
-9.3750 2.3107 -2.5000 0.9609
-9.4604 1.9314 -2.5000 0.9609
-9.5851 1.1639 -2.5000 0.9609
-9.6242 0.7769 -2.5000 0.9609
-8.8310 0.0000 -2.5000 0.9640
-8.8023 -0.7106 -2.5000 0.9640
-8.7666 -1.0645 -2.5000 0.9640
-8.7166 -1.4166 -2.5000 0.9640
-8.4823 -2.4569 -2.5000 0.9640
-8.3765 -2.7965 -2.5000 0.9640
-8.2571 -3.1315 -2.5000 0.9640
-7.9784 -3.7858 -2.5000 0.9640
-7.8194 -4.1039 -2.5000 0.9640
-6.6101 -5.8560 -2.5000 0.9640
-5.5851 -6.8405 -2.5000 0.9640
-5.3051 -7.0598 -2.5000 0.9640
-5.0166 -7.2677 -2.5000 0.9640
-4.7199 -7.4638 -2.5000 0.9640
-4.1040 -7.8194 -2.5000 0.9640
-3.7858 -7.9783 -2.5000 0.9640
-3.4614 -8.1243 -2.5000 0.9640
-2.7965 -8.3765 -2.5000 0.9640
-2.1134 -8.5744 -2.5000 0.9640
-1.7664 -8.6525 -2.5000 0.9640
-1.4166 -8.7166 -2.5000 0.9640
-0.3556 -8.8238 -2.5000 0.9640
0.3556 -8.8238 -2.5000 0.9640
0.7106 -8.8023 -2.5000 0.9640
1.4166 -8.7166 -2.5000 0.9640
2.1134 -8.5743 -2.5000 0.9640
2.7965 -8.3765 -2.5000 0.9640
3.1315 -8.2571 -2.5000 0.9640
3.7858 -7.9783 -2.5000 0.9640
5.3051 -7.0598 -2.5000 0.9640
5.5851 -6.8405 -2.5000 0.9640
6.3689 -6.1174 -2.5000 0.9640
6.8405 -5.5851 -2.5000 0.9640
7.4638 -4.7198 -2.5000 0.9640
7.6478 -4.4155 -2.5000 0.9640
8.1243 -3.4614 -2.5000 0.9640
8.5744 -2.1134 -2.5000 0.9640
5.5006 -0.2217 -1.5584 0.9774
5.4787 0.0000 -1.5510 0.9775
5.8160 0.9452 -1.6681 0.9758
8.6525 1.7664 -2.5000 0.9640
8.4823 2.4569 -2.5000 0.9640
8.1201 2.7109 -2.4235 0.9650
7.7537 2.9406 -2.3476 0.9661
7.4920 3.5550 -2.3476 0.9661
7.3428 3.8538 -2.3476 0.9661
7.1816 4.1463 -2.3476 0.9661
7.0088 4.4321 -2.3476 0.9661
6.8247 4.7108 -2.3476 0.9661
5.9807 5.7445 -2.3476 0.9661
4.9817 6.6295 -2.3476 0.9661
4.7107 6.8247 -2.3476 0.9661
4.4289 7.0037 -2.3459 0.9661
1.8843 7.6449 -2.2290 0.9678
1.2439 7.6539 -2.1952 0.9683
0.9295 7.6552 -2.1830 0.9685
0.2853 7.0802 -2.0060 0.9710
0.0000 7.6551 -2.1671 0.9687
-0.3085 7.6538 -2.1685 0.9687
-0.9290 7.6513 -2.1819 0.9685
-2.2792 7.8686 -2.3191 0.9665
-2.5938 7.7694 -2.3188 0.9665
-3.2098 7.5336 -2.3182 0.9665
-1.7979 3.4256 -1.0952 0.9840
-4.1243 7.1435 -2.3351 0.9663
-4.4321 7.0087 -2.3475 0.9661
-4.9817 6.6295 -2.3476 0.9661
-5.2446 6.4235 -2.3476 0.9661
-5.4990 6.2071 -2.3476 0.9661
-5.7445 5.9807 -2.3476 0.9661
-5.9807 5.7445 -2.3476 0.9661
-6.8247 4.7108 -2.3476 0.9661
-7.0088 4.4321 -2.3476 0.9661
-7.4920 3.5550 -2.3476 0.9661
-8.3765 2.7965 -2.5000 0.9640
-8.4823 2.4569 -2.5000 0.9640
-8.6525 1.7664 -2.5000 0.9640
-8.7666 1.0645 -2.5000 0.9640
-8.8023 0.7106 -2.5000 0.9640
-8.8238 0.3556 -2.5000 0.9640
-7.9637 -1.6258 -2.5000 0.9666
-7.8918 -1.9451 -2.5000 0.9666
-7.5998 -2.8822 -2.5000 0.9666
-7.4776 -3.1859 -2.5000 0.9666
-7.3432 -3.4844 -2.5000 0.9666
-7.0390 -4.0640 -2.5000 0.9666
-6.8697 -4.3441 -2.5000 0.9666
-6.4979 -4.8828 -2.5000 0.9666
-6.0839 -5.3898 -2.5000 0.9666
-5.3899 -6.0839 -2.5000 0.9666
-5.1405 -6.2960 -2.5000 0.9666
-4.8828 -6.4978 -2.5000 0.9666
-4.3441 -6.8697 -2.5000 0.9666
-3.1859 -7.4775 -2.5000 0.9666
-2.8822 -7.5998 -2.5000 0.9666
-2.5739 -7.7097 -2.5000 0.9666
-1.6258 -7.9637 -2.5000 0.9666
-1.3038 -8.0227 -2.5000 0.9666
-0.9797 -8.0687 -2.5000 0.9666
-0.3273 -8.1214 -2.5000 0.9666
0.6540 -8.1016 -2.5000 0.9666
0.9797 -8.0687 -2.5000 0.9666
1.6258 -7.9637 -2.5000 0.9666
1.9451 -7.8918 -2.5000 0.9666
2.2613 -7.8070 -2.5000 0.9666
2.5739 -7.7096 -2.5000 0.9666
2.8822 -7.5998 -2.5000 0.9666
3.1859 -7.4775 -2.5000 0.9666
3.7773 -7.1969 -2.5000 0.9666
4.3441 -6.8697 -2.5000 0.9666
4.6172 -6.6892 -2.5000 0.9666
5.3898 -6.0839 -2.5000 0.9666
6.0839 -5.3898 -2.5000 0.9666
6.2960 -5.1405 -2.5000 0.9666
6.6892 -4.6172 -2.5000 0.9666
6.8697 -4.3441 -2.5000 0.9666
7.0390 -4.0640 -2.5000 0.9666
7.1970 -3.7772 -2.5000 0.9666
7.5998 -2.8822 -2.5000 0.9666
5.7441 -0.9335 -1.7899 0.9759
5.4366 -0.2191 -1.6735 0.9775
5.4267 0.0000 -1.6691 0.9775
5.4358 0.2191 -1.6733 0.9775
5.7380 0.9325 -1.7880 0.9760
7.9637 1.6258 -2.5000 0.9666
7.1795 2.7228 -2.3617 0.9684
7.0217 2.9917 -2.3476 0.9686
6.6099 3.8162 -2.3476 0.9686
6.2814 4.3357 -2.3476 0.9686
5.0613 5.7130 -2.3476 0.9686
4.3357 6.2814 -2.3476 0.9686
3.8162 6.6099 -2.3476 0.9686
2.0542 7.0920 -2.2710 0.9696
1.8080 7.3352 -2.3237 0.9689
1.2115 7.4547 -2.3230 0.9689
-0.0000 7.4845 -2.3021 0.9692
-1.8050 7.3230 -2.3198 0.9689
-2.0981 7.2434 -2.3195 0.9689
-2.6957 7.1080 -2.3382 0.9687
-4.8271 5.9121 -2.3476 0.9686
-5.0613 5.7130 -2.3476 0.9686
-5.5046 5.2872 -2.3476 0.9686
-5.7130 5.0613 -2.3476 0.9686
-5.9122 4.8271 -2.3476 0.9686
-6.2814 4.3357 -2.3476 0.9686
-6.4509 4.0793 -2.3476 0.9686
-6.6099 3.8162 -2.3476 0.9686
-6.7582 3.5470 -2.3476 0.9686
-7.7097 2.5739 -2.5000 0.9666
-7.8071 2.2613 -2.5000 0.9666
-7.8918 1.9451 -2.5000 0.9666
-7.9637 1.6258 -2.5000 0.9666
-8.0687 0.9797 -2.5000 0.9666
-8.1214 0.3273 -2.5000 0.9666
-7.5209 0.0000 -2.5000 0.9688
-7.5148 -0.3028 -2.5000 0.9688
-7.4660 -0.9065 -2.5000 0.9688
-7.2240 -2.0924 -2.5000 0.9688
-7.1338 -2.3816 -2.5000 0.9688
-6.9191 -2.9479 -2.5000 0.9688
-6.6594 -3.4951 -2.5000 0.9688
-6.5133 -3.7604 -2.5000 0.9688
-6.3566 -4.0196 -2.5000 0.9688
-6.1896 -4.2723 -2.5000 0.9688
-6.0125 -4.5181 -2.5000 0.9688
-5.4241 -5.2099 -2.5000 0.9688
-5.2099 -5.4241 -2.5000 0.9688
-4.9873 -5.6295 -2.5000 0.9688
-4.7566 -5.8257 -2.5000 0.9688
-3.7604 -6.5133 -2.5000 0.9688
-3.4951 -6.6594 -2.5000 0.9688
-2.9479 -6.9191 -2.5000 0.9688
-2.3816 -7.1338 -2.5000 0.9688
-2.0924 -7.2239 -2.5000 0.9688
-0.6052 -7.4965 -2.5000 0.9688
0.0000 -7.5209 -2.5000 0.9688
0.3029 -7.5148 -2.5000 0.9688
0.9065 -7.4660 -2.5000 0.9688
1.5044 -7.3689 -2.5000 0.9688
1.7999 -7.3023 -2.5000 0.9688
2.0924 -7.2239 -2.5000 0.9688
2.3816 -7.1338 -2.5000 0.9688
2.6670 -7.0321 -2.5000 0.9688
2.9479 -6.9191 -2.5000 0.9688
3.2242 -6.7947 -2.5000 0.9688
4.0197 -6.3566 -2.5000 0.9688
4.2724 -6.1896 -2.5000 0.9688
4.7566 -5.8257 -2.5000 0.9688
4.9873 -5.6295 -2.5000 0.9688
5.6295 -4.9873 -2.5000 0.9688
6.5133 -3.7604 -2.5000 0.9688
7.0321 -2.6669 -2.5000 0.9688
7.2239 -2.0924 -2.5000 0.9688
5.6700 -0.9215 -1.9095 0.9761
5.4067 -0.4365 -1.8031 0.9774
5.3684 0.0000 -1.7845 0.9776
5.4052 0.4364 -1.8026 0.9774
7.3689 1.5044 -2.5000 0.9688
7.2239 2.0924 -2.5000 0.9688
7.1338 2.3816 -2.5000 0.9688
7.0321 2.6669 -2.5000 0.9688
6.4973 2.7682 -2.3476 0.9707
5.8122 4.0119 -2.3476 0.9707
5.6460 4.2427 -2.3476 0.9707
4.8923 5.0934 -2.3476 0.9707
4.0119 5.8123 -2.3476 0.9707
3.7746 5.9691 -2.3476 0.9707
3.0276 6.3805 -2.3476 0.9707
2.7682 6.4973 -2.3476 0.9707
1.9649 6.7836 -2.3476 0.9707
1.1327 6.9708 -2.3476 0.9707
0.8511 7.0091 -2.3470 0.9707
0.2839 7.0444 -2.3435 0.9707
-0.0000 7.0491 -2.3432 0.9707
-0.2839 7.0450 -2.3437 0.9707
-0.5677 7.0323 -2.3452 0.9707
-0.8512 7.0107 -2.3475 0.9707
-1.1328 6.9708 -2.3476 0.9707
-1.4127 6.9197 -2.3476 0.9707
-1.6901 6.8572 -2.3476 0.9707
-1.9649 6.7836 -2.3476 0.9707
-3.5312 6.1162 -2.3476 0.9707
-4.0119 5.8123 -2.3476 0.9707
-4.2427 5.6460 -2.3476 0.9707
-4.6833 5.2863 -2.3476 0.9707
-5.0934 4.8923 -2.3476 0.9707
-5.2863 4.6832 -2.3476 0.9707
-5.4706 4.4666 -2.3476 0.9707
-5.6460 4.2427 -2.3476 0.9707
-5.8122 4.0119 -2.3476 0.9707
-5.9691 3.7746 -2.3476 0.9707
-6.2535 3.2821 -2.3476 0.9707
-6.4973 2.7682 -2.3476 0.9707
-7.0321 2.6669 -2.5000 0.9688
-7.1338 2.3816 -2.5000 0.9688
-7.3689 1.5044 -2.5000 0.9688
-7.4235 1.2065 -2.5000 0.9688
-7.4660 0.9065 -2.5000 0.9688
-7.4965 0.6052 -2.5000 0.9688
-7.5148 0.3028 -2.5000 0.9688
-6.9909 0.0000 -2.5000 0.9707
-6.9852 -0.2815 -2.5000 0.9707
-6.9003 -1.1214 -2.5000 0.9707
-6.7877 -1.6730 -2.5000 0.9707
-6.5366 -2.4790 -2.5000 0.9707
-6.4315 -2.7402 -2.5000 0.9707
-6.3159 -2.9969 -2.5000 0.9707
-6.0543 -3.4954 -2.5000 0.9707
-5.9086 -3.7364 -2.5000 0.9707
-5.7534 -3.9713 -2.5000 0.9707
-5.5888 -4.1997 -2.5000 0.9707
-5.4152 -4.4213 -2.5000 0.9707
-5.0418 -4.8427 -2.5000 0.9707
-4.8428 -5.0418 -2.5000 0.9707
-4.4213 -5.4152 -2.5000 0.9707
-3.7364 -5.9086 -2.5000 0.9707
-3.4954 -6.0543 -2.5000 0.9707
-3.2488 -6.1901 -2.5000 0.9707
-2.9969 -6.3159 -2.5000 0.9707
-2.7402 -6.4314 -2.5000 0.9707
-2.2138 -6.6311 -2.5000 0.9707
-1.9450 -6.7149 -2.5000 0.9707
-0.8427 -6.9399 -2.5000 0.9707
-0.2815 -6.9852 -2.5000 0.9707
-0.0000 -6.9909 -2.5000 0.9707
0.2815 -6.9852 -2.5000 0.9707
0.5625 -6.9682 -2.5000 0.9707
1.6730 -6.7877 -2.5000 0.9707
2.7402 -6.4315 -2.5000 0.9707
3.4954 -6.0543 -2.5000 0.9707
3.9712 -5.7534 -2.5000 0.9707
4.1997 -5.5888 -2.5000 0.9707
4.6358 -5.2327 -2.5000 0.9707
5.0418 -4.8427 -2.5000 0.9707
5.2327 -4.6358 -2.5000 0.9707
5.5888 -4.1997 -2.5000 0.9707
6.0543 -3.4954 -2.5000 0.9707
6.3159 -2.9969 -2.5000 0.9707
6.5366 -2.4790 -2.5000 0.9707
6.6311 -2.2138 -2.5000 0.9707
6.7877 -1.6730 -2.5000 0.9707
5.6207 -0.9134 -2.0364 0.9761
5.3797 -0.4343 -1.9301 0.9773
5.3508 -0.2156 -1.9151 0.9775
5.3406 0.0000 -1.9099 0.9776
5.3780 0.4342 -1.9295 0.9773
5.6147 0.9125 -2.0342 0.9761
6.7877 1.6730 -2.5000 0.9707
5.6852 3.2824 -2.3476 0.9725
5.5484 3.5086 -2.3476 0.9725
5.4026 3.7292 -2.3476 0.9725
4.9137 4.3532 -2.3476 0.9725
4.5475 4.7345 -2.3476 0.9725
4.3532 4.9137 -2.3476 0.9725
4.1518 5.0851 -2.3476 0.9725
2.5731 6.0394 -2.3476 0.9725
1.8264 6.3055 -2.3476 0.9725
1.3131 6.4321 -2.3476 0.9725
1.0531 6.4797 -2.3476 0.9725
0.5282 6.5434 -2.3476 0.9725
0.0000 6.5647 -2.3476 0.9725
-0.5282 6.5434 -2.3476 0.9725
-1.0530 6.4797 -2.3476 0.9725
-2.0788 6.2269 -2.3476 0.9725
-2.3279 6.1381 -2.3476 0.9725
-2.8142 5.9309 -2.3476 0.9725
-3.9437 5.2481 -2.3476 0.9725
-4.1518 5.0851 -2.3476 0.9725
-4.3532 4.9137 -2.3476 0.9725
-4.9137 4.3532 -2.3476 0.9725
-5.6852 3.2823 -2.3476 0.9725
-5.9309 2.8142 -2.3476 0.9725
-6.3394 2.7010 -2.4642 0.9712
-6.5366 2.4790 -2.5000 0.9707
-6.8496 1.3984 -2.5000 0.9707
-6.9682 0.5625 -2.5000 0.9707
-6.9852 0.2815 -2.5000 0.9707
-3.5504 0.0000 -1.3606 0.9849
-3.5687 -0.2881 -1.3720 0.9848
-3.5921 -0.4361 -1.3867 0.9846
-6.3341 -1.5612 -2.5000 0.9724
-6.1879 -2.0658 -2.5000 0.9724
-6.0997 -2.3133 -2.5000 0.9724
-5.7764 -3.0317 -2.5000 0.9724
-5.6497 -3.2618 -2.5000 0.9724
-5.5137 -3.4867 -2.5000 0.9724
-5.2153 -3.9190 -2.5000 0.9724
-5.0533 -4.1259 -2.5000 0.9724
-4.8830 -4.3260 -2.5000 0.9724
-4.7049 -4.5191 -2.5000 0.9724
-4.1259 -5.0533 -2.5000 0.9724
-3.9190 -5.2153 -2.5000 0.9724
-3.7059 -5.3689 -2.5000 0.9724
-3.2618 -5.6496 -2.5000 0.9724
-2.7967 -5.8938 -2.5000 0.9724
-1.8150 -6.2661 -2.5000 0.9724
-0.7863 -6.4761 -2.5000 0.9724
-0.2627 -6.5184 -2.5000 0.9724
0.0000 -6.5237 -2.5000 0.9724
0.5249 -6.5025 -2.5000 0.9724
0.7863 -6.4761 -2.5000 0.9724
1.3049 -6.3918 -2.5000 0.9724
1.5612 -6.3341 -2.5000 0.9724
1.8150 -6.2661 -2.5000 0.9724
2.3133 -6.0997 -2.5000 0.9724
2.5571 -6.0016 -2.5000 0.9724
3.4867 -5.5137 -2.5000 0.9724
4.5191 -4.7049 -2.5000 0.9724
5.5138 -3.4867 -2.5000 0.9724
6.0016 -2.5571 -2.5000 0.9724
6.0997 -2.3133 -2.5000 0.9724
5.5963 -0.9095 -2.1727 0.9760
5.3491 -0.2156 -2.0515 0.9773
5.3663 0.4332 -2.0632 0.9772
5.4158 0.6576 -2.0907 0.9769
6.3918 1.3049 -2.5000 0.9724
6.3341 1.5612 -2.5000 0.9724
6.2661 1.8150 -2.5000 0.9724
6.0016 2.5571 -2.5000 0.9724
5.7114 2.7101 -2.4226 0.9733
5.4244 2.8469 -2.3476 0.9741
5.3053 3.0630 -2.3476 0.9741
4.8974 3.6801 -2.3476 0.9741
4.4181 4.2436 -2.3476 0.9741
4.2436 4.4181 -2.3476 0.9741
3.6801 4.8974 -2.3476 0.9741
3.4799 5.0416 -2.3476 0.9741
2.8469 5.4243 -2.3476 0.9741
2.6262 5.5345 -2.3476 0.9741
2.4012 5.6358 -2.3476 0.9741
2.1723 5.7279 -2.3476 0.9741
1.4660 5.9480 -2.3476 0.9741
1.2254 6.0022 -2.3476 0.9741
0.7384 6.0813 -2.3476 0.9741
0.4929 6.1061 -2.3476 0.9741
0.0000 6.1260 -2.3476 0.9741
-0.2467 6.1210 -2.3476 0.9741
-0.4929 6.1061 -2.3476 0.9741
-1.2254 6.0022 -2.3476 0.9741
-1.7044 5.8841 -2.3476 0.9741
-1.9399 5.8107 -2.3476 0.9741
-2.1723 5.7279 -2.3476 0.9741
-3.0630 5.3053 -2.3476 0.9741
-3.2741 5.1776 -2.3476 0.9741
-3.4799 5.0416 -2.3476 0.9741
-3.6801 4.8974 -2.3476 0.9741
-3.8743 4.7452 -2.3476 0.9741
-4.4181 4.2436 -2.3476 0.9741
-4.7452 3.8743 -2.3476 0.9741
-4.8974 3.6801 -2.3476 0.9741
-6.0017 2.5571 -2.5000 0.9724
-6.1879 2.0658 -2.5000 0.9724
-6.2661 1.8150 -2.5000 0.9724
-6.3341 1.5612 -2.5000 0.9724
-6.3918 1.3049 -2.5000 0.9724
-6.4392 1.0465 -2.5000 0.9724
-3.5687 0.2881 -1.3720 0.9848
-2.8160 0.0000 -1.1525 0.9879
-2.9323 -0.3560 -1.2089 0.9873
-3.0246 -0.4915 -1.2541 0.9868
-3.0070 -0.6139 -1.2561 0.9868
-5.8671 -1.6994 -2.5000 0.9739
-5.7940 -1.9343 -2.5000 0.9739
-5.5186 -2.6186 -2.5000 0.9739
-5.1627 -3.2647 -2.5000 0.9739
-5.0271 -3.4699 -2.5000 0.9739
-4.8833 -3.6695 -2.5000 0.9739
-4.7315 -3.8632 -2.5000 0.9739
-4.5721 -4.0506 -2.5000 0.9739
-4.2314 -4.4053 -2.5000 0.9739
-3.8632 -4.7315 -2.5000 0.9739
-3.6695 -4.8833 -2.5000 0.9739
-3.4699 -5.0271 -2.5000 0.9739
-3.2647 -5.1627 -2.5000 0.9739
-3.0542 -5.2900 -2.5000 0.9739
-2.1660 -5.7114 -2.5000 0.9739
-1.9343 -5.7940 -2.5000 0.9739
-1.6994 -5.8671 -2.5000 0.9739
-1.2218 -5.9849 -2.5000 0.9739
-0.9799 -6.0292 -2.5000 0.9739
-0.7363 -6.0638 -2.5000 0.9739
-0.2460 -6.1034 -2.5000 0.9739
0.0000 -6.1083 -2.5000 0.9739
0.2460 -6.1034 -2.5000 0.9739
0.4915 -6.0885 -2.5000 0.9739
0.7363 -6.0638 -2.5000 0.9739
0.9798 -6.0292 -2.5000 0.9739
1.2218 -5.9849 -2.5000 0.9739
1.4618 -5.9308 -2.5000 0.9739
1.6994 -5.8672 -2.5000 0.9739
2.1661 -5.7114 -2.5000 0.9739
2.6186 -5.5186 -2.5000 0.9739
2.8387 -5.4086 -2.5000 0.9739
3.2647 -5.1627 -2.5000 0.9739
3.8632 -4.7315 -2.5000 0.9739
4.5721 -4.0506 -2.5000 0.9739
4.8833 -3.6695 -2.5000 0.9739
5.0271 -3.4699 -2.5000 0.9739
5.4087 -2.8387 -2.5000 0.9739
5.6196 -2.3942 -2.5000 0.9739
5.7114 -2.1660 -2.5000 0.9739
5.7939 -1.9343 -2.5000 0.9739
5.8671 -1.6994 -2.5000 0.9739
6.0638 -0.7363 -2.5000 0.9739
5.3565 0.4324 -2.1994 0.9770
5.8672 1.6994 -2.5000 0.9739
5.5186 2.6186 -2.5000 0.9739
4.9675 2.8680 -2.3476 0.9755
4.8480 3.0657 -2.3476 0.9755
4.7206 3.2584 -2.3476 0.9755
4.5856 3.4458 -2.3476 0.9755
4.4431 3.6277 -2.3476 0.9755
4.1368 3.9734 -2.3476 0.9755
3.9735 4.1368 -2.3476 0.9755
3.4458 4.5856 -2.3476 0.9755
3.2584 4.7206 -2.3476 0.9755
3.0657 4.8480 -2.3476 0.9755
2.8680 4.9675 -2.3476 0.9755
2.6656 5.0789 -2.3476 0.9755
2.2483 5.2770 -2.3476 0.9755
2.0340 5.3632 -2.3476 0.9755
1.8164 5.4408 -2.3476 0.9755
1.5958 5.5095 -2.3476 0.9755
1.1473 5.6200 -2.3476 0.9755
0.4615 5.7174 -2.3476 0.9755
-0.2310 5.7313 -2.3476 0.9755
-0.9201 5.6617 -2.3476 0.9755
-1.1473 5.6200 -2.3476 0.9755
-1.3727 5.5693 -2.3476 0.9755
-1.8164 5.4408 -2.3476 0.9755
-2.0340 5.3632 -2.3476 0.9755
-2.2483 5.2770 -2.3476 0.9755
-1.7979 3.4256 -1.5834 0.9834
-3.0657 4.8480 -2.3476 0.9755
-3.6277 4.4431 -2.3476 0.9755
-3.8036 4.2934 -2.3476 0.9755
-4.1368 3.9734 -2.3476 0.9755
-5.6195 2.3943 -2.5000 0.9739
-3.0070 0.6139 -1.2561 0.9868
-2.8096 0.2268 -1.1536 0.9879
-2.8203 0.1137 -1.1552 0.9879
-2.3650 0.0000 -1.0307 0.9897
-2.3649 -0.1909 -1.0340 0.9897
-2.4021 -0.3904 -1.0606 0.9894
-5.5696 -1.3728 -2.5000 0.9753
-5.4411 -1.8165 -2.5000 0.9753
-5.1825 -2.4591 -2.5000 0.9753
-5.0793 -2.6658 -2.5000 0.9753
-4.9678 -2.8682 -2.5000 0.9753
-4.8483 -3.0659 -2.5000 0.9753
-4.7209 -3.2586 -2.5000 0.9753
-4.5859 -3.4460 -2.5000 0.9753
-3.9737 -4.1371 -2.5000 0.9753
-3.6279 -4.4434 -2.5000 0.9753
-3.4461 -4.5858 -2.5000 0.9753
-3.2586 -4.7209 -2.5000 0.9753
-2.8681 -4.9678 -2.5000 0.9753
-2.2485 -5.2773 -2.5000 0.9753
-1.8165 -5.4411 -2.5000 0.9753
-1.1474 -5.6204 -2.5000 0.9753
-0.6914 -5.6945 -2.5000 0.9753
-0.2310 -5.7317 -2.5000 0.9753
-0.0000 -5.7363 -2.5000 0.9753
0.2310 -5.7317 -2.5000 0.9753
0.4616 -5.7177 -2.5000 0.9753
0.6914 -5.6945 -2.5000 0.9753
0.9202 -5.6620 -2.5000 0.9753
1.5959 -5.5098 -2.5000 0.9753
2.0341 -5.3635 -2.5000 0.9753
2.2484 -5.2773 -2.5000 0.9753
2.4591 -5.1825 -2.5000 0.9753
2.8681 -4.9678 -2.5000 0.9753
3.4461 -4.5859 -2.5000 0.9753
3.9737 -4.1370 -2.5000 0.9753
4.4434 -3.6279 -2.5000 0.9753
4.5858 -3.4461 -2.5000 0.9753
4.8483 -3.0659 -2.5000 0.9753
5.1825 -2.4591 -2.5000 0.9753
5.2773 -2.2484 -2.5000 0.9753
5.3635 -2.0341 -2.5000 0.9753
5.4411 -1.8165 -2.5000 0.9753
5.6204 -1.1474 -2.5000 0.9753
5.6620 -0.9202 -2.5000 0.9753
5.7178 -0.4616 -2.5000 0.9753
5.7317 -0.2310 -2.5000 0.9753
5.7363 0.0000 -2.5000 0.9753
5.7317 0.2310 -2.5000 0.9753
5.7177 0.4616 -2.5000 0.9753
5.6945 0.6915 -2.5000 0.9753
5.6204 1.1474 -2.5000 0.9753
5.5696 1.3728 -2.5000 0.9753
5.5098 1.5959 -2.5000 0.9753
5.2773 2.2484 -2.5000 0.9753
5.1825 2.4591 -2.5000 0.9753
5.0793 2.6658 -2.5000 0.9753
4.7101 2.7194 -2.3703 0.9765
4.4331 3.0600 -2.3476 0.9768
4.1725 3.4067 -2.3476 0.9768
4.0319 3.5720 -2.3476 0.9768
3.5720 4.0320 -2.3476 0.9768
3.4067 4.1725 -2.3476 0.9768
3.0600 4.4331 -2.3476 0.9768
2.8790 4.5527 -2.3476 0.9768
2.6933 4.6650 -2.3476 0.9768
2.5033 4.7696 -2.3476 0.9768
2.3092 4.8666 -2.3476 0.9768
2.1114 4.9556 -2.3476 0.9768
1.7058 5.1094 -2.3476 0.9768
1.4987 5.1740 -2.3476 0.9768
1.2891 5.2301 -2.3476 0.9768
1.0775 5.2778 -2.3476 0.9768
0.6493 5.3474 -2.3476 0.9768
0.4334 5.3692 -2.3476 0.9768
0.2169 5.3823 -2.3476 0.9768
0.0000 5.3866 -2.3476 0.9768
-0.2169 5.3823 -2.3476 0.9768
-0.4334 5.3692 -2.3476 0.9768
-0.6493 5.3474 -2.3476 0.9768
-0.8641 5.3169 -2.3476 0.9768
-1.0775 5.2778 -2.3476 0.9768
-1.4987 5.1740 -2.3476 0.9768
-1.9101 5.0366 -2.3476 0.9768
-2.6933 4.6650 -2.3476 0.9768
-3.2360 4.3063 -2.3476 0.9768
-3.5720 4.0320 -2.3476 0.9768
-3.7315 3.8849 -2.3476 0.9768
-3.8849 3.7315 -2.3476 0.9768
-4.0320 3.5720 -2.3476 0.9768
-4.1725 3.4068 -2.3476 0.9768
-4.3063 3.2360 -2.3476 0.9768
-4.4331 3.0600 -2.3476 0.9768
-4.5577 2.8821 -2.3502 0.9767
-4.7045 2.7161 -2.3675 0.9766
-5.3636 2.0341 -2.5000 0.9753
-5.4411 1.8165 -2.5000 0.9753
-5.5696 1.3728 -2.5000 0.9753
-2.4207 0.4942 -1.0767 0.9893
-2.4021 0.3904 -1.0606 0.9894
-2.3794 0.2889 -1.0446 0.9896
-2.3649 0.1909 -1.0340 0.9897
-2.2302 -0.3624 -1.0459 0.9901
-2.3851 -0.5879 -1.1371 0.9892
-4.9687 -2.1170 -2.5000 0.9765
-4.8794 -2.3153 -2.5000 0.9765
-4.3177 -3.2445 -2.5000 0.9765
-4.0426 -3.5814 -2.5000 0.9765
-3.7413 -3.8951 -2.5000 0.9765
-3.5815 -4.0426 -2.5000 0.9765
-3.2445 -4.3177 -2.5000 0.9765
-2.7004 -4.6773 -2.5000 0.9765
-2.5099 -4.7822 -2.5000 0.9765
-2.3153 -4.8794 -2.5000 0.9765
-1.9152 -5.0499 -2.5000 0.9765
-1.2925 -5.2439 -2.5000 0.9765
-0.8664 -5.3309 -2.5000 0.9765
-0.2175 -5.3965 -2.5000 0.9765
0.0000 -5.4009 -2.5000 0.9765
0.4346 -5.3834 -2.5000 0.9765
0.8663 -5.3309 -2.5000 0.9765
1.0803 -5.2917 -2.5000 0.9765
1.7103 -5.1229 -2.5000 0.9765
1.9152 -5.0499 -2.5000 0.9765
2.1170 -4.9687 -2.5000 0.9765
2.5099 -4.7822 -2.5000 0.9765
2.8866 -4.5648 -2.5000 0.9765
3.0681 -4.4448 -2.5000 0.9765
3.2445 -4.3177 -2.5000 0.9765
3.7413 -3.8951 -2.5000 0.9765
4.1836 -3.4158 -2.5000 0.9765
4.4448 -3.0680 -2.5000 0.9765
4.8794 -2.3153 -2.5000 0.9765
5.1229 -1.7103 -2.5000 0.9765
5.2439 -1.2925 -2.5000 0.9765
5.3309 -0.8663 -2.5000 0.9765
5.3834 -0.4346 -2.5000 0.9765
5.4009 0.0000 -2.5000 0.9765
5.3615 0.6510 -2.5000 0.9765
5.3309 0.8664 -2.5000 0.9765
5.2917 1.0803 -2.5000 0.9765
5.2439 1.2925 -2.5000 0.9765
5.1230 1.7103 -2.5000 0.9765
4.9687 2.1170 -2.5000 0.9765
4.8794 2.3153 -2.5000 0.9765
4.6698 2.6961 -2.4960 0.9765
4.1796 2.8850 -2.3508 0.9779
3.9285 3.2075 -2.3476 0.9779
3.7962 3.3631 -2.3476 0.9779
3.2075 3.9285 -2.3476 0.9779
2.7106 4.2865 -2.3476 0.9779
2.3569 4.4907 -2.3476 0.9779
2.1742 4.5820 -2.3476 0.9779
1.9879 4.6658 -2.3476 0.9779
1.6060 4.8106 -2.3476 0.9779
1.2137 4.9243 -2.3476 0.9779
0.8135 5.0060 -2.3476 0.9779
0.6113 5.0347 -2.3476 0.9779
0.0000 5.0717 -2.3476 0.9779
-0.2042 5.0675 -2.3476 0.9779
-0.4081 5.0552 -2.3476 0.9779
-1.0145 4.9691 -2.3476 0.9779
-1.4110 4.8714 -2.3476 0.9779
-1.6060 4.8106 -2.3476 0.9779
-1.9879 4.6658 -2.3476 0.9779
-1.7979 3.4256 -1.7908 0.9831
-2.5358 4.3922 -2.3476 0.9779
-2.7106 4.2865 -2.3476 0.9779
-2.8810 4.1739 -2.3476 0.9779
-3.0467 4.0545 -2.3476 0.9779
-3.2075 3.9285 -2.3476 0.9779
-3.3631 3.7962 -2.3476 0.9779
-3.9285 3.2075 -2.3476 0.9779
-4.0545 3.0467 -2.3476 0.9779
-4.6642 2.6929 -2.4930 0.9765
-4.7822 2.5099 -2.5000 0.9765
-4.9687 2.1170 -2.5000 0.9765
-5.0499 1.9152 -2.5000 0.9765
-5.1876 1.5026 -2.5000 0.9765
-2.3851 0.5879 -1.1371 0.9892
-2.2080 0.2681 -1.0295 0.9902
-2.0575 -0.2498 -1.0167 0.9908
-2.0897 -0.4266 -1.0462 0.9905
-4.8342 -1.6139 -2.5000 0.9775
-4.7654 -1.8073 -2.5000 0.9775
-4.6887 -1.9977 -2.5000 0.9775
-4.6045 -2.1848 -2.5000 0.9775
-4.4137 -2.5483 -2.5000 0.9775
-4.3076 -2.7239 -2.5000 0.9775
-4.1944 -2.8952 -2.5000 0.9775
-3.9478 -3.2233 -2.5000 0.9775
-3.8148 -3.3796 -2.5000 0.9775
-3.6757 -3.5305 -2.5000 0.9775
-3.5305 -3.6757 -2.5000 0.9775
-3.3797 -3.8148 -2.5000 0.9775
-2.3685 -4.5128 -2.5000 0.9775
-2.1849 -4.6045 -2.5000 0.9775
-1.9977 -4.6887 -2.5000 0.9775
-1.8073 -4.7654 -2.5000 0.9775
-1.6139 -4.8343 -2.5000 0.9775
-0.8175 -5.0306 -2.5000 0.9775
-0.2052 -5.0924 -2.5000 0.9775
-0.0000 -5.0966 -2.5000 0.9775
0.8175 -5.0306 -2.5000 0.9775
1.0194 -4.9936 -2.5000 0.9775
1.2197 -4.9485 -2.5000 0.9775
1.8073 -4.7654 -2.5000 0.9775
2.1849 -4.6045 -2.5000 0.9775
2.8952 -4.1944 -2.5000 0.9775
3.3796 -3.8148 -2.5000 0.9775
3.6756 -3.5305 -2.5000 0.9775
3.9478 -3.2233 -2.5000 0.9775
4.1944 -2.8952 -2.5000 0.9775
4.4138 -2.5483 -2.5000 0.9775
4.6045 -2.1849 -2.5000 0.9775
4.6887 -1.9977 -2.5000 0.9775
4.8343 -1.6139 -2.5000 0.9775
4.9485 -1.2197 -2.5000 0.9775
5.0306 -0.8175 -2.5000 0.9775
5.0594 -0.6143 -2.5000 0.9775
5.0924 -0.2052 -2.5000 0.9775
5.0966 0.0000 -2.5000 0.9775
5.0800 0.4101 -2.5000 0.9775
5.0306 0.8176 -2.5000 0.9775
4.8953 1.4180 -2.5000 0.9775
4.8343 1.6139 -2.5000 0.9775
4.5128 2.3685 -2.5000 0.9775
4.4138 2.5483 -2.5000 0.9775
3.9519 2.7278 -2.3555 0.9788
3.8355 2.8822 -2.3534 0.9789
3.5823 3.1736 -2.3476 0.9789
3.4516 3.3153 -2.3476 0.9789
3.3153 3.4516 -2.3476 0.9789
3.1736 3.5823 -2.3476 0.9789
3.0268 3.7072 -2.3476 0.9789
2.5579 4.0450 -2.3476 0.9789
2.3929 4.1447 -2.3476 0.9789
2.0517 4.3238 -2.3476 0.9789
1.8759 4.4029 -2.3476 0.9789
1.5155 4.5396 -2.3476 0.9789
1.3315 4.5969 -2.3476 0.9789
1.1453 4.6468 -2.3476 0.9789
0.9573 4.6892 -2.3476 0.9789
0.7677 4.7239 -2.3476 0.9789
0.5769 4.7510 -2.3476 0.9789
0.1927 4.7820 -2.3476 0.9789
-0.9573 4.6892 -2.3476 0.9789
-1.3315 4.5969 -2.3476 0.9789
-1.5155 4.5396 -2.3476 0.9789
-1.6971 4.4749 -2.3476 0.9789
-2.5579 4.0450 -2.3476 0.9789
-2.7187 3.9387 -2.3476 0.9789
-3.1736 3.5823 -2.3476 0.9789
-3.3153 3.4516 -2.3476 0.9789
-3.4516 3.3153 -2.3476 0.9789
-3.5823 3.1736 -2.3476 0.9789
-4.2641 2.6964 -2.4747 0.9778
-4.4137 2.5483 -2.5000 0.9775
-4.6887 1.9977 -2.5000 0.9775
-4.8343 1.6139 -2.5000 0.9775
-2.9436 0.8526 -1.5032 0.9864
-2.0898 0.4266 -1.0462 0.9905
-2.0750 0.3372 -1.0312 0.9907
-2.0575 0.2498 -1.0167 0.9908
-2.0571 0.1661 -1.0123 0.9908
-2.0595 0.0830 -1.0111 0.9909
-1.9494 -0.0785 -1.0121 0.9912
-1.9445 -0.2361 -1.0162 0.9912
-1.9520 -0.3172 -1.0259 0.9911
-1.9687 -0.4852 -1.0519 0.9909
-2.3249 -0.6734 -1.2557 0.9892
-4.5710 -1.5260 -2.5000 0.9785
-4.2670 -2.2395 -2.5000 0.9785
-4.1734 -2.4095 -2.5000 0.9785
-4.0730 -2.5756 -2.5000 0.9785
-3.7328 -3.0477 -2.5000 0.9785
-3.6071 -3.1956 -2.5000 0.9785
-3.3382 -3.4755 -2.5000 0.9785
-3.1956 -3.6071 -2.5000 0.9785
-3.0478 -3.7328 -2.5000 0.9785
-2.8950 -3.8525 -2.5000 0.9785
-2.5756 -4.0729 -2.5000 0.9785
-2.0658 -4.3537 -2.5000 0.9785
-1.8889 -4.4334 -2.5000 0.9785
-1.5260 -4.5710 -2.5000 0.9785
-1.1533 -4.6789 -2.5000 0.9785
-0.9639 -4.7216 -2.5000 0.9785
-0.7730 -4.7566 -2.5000 0.9785
0.1941 -4.8151 -2.5000 0.9785
0.5809 -4.7838 -2.5000 0.9785
0.9639 -4.7216 -2.5000 0.9785
1.5260 -4.5710 -2.5000 0.9785
1.8889 -4.4333 -2.5000 0.9785
2.0658 -4.3537 -2.5000 0.9785
2.5756 -4.0729 -2.5000 0.9785
2.7375 -3.9659 -2.5000 0.9785
3.0477 -3.7328 -2.5000 0.9785
3.1956 -3.6070 -2.5000 0.9785
3.3382 -3.4754 -2.5000 0.9785
3.6071 -3.1956 -2.5000 0.9785
3.7328 -3.0477 -2.5000 0.9785
3.8525 -2.8950 -2.5000 0.9785
3.9659 -2.7375 -2.5000 0.9785
4.0729 -2.5756 -2.5000 0.9785
4.1734 -2.4095 -2.5000 0.9785
4.3537 -2.0658 -2.5000 0.9785
4.5710 -1.5260 -2.5000 0.9785
4.6287 -1.3407 -2.5000 0.9785
4.6790 -1.1533 -2.5000 0.9785
4.7216 -0.9639 -2.5000 0.9785
4.7839 -0.5808 -2.5000 0.9785
4.8151 -0.1940 -2.5000 0.9785
4.8190 0.0000 -2.5000 0.9785
4.8151 0.1940 -2.5000 0.9785
4.8033 0.3878 -2.5000 0.9785
4.7838 0.5809 -2.5000 0.9785
4.7566 0.7730 -2.5000 0.9785
4.7216 0.9639 -2.5000 0.9785
4.6789 1.1533 -2.5000 0.9785
4.5710 1.5260 -2.5000 0.9785
4.5058 1.7088 -2.5000 0.9785
4.4334 1.8889 -2.5000 0.9785
4.1733 2.4095 -2.5000 0.9785
4.0729 2.5756 -2.5000 0.9785
3.9133 2.7012 -2.4668 0.9788
3.3872 3.0008 -2.3476 0.9798
3.2636 3.1347 -2.3476 0.9798
3.1347 3.2636 -2.3476 0.9798
2.7185 3.6177 -2.3476 0.9798
2.5706 3.7242 -2.3476 0.9798
2.4186 3.8247 -2.3476 0.9798
2.2626 3.9190 -2.3476 0.9798
1.9399 4.0883 -2.3476 0.9798
1.6046 4.2311 -2.3476 0.9798
1.4330 4.2923 -2.3476 0.9798
1.2590 4.3466 -2.3476 0.9798
0.5455 4.4922 -2.3476 0.9798
0.3641 4.5105 -2.3476 0.9798
-0.0000 4.5252 -2.3476 0.9798
-0.5454 4.4922 -2.3476 0.9798
-1.7737 4.1631 -2.3476 0.9798
-1.9399 4.0883 -2.3476 0.9798
-2.2626 3.9189 -2.3476 0.9798
-2.7185 3.6176 -2.3476 0.9798
-2.8619 3.5053 -2.3476 0.9798
-3.1347 3.2636 -2.3476 0.9798
-3.2636 3.1347 -2.3476 0.9798
-3.5052 2.8620 -2.3476 0.9798
-3.6278 2.7261 -2.3542 0.9798
-4.1733 2.4095 -2.5000 0.9785
-4.2670 2.2395 -2.5000 0.9785
-4.5710 1.5260 -2.5000 0.9785
-2.3248 0.6734 -1.2557 0.9892
-1.9687 0.4852 -1.0519 0.9909
-1.9607 0.4003 -1.0382 0.9910
-1.9520 0.3172 -1.0259 0.9911
-1.9473 0.1572 -1.0135 0.9912
-1.8467 0.0000 -1.0115 0.9916
-1.8480 -0.0745 -1.0130 0.9916
-1.8480 -0.3003 -1.0254 0.9915
-1.8512 -0.3779 -1.0348 0.9914
-1.8515 -0.4563 -1.0444 0.9913
-1.9096 -0.5531 -1.0889 0.9910
-4.1992 -1.7891 -2.5000 0.9794
-4.1238 -1.9568 -2.5000 0.9794
-3.9530 -2.2822 -2.5000 0.9794
-3.7565 -2.5929 -2.5000 0.9794
-3.6490 -2.7421 -2.5000 0.9794
-3.5357 -2.8868 -2.5000 0.9794
-3.2919 -3.1619 -2.5000 0.9794
-3.1619 -3.2919 -2.5000 0.9794
-3.0268 -3.4166 -2.5000 0.9794
-1.9568 -4.1238 -2.5000 0.9794
-1.7891 -4.1992 -2.5000 0.9794
-1.4454 -4.3296 -2.5000 0.9794
-1.2699 -4.3843 -2.5000 0.9794
-1.0924 -4.4318 -2.5000 0.9794
-0.5502 -4.5312 -2.5000 0.9794
-0.1838 -4.5608 -2.5000 0.9794
-0.0000 -4.5645 -2.5000 0.9794
0.7322 -4.5054 -2.5000 0.9794
1.0923 -4.4318 -2.5000 0.9794
1.4454 -4.3296 -2.5000 0.9794
1.6186 -4.2679 -2.5000 0.9794
1.7891 -4.1992 -2.5000 0.9794
2.1212 -4.0417 -2.5000 0.9794
2.2822 -3.9530 -2.5000 0.9794
3.2919 -3.1619 -2.5000 0.9794
3.4166 -3.0268 -2.5000 0.9794
3.7565 -2.5929 -2.5000 0.9794
3.8579 -2.4396 -2.5000 0.9794
4.1992 -1.7891 -2.5000 0.9794
4.3296 -1.4454 -2.5000 0.9794
4.4318 -1.0924 -2.5000 0.9794
4.4722 -0.9130 -2.5000 0.9794
4.5054 -0.7322 -2.5000 0.9794
4.5497 -0.3673 -2.5000 0.9794
4.5608 0.1838 -2.5000 0.9794
4.5497 0.3673 -2.5000 0.9794
4.5054 0.7322 -2.5000 0.9794
4.4722 0.9130 -2.5000 0.9794
4.3843 1.2699 -2.5000 0.9794
4.3296 1.4454 -2.5000 0.9794
4.2679 1.6186 -2.5000 0.9794
4.0417 2.1212 -2.5000 0.9794
3.5953 2.7017 -2.4632 0.9797
3.3363 2.7240 -2.3590 0.9805
3.2084 2.8423 -2.3476 0.9806
2.9692 3.0912 -2.3476 0.9806
2.5749 3.4266 -2.3476 0.9806
2.4349 3.5275 -2.3476 0.9806
2.2908 3.6227 -2.3476 0.9806
2.1431 3.7120 -2.3476 0.9806
1.9919 3.7953 -2.3476 0.9806
1.8375 3.8724 -2.3476 0.9806
1.6801 3.9433 -2.3476 0.9806
1.5199 4.0077 -2.3476 0.9806
