ply
format ascii 1.0
element vertex 1514
property float32 x
property float32 y
property float32 z
property float32 I
end_header
-4.3668 -26.8700 0.4598 0.8968
-2.7220 -33.7176 0.5714 0.8734
-0.9078 -22.5274 0.3808 0.9138
0.8100 -20.0993 0.3398 0.9227
2.8706 -23.6417 0.4023 0.9091
6.0429 -24.5172 0.4265 0.9039
8.4290 -17.7639 0.3321 0.9244
8.1309 -15.4921 0.2955 0.9324
10.6348 -16.8175 0.3361 0.9235
11.9847 -17.3628 0.3564 0.9191
14.9819 -15.5978 0.3653 0.9171
21.4928 8.1511 0.3883 0.9121
20.1993 8.6061 0.3709 0.9159
18.4459 9.6811 0.3519 0.9200
16.7682 9.6811 0.3271 0.9255
12.80528 .1574 0.2578 0.9408
12.3812 8.5461 0.2541 0.9416
11.8107 9.6431 0.2576 0.9408
11.9158 11.4453 0.2791 0.9360
11.8107 13.3315 0.3009 0.9312
8.8235 10.8069 0.2357 0.9457
7.2301 9.6215 0.2033 0.9530
6.9470 10.0645 0.2066 0.9523
6.4920 10.2662 0.2052 0.9526
2.9875 8.9488 0.1594 0.9630
2.3723 9.6247 0.1674 0.9611
1.9649 9.6248 0.1659 0.9615
1.5733 9.6811 0.1657 0.9615
1.1755 9.6811 0.1647 0.9617
0.7815 9.6811 0.1641 0.9619
0.3879 9.6247 0.1627 0.9622
-0.0000 9.5875 0.1619 0.9624
-0.7816 9.6811 0.1641 0.9619
-1.1638 9.5849 0.1631 0.9621
-1.5642 9.6247 0.1647 0.9617
-1.9649 9.6247 0.1659 0.9615
-2.5502 8.8041 0.1548 0.9640
-3.1299 8.2528 0.1491 0.9653
-3.9265 8.2749 0.1547 0.9640
-21.0598 28.0256 0.5922 0.8691
-31.4578 32.7510 0.7671 0.8339
-30.4274 26.9564 0.6867 0.8499
-32.3759 26.4341 0.7060 0.8460
-10.2447 7.6983 0.2165 0.9500
-23.7459 15.0160 0.4746 0.8937
-31.1268 17.9711 0.6071 0.8661
-29.8433 14.1608 0.5580 0.8762
-31.8696 13.5783 0.5852 0.8706
-30.5067 7.5192 0.5307 0.8819
-31.6456 6.4605 0.5456 0.8788
-40.4353 6.5714 0.6920 0.8488
-40.4607 4.9128 0.6885 0.8495
-44.5492 -16.8953 -0.2683 0.8265
-40.2943 -19.1199 -0.2511 0.8366
-39.4039 -20.6807 -0.2506 0.8369
-41.7714 -24.1167 -0.2716 0.8245
-35.2744 -24.3483 -0.2413 0.8424
-22.1440 -16.6402 -0.1560 0.8951
-21.3802 -17.4564 -0.1554 0.8955
-17.9139 -18.6504 -0.1456 0.9017
-18.8664 -21.2958 -0.1602 0.8924
-17.6821 -21.6566 -0.1574 0.8942
-13.9074 -20.1483 -0.1378 0.9067
-22.8271 -43.4933 -0.2766 0.8216
-17.8904 -37.7031 -0.2350 0.8463
-9.3644 -24.6919 -0.1487 0.8998
-6.5878 -22.7437 -0.1333 0.9096
-3.2602 -15.9695 -0.0918 0.9369
-4.1176 -25.3363 -0.1445 0.9024
-3.2594 -26.8433 -0.1522 0.8975
-0.9072 -22.5111 -0.1268 0.9138
0.0000 -23.4862 -0.1322 0.9103
0.9195 -22.8161 -0.1286 0.9127
1.9067 -23.6189 -0.1334 0.9096
3.0518 -25.1340 -0.1425 0.9037
10.0532 -26.5079 -0.1596 0.8928
8.3566 -19.6136 -0.1200 0.9183
8.2191 -17.3215 -0.1079 0.9262
9.0502 -15.6754 -0.1019 0.9302
10.4516 -16.5278 -0.1101 0.9248
14.6707 -21.2541 -0.1454 0.9019
14.3502 -19.0966 -0.1345 0.9089
25.9354 -19.4892 -0.1827 0.8783
25.8671 7.4925 -0.1516 0.8979
20.1993 8.6061 -0.1236 0.9159
19.6885 9.3423 -0.1227 0.9165
18.4459 9.6811 -0.1173 0.9200
12.8998 8.1574 -0.0859 0.9408
12.3812 8.5461 -0.0847 0.9416
10.0494 9.6526 -0.0785 0.9458
7.8811 9.6526 -0.0702 0.9514
7.2534 9.6526 -0.0680 0.9529
6.6627 9.6526 -0.0660 0.9542
6.0522 9.5708 -0.0638 0.9557
4.7914 8.2990 -0.0540 0.9624
3.9265 8.2749 -0.0516 0.9640
3.5390 8.3064 -0.0508 0.9645
2.9875 8.9488 -0.0531 0.9630
2.3723 9.6247 -0.0558 0.9611
1.9649 9.6248 -0.0553 0.9615
1.5733 9.6811 -0.0552 0.9615
1.1755 9.6811 -0.0549 0.9617
0.7815 9.6811 -0.0547 0.9619
0.3879 9.6247 -0.0542 0.9622
-1.1638 9.5849 -0.0544 0.9621
-1.5642 9.6247 -0.0549 0.9617
-2.2352 9.0685 -0.0526 0.9633
-2.5502 8.8041 -0.0516 0.9640
-30.6655 34.6142 -0.2604 0.8311
-31.4534 32.7464 -0.2556 0.8339
-31.3970 30.1572 -0.2451 0.8402
-32.3760 26.4341 -0.2353 0.8460
-31.0293 21.4180 -0.2123 0.8600
-29.6891 15.5820 -0.1888 0.8745
-31.8696 13.5783 -0.1950 0.8706
-23.5874 8.9455 -0.1420 0.9040
-29.4608 9.8355 -0.1749 0.8832
-29.4608 8.5334 -0.1727 0.8845
-29.4608 7.2615 -0.1708 0.8857
-44.5122 -16.8812 -1.3405 0.8265
-39.4728 -16.8178 -1.2081 0.8422
-36.5644 -23.1220 -1.2182 0.8410
-23.5398 -16.2484 -0.8054 0.8918
-22.5685 -16.9591 -0.7949 0.8932
-19.7014 -17.4539 -0.7411 0.9000
-17.9283 -18.6653 -0.7287 0.9016
-19.6725 -22.2056 -0.8353 0.8881
-18.3590 -22.4856 -0.8174 0.8903
-16.5448 -23.9692 -0.8201 0.8900
-9.2744 -16.0637 -0.5223 0.9285
-22.0069 -41.9307 -1.3334 0.8274
-16.8894 -35.5937 -1.1093 0.8541
-8.5360 -22.5075 -0.6778 0.9082
-7.4827 -22.4135 -0.6654 0.9098
-3.2517 -15.9277 -0.4577 0.9370
-4.3380 -26.6926 -0.7615 0.8974
-3.5581 -29.3030 -0.8312 0.8886
-0.9065 -22.4948 -0.6339 0.9139
0.0000 -24.9962 -0.7038 0.9048
1.0172 -25.2405 -0.7113 0.9039
6.4551 -19.3353 -0.5740 0.9217
12.6106 -26.5762 -0.8283 0.8890
9.0238 -15.6298 -0.5082 0.9303
9.5924 -15.1692 -0.5054 0.9307
9.9273 -14.3822 -0.4921 0.9325
15.2415 -20.2827 -0.7144 0.9035
16.1785 -19.8150 -0.7203 0.9027
16.5888 -18.7249 -0.7044 9 -2.5000 0.8208
43.6492 -22.9089 -2.5000 0.8208
44.5363 -21.1327 -2.5000 0.8208
46.0924 -17.4805 -2.5000 0.8208
46.7587 -15.6103 -2.5000 0.8208
47.3492 -13.7149 -2.5000 0.8208
47.8631 -11.7972 -2.5000 0.8208
48.2993 -9.8604 -2.5000 0.8208
48.6572 -7.9076 -2.5000 0.8208
49.1357 -3.9667 -2.5000 0.8208
49.1358 3.9667 -2.5000 0.8208
48.9363 5.9420 -2.5000 0.8208
31.5226 6.4354 -1.6316 0.8791
32.0336 9.2786 -1.6913 0.8750
32.0889 10.7128 -1.7157 0.8733
32.0976 12.1730 -1.7409 0.8715
32.1312 13.6898 -1.7711 0.8695
11.3340 5.3781 -0.6362 0.9510
32.2800 20.4126 -1.9369 0.8582
32.3664 24.3218 -2.0532 0.8503
32.4647 28.7612 -2.1996 0.8405
19.4268 25.8524 -1.6400 0.8785
11.4009 16.5172 -1.0178 0.9228
10.2440 16.1996 -0.9720 0.9261
13.8354 23.9636 -1.4033 0.8951
14.8686 44.5369 -2.3812 0.8286
13.0829 45.1673 -2.3848 0.8283
2.0177 16.6175 -0.8489 0.9352
1.3624 16.8769 -0.8587 0.9344
-0.0000 16.3981 -0.8316 0.9364
-0.6493 16.1115 -0.8177 0.9375
-1.2474 15.4519 -0.7862 0.9398
-2.0075 16.5332 -0.8446 0.9355
-3.1995 19.6870 -1.0115 0.9232
-9.5819 46.9352 -2.4294 0.8254
-6.7259 15.7862 -0.8702 0.9336
-22.4879 42.8471 -2.4541 0.8238
-24.2273 41.9628 -2.4573 0.8236
-25.9310 41.0065 -2.4605 0.8234
-29.2192 38.8837 -2.4667 0.8230
-30.7588 37.6726 -2.4665 0.8230
-33.5550 34.9344 -2.4566 0.8237
-33.8945 32.5561 -2.3834 0.8284
-36.0938 31.9762 -2.4455 0.8244
-16.0294 13.0876 -1.0495 0.9205
-16.1945 10.2408 -0.9717 0.9261
-42.0392 22.0639 -2.4078 0.8268
-43.9854 16.6814 -2.3857 0.8283
-44.7948 12.9750 -2.3651 0.8296
-22.6560 4.6253 -1.1727 0.9115
-46.1404 3.7248 -2.3476 0.8308
-49.2558 1.9850 -2.5000 0.8208
-33.9854 -2.7436 -2.5000 0.8722
-33.8473 -4.1098 -2.5000 0.8722
-33.6544 -5.4694 -2.5000 0.8722
-33.4069 -6.8201 -2.5000 0.8722
-32.3412 -10.7971 -2.5000 0.8722
-28.9271 -13.7261 -2.3477 0.8795
-28.3540 -14.8813 -2.3479 0.8795
-25.2426 -18.9686 -2.3152 0.8811
-24.4349 -19.9505 -2.3129 0.8812
-23.5883 -20.8974 -2.3106 0.8813
-22.8232 -21.9220 -2.3204 0.8808
-22.8491 -23.7884 -2.4185 0.8761
-20.1667 -26.8370 -2.4614 0.8740
-16.7848 -29.0721 -2.4614 0.8740
-13.1582 -30.8833 -2.4614 0.8740
-4.9146 -16.9671 -1.2952 0.9316
-2.7430 -16.8784 -1.2538 0.9337
-1.3754 -17.0368 -1.2532 0.9337
-0.6871 -17.0494 -1.2511 0.9339
0.0000 -17.2387 -1.2640 0.9332
1.3868 -17.1782 -1.2636 0.9332
1.7378 -14.3122 -1.0571 0.9438
4.2213 -17.1262 -1.2933 0.9317
5.0304 -17.3668 -1.3257 0.9300
5.8221 -17.4395 -1.3481 0.9289
6.5997 -17.4021 -1.3646 0.9281
13.7077 -19.8591 -1.7693 0.9078
15.4042 -20.4992 -1.8801 0.9023
17.6274 -21.5897 -2.0436 0.8942
18.3875 -20.7551 -2.0331 0.8947
19.5757 -17.3426 -1.9176 0.9004
25.6357 -17.6951 -2.2840 0.8826
27.0608 -17.1122 -2.3476 0.8795
27.7279 -16.0087 -2.3476 0.8795
28.3500 -14.8792 -2.3476 0.8795
31.3675 -13.3645 -2.5000 0.8722
32.3412 -10.7971 -2.5000 0.8722
32.7498 -9.4861 -2.5000 0.8722
33.6544 -5.4694 -2.5000 0.8722
33.8474 -4.1098 -2.5000 0.8722
33.9854 -2.7436 -2.5000 0.8722
34.0683 -1.3729 -2.5000 0.8722
34.0683 1.3729 -2.5000 0.8722
24.6196 5.0262 -1.8424 0.9041
20.3397 5.0133 -1.5360 0.9194
29.4619 12.5525 -2.3481 0.8795
11.3328 5.3775 -0.9197 0.9509
28.3858 14.8980 -2.3505 0.8793
27.7788 16.0381 -2.3519 0.8793
25.6926 19.3068 -2.3564 0.8791
24.9121 20.3401 -2.3581 0.8790
24.0907 21.3425 -2.3599 0.8789
23.2297 22.3125 -2.3617 0.8788
22.2629 23.1781 -2.3564 0.8791
19.4150 25.8367 -2.3697 0.8784
11.3983 16.5133 -1.4712 0.9227
10.2415 16.1957 -1.4050 0.9260
13.7010 23.7309 -2.0092 0.8959
11.6154 22.1314 -1.8326 0.9046
11.5451 24.3309 -1.9746 0.8976
10.5793 24.8308 -1.9790 0.8974
9.9278 26.1776 -2.0528 0.8938
10.3142 30.8948 -2.3882 0.8775
9.0713 31.3177 -2.3907 0.8774
5.2469 32.2853 -2.3983 0.8771
2.6376 32.6730 -2.4034 0.8768
-0.0000 32.8500 -2.4086 0.8766
-2.6490 32.8139 -2.4138 0.8763
-2.3982 14.7567 -1.0962 0.9418
-6.6059 32.3579 -2.4215 0.8759
-10.4903 31.4224 -2.4290 0.8756
-11.7588 31.0054 -2.4314 0.8755
-16.5987 28.7498 -2.4341 0.8753
-17.7239 28.0280 -2.4315 0.8755
-17.0217 24.6601 -2.1970 0.8868
-19.8748 26.4486 -2.4258 0.8757
-21.8813 24.6989 -2.4194 0.8760
-25.4049 20.7424 -2.4048 0.8767
-26.1756 19.6697 -2.4007 0.8769
-26.9000 18.5677 -2.3966 0.8771
-28.7856 15.1079 -2.3837 0.8778
-29.3155 13.9104 -2.3792 0.8780
-31.6180 5.1384 -2.3487 0.8794
-33.2077 2.6808 -2.4428 0.8749
-34.0683 1.3729 -2.5000 0.8722
-26.0402 -0.0000 -2.5000 0.9006
-25.9557 -2.0954 -2.5000 0.9006
-25.8503 -3.1388 -2.5000 0.9006
-25.7029 -4.1771 -2.5000 0.9006
-25.5139 -5.2087 -2.5000 0.9006
-25.2835 -6.2318 -2.5000 0.9006
-24.7000 -8.2461 -2.5000 0.9006
-24.3480 -9.2340 -2.5000 0.9006
-21.8813 -13.8369 -2.4855 0.9012
-17.7602 -18.4903 -2.4614 0.9021
-16.2148 -19.8595 -2.4614 0.9021
-15.4020 -20.4963 -2.4614 0.9021
-12.8191 -22.2033 -2.4614 0.9021
-9.8266 -20.7091 -2.2007 0.9120
-6.4118 -16.9066 -1.7359 0.9299
-5.7267 -17.1533 -1.7362 0.9299
-3.5184 -17.2340 -1.6887 0.9318
-1.3795 -17.0875 -1.6458 0.9334
-0.6884 -17.0818 -1.6413 0.9336
0.0000 -17.2526 -1.6563 0.9330
4.2342 -17.1786 -1.6986 0.9314
5.0430 -17.4107 -1.7402 0.9298
5.7972 -17.3646 -1.7575 0.9291
13.5711 -19.6611 -2.2936 0.9085
16.2356 -18.3262 -2.3505 0.9063
17.6354 -16.9390 -2.3476 0.9064
18.3031 -16.2152 -2.3476 0.9064
20.8827 -13.2055 -2.3721 0.9055
22.5514 -13.0201 -2.5000 0.9006
23.9564 -10.2069 -2.5000 0.9006
25.5139 -5.2087 -2.5000 0.9006
25.7029 -4.1771 -2.5000 0.9006
25.8503 -3.1388 -2.5000 0.9006
25.9556 -2.0954 -2.5000 0.9006
26.0190 -1.0485 -2.5000 0.9006
26.0190 1.0485 -2.5000 0.9006
24.1361 3.9225 -2.3476 0.9064
17.3464 5.0245 -1.7338 0.9300
13.2087 5.0094 -1.3562 0.9448
11.3315 5.3769 -1.2041 0.9508
19.7144 14.8144 -2.3675 0.9057
19.1123 15.6047 -2.3688 0.9056
17.1224 17.8263 -2.3730 0.9054
16.4011 18.5130 -2.3745 0.9054
15.6526 19.1710 -2.3761 0.9053
14.8780 19.7991 -2.3777 0.9053
11.3956 16.5095 -1.9259 0.9226
10.2391 16.1919 -1.8392 0.9259
12.4095 21.4938 -2.3827 0.9051
10.6556 22.4563 -2.3863 0.9049
7.8895 23.6320 -2.3919 0.9047
6.9371 23.9496 -2.3938 0.9047
4.0095 24.6712 -2.3996 0.9044
3.0153 24.8329 -2.4016 0.9044
-0.0000 25.0771 -2.4075 0.9041
-1.0106 25.0774 -2.4095 0.9041
-3.0302 24.9554 -2.4134 0.9039
-4.0358 24.8333 -2.4154 0.9038
-7.0059 24.1873 -2.4176 0.9038
-8.9206 23.5217 -2.4151 0.9039
-6.7228 15.7790 -1.6466 0.9334
-11.6682 22.2319 -2.4105 0.9040
-12.5444 21.7275 -2.4087 0.9041
-13.3982 21.1876 -2.4067 0.9042
-14.2282 20.6131 -2.4046 0.9043
-15.8109 19.3649 -2.4001 0.9044
-17.2821 17.9925 -2.3951 0.9046
-18.6309 16.5055 -2.3896 0.9048
-19.2566 15.7225 -2.3867 0.9049
-20.4066 14.0857 -2.3805 0.9052
-20.9292 13.2348 -2.3773 0.9053
-21.4157 12.3644 -2.3741 0.9054
-22.2782 10.5711 -2.3674 0.9057
-22.6528 9.6515 -2.3640 0.9058
-15.0521 5.0252 -1.5235 0.9382
-17.5273 5.0769 -1.7519 0.9293
-22.5428 4.6021 -2.2089 0.9117
-24.2746 2.9475 -2.3476 0.9064
-26.0190 1.0485 -2.5000 0.9006
-21.0461 0.0000 -2.5000 0.9187
-20.8927 -2.5368 -2.5000 0.9187
-20.7736 -3.3760 -2.5000 0.9187
-20.4346 -5.0367 -2.5000 0.9187
-19.6785 -7.4631 -2.5000 0.9187
-19.3620 -8.2494 -2.5000 0.9187
-18.6354 -9.7806 -2.5000 0.9187
-17.7880 -11.2485 -2.5000 0.9187
-17.3206 -11.9556 -2.5000 0.9187
-16.2987 -13.3073 -2.4994 0.9187
-14.4127 -15.0052 -2.4714 0.9196
-13.1266 -16.0772 -2.4654 0.9198
-12.4487 -16.5661 -2.4615 0.9199
-11.7711 -17.0533 -2.4614 0.9199
-10.3899 -16.4303 -2.3092 0.9247
-9.7192 -16.8341 -2.3090 0.9247
-9.0334 -17.2118 -2.3090 0.9247
-8.3330 -17.5615 -2.3090 0.9247
-7.6368 -17.9241 -2.3143 0.9245
-6.4610 -17.0361 -2.1643 0.9292
-3.5096 -17.1910 -2.0842 0.9318
-2.7659 -17.0196 -2.0482 0.9329
-2.1234 -17.4876 -2.0925 0.9315
-1.3805 -17.1004 -2.0379 0.9332
1.3943 -17.2710 -2.0582 0.9326
3.5446 -17.3625 -2.1050 0.9311
6.6329 -17.4897 -2.2219 0.9274
7.3937 -17.3536 -2.2407 0.9268
8.2884 -17.4674 -2.2966 0.9251
10.5627 -16.7036 -2.3476 0.9235
11.2267 -16.2648 -2.3476 0.9235
12.4991 -15.3086 -2.3476 0.9235
13.1054 -14.7929 -2.3476 0.9235
13.6904 -14.2532 -2.3476 0.9235
14.9110 -13.2101 -2.3663 0.9229
16.8252 -12.6433 -2.5000 0.9187
17.7880 -11.2484 -2.5000 0.9187
18.6354 -9.7806 -2.5000 0.9187
19.0141 -9.0223 -2.5000 0.9187
19.9630 -6.6646 -2.5000 0.9187
20.7735 -3.3761 -2.5000 0.9187
21.0291 -0.8475 -2.5000 0.9187
21.0461 -0.0000 -2.5000 0.9187
21.0291 0.8474 -2.5000 0.9187
20.9779 1.6935 -2.5000 0.9187
19.5072 3.1702 -2.3476 0.9235
19.3638 3.9531 -2.3476 0.9235
19.1889 4.7296 -2.3476 0.9235
17.3462 5.0244 -2.1452 0.9298
11.7014 4.9856 -1.5110 0.9501
17.6170 9.2461 -2.3634 0.9230
16.8522 10.6567 -2.3685 0.9228
16.4266 11.3384 -2.3709 0.9227
14.9755 13.2671 -2.3766 0.9226
13.2869 14.9979 -2.3801 0.9225
12.6790 15.5289 -2.3814 0.9224
11.3930 16.5057 -2.3824 0.9224
10.2367 16.1880 -2.2751 0.9258
9.3433 17.8023 -2.3882 0.9222
8.6242 18.1752 -2.3897 0.9222
5.6113 19.3723 -2.3957 0.9220
4.8298 19.5953 -2.3973 0.9219
4.0395 19.7868 -2.3989 0.9219
3.2416 19.9466 -2.4005 0.9218
1.6279 20.1636 -2.4030 0.9217
0.0000 20.2313 -2.4032 0.9217
-1.6277 20.1637 -2.4030 0.9217
-3.2440 19.9613 -2.4022 0.9218
-4.8373 19.6256 -2.4010 0.9218
-6.3963 19.1593 -2.3993 0.9219
-8.6469 18.2228 -2.3959 0.9220
-9.3683 17.8498 -2.3946 0.9220
-10.0733 17.4475 -2.3931 0.9221
-10.7607 17.0166 -2.3916 0.9221
-12.0778 16.0726 -2.3882 0.9222
-13.3107 15.0247 -2.3844 0.9223
-14.4514 13.8808 -2.3802 0.9225
-15.9717 12.0020 -2.3732 0.9227
-16.4247 11.3372 -2.3707 0.9228
-17.9504 8.5176 -2.3601 0.9231
-11.7329 4.9989 -1.5149 0.9499
-13.1548 4.9890 -1.6712 0.9449
-15.0521 5.0252 -1.8850 0.9381
-17.5269 5.0768 -2.1675 0.9291
-19.3640 3.9532 -2.3476 0.9235
-20.8927 2.5368 -2.5000 0.9187
-20.9779 1.6935 -2.5000 0.9187
-17.6441 -0.0000 -2.5000 0.9312
-17.5155 -2.1268 -2.5000 0.9312
-17.2875 -3.5293 -2.5000 0.9312
-17.1314 -4.2225 -2.5000 0.9312
-16.9475 -4.9089 -2.5000 0.9312
-16.4975 -6.2567 -2.5000 0.9312
-16.2322 -6.9159 -2.5000 0.9312
-15.9406 -7.5639 -2.5000 0.9312
-14.9127 -9.4302 -2.5000 0.9312
-14.1055 -10.5996 -2.5000 0.9312
-13.2068 -11.7002 -2.5000 0.9312
-12.7250 -12.2225 -2.5000 0.9312
-12.2225 -12.7250 -2.5000 0.9312
-9.0514 -14.3136 -2.3996 0.9339
-7.1028 -14.9688 -2.3476 0.9353
-6.4943 -15.2427 -2.3476 0.9353
-5.2467 -15.7159 -2.3476 0.9353
-3.9651 -16.0871 -2.3476 0.9353
-3.3141 -16.2337 -2.3476 0.9353
-1.9971 -16.4477 -2.3476 0.9353
-1.3332 -16.5148 -2.3476 0.9353
1.3332 -16.5148 -2.3476 0.9353
2.6578 -16.3540 -2.3476 0.9353
3.3141 -16.2337 -2.3476 0.9353
3.9651 -16.0871 -2.3476 0.9353
5.8753 -15.4919 -2.3476 0.9353
6.4943 -15.2427 -2.3476 0.9353
8.2843 -14.3488 -2.3476 0.9353
9.4120 -13.6356 -2.3476 0.9353
9.9534 -13.2456 -2.3476 0.9353
10.7802 -13.2035 -2.4152 0.9335
11.6835 -13.1879 -2.4964 0.9313
12.7252 -12.2225 -2.5000 0.9312
13.2068 -11.7002 -2.5000 0.9312
14.1055 -10.5996 -2.5000 0.9312
14.5208 -10.0230 -2.5000 0.9312
14.9126 -9.4302 -2.5000 0.9312
15.6231 -8.1996 -2.5000 0.9312
16.2322 -6.9159 -2.5000 0.9312
16.4975 -6.2567 -2.5000 0.9312
17.2875 -3.5293 -2.5000 0.9312
17.5155 -2.1268 -2.5000 0.9312
7.7132 -0.3108 -1.0938 0.9693
7.6732 0.0000 -1.0872 0.9695
7.7107 0.3107 -1.0934 0.9693
15.9144 4.6097 -2.3476 0.9353
14.9997 5.0077 -2.2406 0.9381
13.1634 4.9923 -1.9947 0.9447
11.7014 4.9856 -1.8022 0.9499
14.0904 8.9103 -2.3621 0.9349
13.7322 9.4787 -2.3642 0.9348
13.3507 10.0324 -2.3662 0.9348
12.9466 10.5706 -2.3682 0.9347
12.5204 11.0922 -2.3701 0.9347
11.1168 12.5483 -2.3753 0.9345
10.6098 12.9946 -2.3770 0.9345
8.9827 14.2049 -2.3813 0.9344
7.8187 14.8974 -2.3839 0.9343
7.2159 15.2073 -2.3850 0.9343
6.6006 15.4922 -2.3860 0.9342
5.9738 15.7517 -2.3870 0.9342
5.3366 15.9851 -2.3878 0.9342
3.3737 16.5254 -2.3898 0.9341
2.0337 16.7489 -2.3906 0.9341
1.3578 16.8190 -2.3908 0.9341
-0.6795 16.8612 -2.3910 0.9341
-1.3578 16.8191 -2.3908 0.9341
-5.9739 15.7518 -2.3870 0.9342
-7.8189 14.8976 -2.3839 0.9343
-9.5420 13.8239 -2.3800 0.9344
-10.6100 12.9949 -2.3770 0.9345
-12.0732 11.5965 -2.3719 0.9346
-13.7310 9.4778 -2.3640 0.9348
-14.7325 7.7322 -2.3575 0.9350
-10.4402 4.9540 -1.6374 0.9544
-13.1868 5.0011 -1.9983 0.9446
-15.0521 5.0252 -2.2484 0.9379
-16.0856 3.9648 -2.3474 0.9353
-15.1754 -0.0000 -2.5000 0.9403
-15.1631 -0.6111 -2.5000 0.9403
-15.1262 -1.2211 -2.5000 0.9403
-15.0648 -1.8292 -2.5000 0.9403
-14.5763 -4.2221 -2.5000 0.9403
-14.3944 -4.8056 -2.5000 0.9403
-14.1893 -5.3813 -2.5000 0.9403
-13.7103 -6.5056 -2.5000 0.9403
-13.4372 -7.0524 -2.5000 0.9403
-13.1423 -7.5877 -2.5000 0.9403
-11.3590 -10.0632 -2.5000 0.9403
-10.5124 -10.9445 -2.5000 0.9403
-8.6206 -12.4891 -2.5000 0.9403
-8.1107 -12.8261 -2.5000 0.9403
-6.9683 -13.2769 -2.4702 0.9410
-6.2704 -13.2146 -2.4096 0.9424
-5.6333 -13.2220 -2.3676 0.9434
-2.8504 -13.9623 -2.3476 0.9439
-1.7177 -14.1464 -2.3476 0.9439
0.5738 -14.2387 -2.3476 0.9439
1.1467 -14.2041 -2.3476 0.9439
1.7116 -14.0962 -2.3392 0.9441
2.8504 -13.9623 -2.3476 0.9439
3.4103 -13.8362 -2.3476 0.9439
3.9647 -13.6877 -2.3476 0.9439
5.0532 -13.3243 -2.3476 0.9439
6.2670 -13.2074 -2.4083 0.9425
8.6206 -12.4891 -2.5000 0.9403
9.1165 -12.1319 -2.5000 0.9403
10.5124 -10.9445 -2.5000 0.9403
10.9445 -10.5124 -2.5000 0.9403
11.7549 -9.5976 -2.5000 0.9403
12.1319 -9.1165 -2.5000 0.9403
12.8261 -8.1108 -2.5000 0.9403
13.4371 -7.0524 -2.5000 0.9403
13.7102 -6.5056 -2.5000 0.9403
13.9611 -5.9483 -2.5000 0.9403
14.3944 -4.8056 -2.5000 0.9403
14.7344 -3.6317 -2.5000 0.9403
14.8687 -3.0355 -2.5000 0.9403
7.3458 -0.2960 -1.2111 0.9706
9.1735 0.7406 -1.5162 0.9634
15.0648 1.8292 -2.5000 0.9403
13.6877 3.9647 -2.3476 0.9439
13.1380 4.9826 -2.3148 0.9446
11.7014 4.9856 -2.0954 0.9497
10.4988 4.9818 -1.9144 0.9540
8.6414 4.9892 -1.6438 0.9604
7.8649 4.9735 -1.5330 0.9630
11.1096 9.0707 -2.3627 0.9435
10.7427 9.5172 -2.3644 0.9435
10.3576 9.9486 -2.3659 0.9434
9.5354 10.7632 -2.3689 0.9434
7.2087 12.4859 -2.3751 0.9432
6.7030 12.7716 -2.3762 0.9432
5.6580 13.2798 -2.3780 0.9432
3.4585 14.0316 -2.3807 0.9431
2.8912 14.1623 -2.3812 0.9431
1.1635 14.4130 -2.3821 0.9431
-0.0000 14.4610 -2.3823 0.9431
-0.5823 14.4490 -2.3823 0.9431
-2.3191 14.2696 -2.3816 0.9431
-3.4585 14.0317 -2.3807 0.9431
-6.1859 13.0366 -2.3771 0.9432
-6.7032 12.7717 -2.3762 0.9432
-7.7022 12.1800 -2.3740 0.9433
-8.6484 11.5089 -2.3716 0.9433
-9.0998 11.1452 -2.3703 0.9433
-9.5356 10.7634 -2.3689 0.9434
-9.9552 10.3644 -2.3675 0.9434
-10.3578 9.9488 -2.3660 0.9434
-11.4573 8.6096 -2.3610 0.9436
-7.8165 4.9429 -1.5235 0.9632
-12.6503 6.6394 -2.3536 0.9437
-12.8967 6.1196 -2.3516 0.9438
-13.9623 2.8504 -2.3476 0.9439
-14.9789 2.4343 -2.5000 0.9403
-15.0648 1.8292 -2.5000 0.9403
-15.1262 1.2211 -2.5000 0.9403
-13.3006 0.0000 -2.5000 0.9473
-13.2898 -0.5355 -2.5000 0.9473
-13.0318 -2.6605 -2.5000 0.9473
-12.9141 -3.1830 -2.5000 0.9473
-12.6161 -4.2119 -2.5000 0.9473
-12.2362 -5.2134 -2.5000 0.9473
-12.0164 -5.7019 -2.5000 0.9473
-11.5186 -6.6503 -2.5000 0.9473
-11.2415 -7.1087 -2.5000 0.9473
-10.9461 -7.5556 -2.5000 0.9473
-10.6330 -7.9902 -2.5000 0.9473
-10.3027 -8.4119 -2.5000 0.9473
-8.8199 -9.9556 -2.5000 0.9473
-8.4119 -10.3027 -2.5000 0.9473
-7.5556 -10.9462 -2.5000 0.9473
-7.1087 -11.2415 -2.5000 0.9473
-6.6503 -11.5186 -2.5000 0.9473
-5.2134 -12.2362 -2.5000 0.9473
-4.2119 -12.6161 -2.5000 0.9473
-1.6022 -13.1954 -2.4984 0.9473
-0.5319 -13.1976 -2.4827 0.9477
1.6020 -13.1935 -2.4981 0.9473
2.1335 -13.1283 -2.5000 0.9473
3.7004 -12.7754 -2.5000 0.9473
4.7164 -12.4362 -2.5000 0.9473
5.7018 -12.0164 -2.5000 0.9473
6.1811 -11.7771 -2.5000 0.9473
7.5556 -10.9462 -2.5000 0.9473
7.9902 -10.6330 -2.5000 0.9473
8.8199 -9.9556 -2.5000 0.9473
9.2136 -9.5924 -2.5000 0.9473
9.5924 -9.2136 -2.5000 0.9473
9.9556 -8.8199 -2.5000 0.9473
10.3027 -8.4119 -2.5000 0.9473
10.9461 -7.5556 -2.5000 0.9473
11.2415 -7.1087 -2.5000 0.9473
11.5186 -6.6503 -2.5000 0.9473
11.7771 -6.1811 -2.5000 0.9473
12.0164 -5.7019 -2.5000 0.9473
12.2362 -5.2134 -2.5000 0.9473
12.4362 -4.7164 -2.5000 0.9473
12.7754 -3.7005 -2.5000 0.9473
12.9141 -3.1830 -2.5000 0.9473
13.0318 -2.6605 -2.5000 0.9473
13.1283 -2.1336 -2.5000 0.9473
7.1315 -0.2874 -1.3415 0.9714
7.1214 -0.0000 -1.3385 0.9714
13.1283 2.1336 -2.5000 0.9473
12.1268 2.9890 -2.3476 0.9504
11.9966 3.4749 -2.3476 0.9504
11.8470 3.9551 -2.3476 0.9504
11.6781 4.4289 -2.3476 0.9504
11.4903 4.8956 -2.3476 0.9504
10.4988 4.9818 -2.1843 0.9538
9.4888 4.9801 -2.0143 0.9573
7.1852 4.9596 -1.6410 0.9651
10.0256 7.5338 -2.3572 0.9502
9.3983 8.3262 -2.3600 0.9502
5.1864 4.9817 -1.3517 0.9712
8.7077 9.0657 -2.3627 0.9501
7.9583 9.7472 -2.3652 0.9501
7.5631 10.0646 -2.3663 0.9501
7.1550 10.3658 -2.3674 0.9500
4.9464 11.6096 -2.3719 0.9499
3.9984 11.9767 -2.3733 0.9499
3.5137 12.1308 -2.3738 0.9499
3.0230 12.2650 -2.3743 0.9499
1.0170 12.5975 -2.3755 0.9499
-0.0000 12.6393 -2.3757 0.9499
-0.5089 12.6288 -2.3757 0.9499
-1.5233 12.5453 -2.3754 0.9499
-2.0270 12.4725 -2.3751 0.9499
-3.5138 12.1309 -2.3739 0.9499
-3.9984 11.9767 -2.3733 0.9499
-4.4763 11.8029 -2.3727 0.9499
-4.9464 11.6097 -2.3720 0.9499
-5.8606 11.1664 -2.3704 0.9500
-6.3031 10.9172 -2.3695 0.9500
-6.7348 10.6503 -2.3685 0.9500
-7.1551 10.3659 -2.3675 0.9500
-7.5632 10.0648 -2.3664 0.9500
-7.9585 9.7473 -2.3652 0.9501
-8.3402 9.4142 -2.3640 0.9501
-8.7079 9.0659 -2.3628 0.9501
-9.0608 8.7030 -2.3614 0.9502
-6.0379 4.9298 -1.4651 0.9688
-6.5581 4.9281 -1.5419 0.9672
-7.8163 4.9428 -1.7383 0.9631
-8.5587 4.9414 -1.8576 0.9606
-11.6781 4.4289 -2.3476 0.9504
-11.8470 3.9551 -2.3476 0.9504
-13.2574 1.0702 -2.5000 0.9473
-13.2898 0.5356 -2.5000 0.9473
-11.7886 -0.9517 -2.5000 0.9528
-11.6738 -1.8972 -2.5000 0.9528
-11.4833 -2.8304 -2.5000 0.9528
-11.2183 -3.7452 -2.5000 0.9528
-11.0584 -4.1939 -2.5000 0.9528
-10.8806 -4.6358 -2.5000 0.9528
-10.4723 -5.4963 -2.5000 0.9528
-10.2425 -5.9135 -2.5000 0.9528
-9.9961 -6.3211 -2.5000 0.9528
-9.4550 -7.1050 -2.5000 0.9528
-7.1050 -9.4550 -2.5000 0.9528
-6.3211 -9.9960 -2.5000 0.9528
-5.9135 -10.2425 -2.5000 0.9528
-5.4963 -10.4723 -2.5000 0.9528
-5.0701 -10.6851 -2.5000 0.9528
-4.6358 -10.8806 -2.5000 0.9528
-4.1939 -11.0584 -2.5000 0.9528
-2.8304 -11.4833 -2.5000 0.9528
-2.3657 -11.5880 -2.5000 0.9528
-1.8972 -11.6738 -2.5000 0.9528
-0.0000 -11.8270 -2.5000 0.9528
0.9517 -11.7886 -2.5000 0.9528
2.3657 -11.5880 -2.5000 0.9528
2.8304 -11.4833 -2.5000 0.9528
3.7452 -11.2183 -2.5000 0.9528
5.0701 -10.6851 -2.5000 0.9528
5.9135 -10.2425 -2.5000 0.9528
6.3211 -9.9960 -2.5000 0.9528
6.7185 -9.7334 -2.5000 0.9528
7.1050 -9.4550 -2.5000 0.9528
7.8427 -8.8526 -2.5000 0.9528
9.1612 -7.4799 -2.5000 0.9528
10.4723 -5.4963 -2.5000 0.9528
10.6851 -5.0701 -2.5000 0.9528
10.8806 -4.6358 -2.5000 0.9528
11.3600 -3.2905 -2.5000 0.9528
11.4833 -2.8304 -2.5000 0.9528
11.5879 -2.3657 -2.5000 0.9528
6.9641 -0.5622 -1.4769 0.9718
6.9324 -0.2794 -1.4666 0.9720
11.7407 1.4256 -2.5000 0.9528
11.6738 1.8972 -2.5000 0.9528
10.6675 3.0899 -2.3476 0.9556
10.5344 3.5169 -2.3476 0.9556
10.3843 3.9382 -2.3476 0.9556
10.2173 4.3532 -2.3476 0.9556
10.0337 4.7611 -2.3476 0.9556
9.4887 4.9801 -2.2652 0.9571
8.6412 4.9890 -2.1091 0.9600
7.8649 4.9735 -1.9671 0.9627
8.9033 6.6904 -2.3541 0.9555
6.0701 4.9561 -1.6565 0.9685
8.3451 7.3931 -2.3567 0.9554
7.7309 8.0487 -2.3590 0.9554
7.4040 8.3575 -2.3602 0.9554
6.7135 8.9341 -2.3623 0.9553
6.3509 9.2009 -2.3632 0.9553
5.9776 9.4528 -2.3641 0.9553
5.5942 9.6894 -2.3650 0.9553
4.7995 10.1147 -2.3665 0.9553
4.3896 10.3027 -2.3672 0.9552
3.9722 10.4739 -2.3678 0.9552
3.5481 10.6278 -2.3684 0.9552
3.1179 10.7643 -2.3689 0.9552
2.6824 10.8831 -2.3693 0.9552
-0.4516 11.2053 -2.3705 0.9552
-0.9023 11.1775 -2.3704 0.9552
-2.2424 10.9840 -2.3697 0.9552
-2.6825 10.8832 -2.3693 0.9552
-3.5481 10.6279 -2.3684 0.9552
-3.9723 10.4739 -2.3679 0.9552
-4.3896 10.3028 -2.3672 0.9552
-5.2013 9.9102 -2.3658 0.9553
-6.3510 9.2010 -2.3632 0.9553
-6.7136 8.9342 -2.3623 0.9553
-7.0649 8.6529 -2.3613 0.9554
-7.4042 8.3576 -2.3602 0.9554
-5.1354 4.9326 -1.5051 0.9713
-8.3453 7.3932 -2.3567 0.9554
-7.1370 4.9263 -1.8331 0.9652
-8.5587 4.9414 -2.0890 0.9604
-9.8371 5.1629 -2.3483 0.9556
-10.0337 4.7610 -2.3476 0.9556
-10.2173 4.3532 -2.3476 0.9556
-10.3843 3.9382 -2.3476 0.9556
-10.5344 3.5169 -2.3476 0.9556
-10.6675 3.0899 -2.3476 0.9556
-10.9706 2.7040 -2.3884 0.9549
-11.6738 1.8972 -2.5000 0.9528
-11.7408 1.4256 -2.5000 0.9528
-11.8174 0.4762 -2.5000 0.9528
-10.6372 -0.0000 -2.5000 0.9572
-10.6286 -0.4283 -2.5000 0.9572
-10.6027 -0.8559 -2.5000 0.9572
-10.5596 -1.2822 -2.5000 0.9572
-10.4222 -2.1277 -2.5000 0.9572
-10.3281 -2.5457 -2.5000 0.9572
-10.2172 -2.9595 -2.5000 0.9572
-10.0898 -3.3685 -2.5000 0.9572
-8.9905 -5.6852 -2.5000 0.9572
-8.7543 -6.0426 -2.5000 0.9572
-5.6852 -8.9904 -2.5000 0.9572
-5.3186 -9.2121 -2.5000 0.9572
-4.9434 -9.4188 -2.5000 0.9572
-4.1694 -9.7860 -2.5000 0.9572
-3.7720 -9.9459 -2.5000 0.9572
-3.3685 -10.0898 -2.5000 0.9572
-2.9595 -10.2172 -2.5000 0.9572
-2.5457 -10.3281 -2.5000 0.9572
-1.2822 -10.5596 -2.5000 0.9572
-0.4283 -10.6286 -2.5000 0.9572
-0.0000 -10.6372 -2.5000 0.9572
0.4283 -10.6286 -2.5000 0.9572
0.8559 -10.6027 -2.5000 0.9572
2.9594 -10.2172 -2.5000 0.9572
4.1694 -9.7860 -2.5000 0.9572
4.5601 -9.6102 -2.5000 0.9572
5.3186 -9.2121 -2.5000 0.9572
6.0426 -8.7542 -2.5000 0.9572
7.0538 -7.9621 -2.5000 0.9572
7.3686 -7.6716 -2.5000 0.9572
7.6716 -7.3686 -2.5000 0.9572
7.9620 -7.0538 -2.5000 0.9572
8.7542 -6.0426 -2.5000 0.9572
8.9904 -5.6852 -2.5000 0.9572
9.4187 -4.9433 -2.5000 0.9572
9.6102 -4.5601 -2.5000 0.9572
10.3281 -2.5457 -2.5000 0.9572
10.4994 -1.7063 -2.5000 0.9572
6.8714 -0.5547 -1.6202 0.9721
6.8387 0.2756 -1.6086 0.9723
6.8683 0.5545 -1.6195 0.9721
10.5596 1.2822 -2.5000 0.9572
10.4222 2.1277 -2.5000 0.9572
10.3281 2.5456 -2.5000 0.9572
9.4747 3.1631 -2.3476 0.9598
9.0243 4.2821 -2.3476 0.9598
8.8446 4.6420 -2.3476 0.9598
8.5980 4.9641 -2.3333 0.9600
7.8649 4.9735 -2.1870 0.9625
7.9993 6.0111 -2.3517 0.9597
7.4969 6.6417 -2.3539 0.9597
6.9445 7.2300 -2.3561 0.9596
4.0509 4.9615 -1.5054 0.9740
5.7038 8.2634 -2.3598 0.9596
5.3683 8.4893 -2.3606 0.9596
5.0238 8.7014 -2.3614 0.9596
3.5668 9.4048 -2.3640 0.9595
2.4085 9.7717 -2.3653 0.9595
2.0133 9.8621 -2.3656 0.9595
1.2135 9.9941 -2.3661 0.9595
-0.8102 10.0355 -2.3663 0.9595
-2.0134 9.8621 -2.3656 0.9595
-3.5668 9.4049 -2.3640 0.9595
-5.0238 8.7015 -2.3614 0.9596
-5.7039 8.2635 -2.3598 0.9596
-3.7100 4.9371 -1.4514 0.9749
-4.3720 4.9350 -1.5495 0.9733
-5.1232 4.9209 -1.6695 0.9712
-7.4970 6.6418 -2.3540 0.9597
-6.0378 4.9298 -1.8319 0.9685
-6.5581 4.9281 -1.9280 0.9669
-7.1370 4.9263 -2.0381 0.9650
-8.5380 4.9294 -2.3170 0.9603
-8.8446 4.6420 -2.3476 0.9598
-9.1895 3.9153 -2.3476 0.9598
-10.3281 2.5456 -2.5000 0.9572
-10.5597 1.2822 -2.5000 0.9572
-10.6027 0.8559 -2.5000 0.9572
-10.6286 0.4283 -2.5000 0.9572
-9.5851 -1.1638 -2.5000 0.9609
-9.4604 -1.9314 -2.5000 0.9609
-9.2743 -2.6863 -2.5000 0.9609
-8.7233 -4.1392 -2.5000 0.9609
-8.5495 -4.4871 -2.5000 0.9609
-8.3619 -4.8278 -2.5000 0.9609
-8.1608 -5.1605 -2.5000 0.9609
-7.9463 -5.4850 -2.5000 0.9609
-7.4792 -6.1066 -2.5000 0.9609
-7.2273 -6.4028 -2.5000 0.9609
-6.9636 -6.6886 -2.5000 0.9609
-6.6886 -6.9636 -2.5000 0.9609
-6.1066 -7.4792 -2.5000 0.9609
-5.1605 -8.1608 -2.5000 0.9609
-4.8278 -8.3619 -2.5000 0.9609
-4.4871 -8.5495 -2.5000 0.9609
-3.4239 -9.0281 -2.5000 0.9609
-2.6864 -9.2743 -2.5000 0.9609
-1.5489 -9.5305 -2.5000 0.9609
-1.1639 -9.5851 -2.5000 0.9609
-0.3888 -9.6477 -2.5000 0.9609
0.7770 -9.6242 -2.5000 0.9609
1.1638 -9.5851 -2.5000 0.9609
1.9313 -9.4604 -2.5000 0.9609
2.6863 -9.2743 -2.5000 0.9609
3.0576 -9.1586 -2.5000 0.9609
4.8277 -8.3619 -2.5000 0.9609
5.1605 -8.1607 -2.5000 0.9609
5.4849 -7.9463 -2.5000 0.9609
5.8005 -7.7190 -2.5000 0.9609
6.1066 -7.4792 -2.5000 0.9609
6.9636 -6.6886 -2.5000 0.9609
7.2273 -6.4028 -2.5000 0.9609
7.7190 -5.8005 -2.5000 0.9609
8.1607 -5.1605 -2.5000 0.9609
8.5495 -4.4871 -2.5000 0.9609
8.8829 -3.7846 -2.5000 0.9609
9.0281 -3.4239 -2.5000 0.9609
9.2743 -2.6863 -2.5000 0.9609
9.3749 -2.3107 -2.5000 0.9609
9.4604 -1.9313 -2.5000 0.9609
6.8602 -0.5538 -1.7820 0.9720
6.8189 0.0000 -1.7655 0.9722
6.8264 0.2751 -1.7689 0.9722
9.4604 1.9314 -2.5000 0.9609
9.2743 2.6863 -2.5000 0.9609
8.6003 2.8712 -2.3476 0.9632
8.4777 3.2152 -2.3476 0.9632
8.3414 3.5539 -2.3476 0.9632
8.1915 3.8869 -2.3476 0.9632
7.8522 4.5335 -2.3476 0.9632
7.2022 4.9714 -2.2659 0.9645
7.2548 5.4516 -2.3496 0.9632
7.0325 5.7419 -2.3507 0.9632
6.7986 6.0230 -2.3517 0.9632
5.1691 4.9650 -1.8557 0.9708
6.2971 6.5559 -2.3536 0.9631
4.3964 4.9626 -1.7166 0.9730
3.1367 4.9603 -1.5195 0.9760
4.2343 8.0678 -2.3591 0.9631
2.3517 4.9562 -1.4204 0.9776
3.2332 8.5254 -2.3608 0.9630
-0.0000 9.1263 -2.3630 0.9630
-0.3675 9.1188 -2.3629 0.9630
-0.7343 9.0963 -2.3629 0.9630
-1.1000 9.0588 -2.3627 0.9630
-1.4637 9.0065 -2.3625 0.9630
-1.8250 8.9393 -2.3623 0.9630
-2.1832 8.8575 -2.3620 0.9630
-1.6565 4.9617 -1.3544 0.9786
-3.5732 8.3865 -2.3603 0.9630
-2.3447 4.9414 -1.4161 0.9777
-2.8520 4.9398 -1.4769 0.9767
-5.1714 7.4920 -2.3571 0.9631
-6.2971 6.5560 -2.3537 0.9631
-6.7987 6.0231 -2.3517 0.9632
-7.8522 4.5334 -2.3476 0.9632
-8.0283 4.2136 -2.3476 0.9632
-8.1915 3.8869 -2.3476 0.9632
-8.3414 3.5539 -2.3476 0.9632
-9.2684 2.6846 -2.4984 0.9609
-9.4604 1.9313 -2.5000 0.9609
-9.5305 1.5488 -2.5000 0.9609
-9.6242 0.7769 -2.5000 0.9609
-9.6477 0.3888 -2.5000 0.9609
-8.8310 -0.0000 -2.5000 0.9640
-8.8238 -0.3556 -2.5000 0.9640
-8.8024 -0.7106 -2.5000 0.9640
-8.7666 -1.0645 -2.5000 0.9640
-8.7166 -1.4166 -2.5000 0.9640
-8.6525 -1.7664 -2.5000 0.9640
-8.5744 -2.1134 -2.5000 0.9640
-8.2571 -3.1315 -2.5000 0.9640
-7.8195 -4.1040 -2.5000 0.9640
-7.6479 -4.4155 -2.5000 0.9640
-6.6101 -5.8560 -2.5000 0.9640
-6.1174 -6.3689 -2.5000 0.9640
-5.8560 -6.6101 -2.5000 0.9640
-5.5851 -6.8405 -2.5000 0.9640
-5.3052 -7.0599 -2.5000 0.9640
-4.7199 -7.4639 -2.5000 0.9640
-4.1040 -7.8194 -2.5000 0.9640
-3.7858 -7.9783 -2.5000 0.9640
-3.1315 -8.2571 -2.5000 0.9640
-2.4569 -8.4823 -2.5000 0.9640
-2.1134 -8.5743 -2.5000 0.9640
-1.4167 -8.7166 -2.5000 0.9640
-0.3556 -8.8238 -2.5000 0.9640
0.3556 -8.8238 -2.5000 0.9640
0.7106 -8.8023 -2.5000 0.9640
2.1134 -8.5743 -2.5000 0.9640
2.4569 -8.4823 -2.5000 0.9640
4.1039 -7.8194 -2.5000 0.9640
4.4155 -7.6478 -2.5000 0.9640
4.7198 -7.4638 -2.5000 0.9640
5.3051 -7.0599 -2.5000 0.9640
5.8560 -6.6101 -2.5000 0.9640
6.1174 -6.3689 -2.5000 0.9640
6.8405 -5.5851 -2.5000 0.9640
7.0598 -5.3051 -2.5000 0.9640
7.4638 -4.7199 -2.5000 0.9640
7.6478 -4.4155 -2.5000 0.9640
7.9783 -3.7858 -2.5000 0.9640
8.1243 -3.4614 -2.5000 0.9640
8.2571 -3.1315 -2.5000 0.9640
8.3765 -2.7965 -2.5000 0.9640
8.6525 -1.7664 -2.5000 0.9640
6.8287 -0.5513 -1.9395 0.9719
6.8031 0.2742 -1.9275 0.9721
6.8263 0.5511 -1.9388 0.9719
8.7666 1.0645 -2.5000 0.9640
8.7166 1.4166 -2.5000 0.9640
8.6525 1.7664 -2.5000 0.9640
8.5743 2.1134 -2.5000 0.9640
8.4823 2.4569 -2.5000 0.9640
8.1146 2.7091 -2.4218 0.9651
7.7537 2.9406 -2.3476 0.9661
7.6290 3.2504 -2.3476 0.9661
7.0088 4.4321 -2.3476 0.9661
6.8247 4.7107 -2.3476 0.9661
6.4271 5.2475 -2.3489 0.9661
4.3964 4.9626 -1.8769 0.9728
4.0509 4.9615 -1.8132 0.9737
3.4152 4.9478 -1.7019 0.9753
3.1282 4.9469 -1.6569 0.9760
3.8686 7.3709 -2.3566 0.9660
2.3517 4.9562 -1.5530 0.9775
1.6538 4.9540 -1.4785 0.9785
1.2207 4.9526 -1.4440 0.9790
1.0109 4.9519 -1.4308 0.9792
1.3371 8.2275 -2.3597 0.9659
0.3357 8.3300 -2.3601 0.9659
-1.0048 8.2753 -2.3599 0.9659
-0.8039 4.9462 -1.4186 0.9794
-1.0097 4.9456 -1.4289 0.9792
-1.9944 8.0916 -2.3592 0.9659
-2.3183 8.0036 -2.3589 0.9660
-1.6504 4.9436 -1.4754 0.9786
-2.8520 4.9398 -1.6147 0.9766
-3.7100 4.9371 -1.7483 0.9747
-4.0302 4.9361 -1.8040 0.9739
-4.3720 4.9350 -1.8664 0.9730
-5.7544 5.9909 -2.3516 0.9661
-5.1354 4.9326 -2.0158 0.9708
-6.5426 4.9165 -2.3168 0.9665
-7.0089 4.4321 -2.3476 0.9661
-7.3428 3.8538 -2.3476 0.9661
-7.6291 3.2504 -2.3476 0.9661
-7.7537 2.9406 -2.3476 0.9661
-8.4823 2.4569 -2.5000 0.9640
-8.5744 2.1134 -2.5000 0.9640
-8.6525 1.7664 -2.5000 0.9640
-8.8238 0.3556 -2.5000 0.9640
-8.1214 -0.3273 -2.5000 0.9666
-8.1016 -0.6540 -2.5000 0.9666
-7.8918 -1.9451 -2.5000 0.9666
-7.8071 -2.2613 -2.5000 0.9666
-7.1970 -3.7772 -2.5000 0.9666
-7.0390 -4.0640 -2.5000 0.9666
-6.8697 -4.3441 -2.5000 0.9666
-6.6892 -4.6172 -2.5000 0.9666
-6.0839 -5.3898 -2.5000 0.9666
-5.3898 -6.0839 -2.5000 0.9666
-3.7772 -7.1970 -2.5000 0.9666
-3.4844 -7.3432 -2.5000 0.9666
-3.1859 -7.4776 -2.5000 0.9666
-2.8822 -7.5998 -2.5000 0.9666
-2.5739 -7.7097 -2.5000 0.9666
-1.9452 -7.8918 -2.5000 0.9666
-1.6258 -7.9637 -2.5000 0.9666
-1.3038 -8.0227 -2.5000 0.9666
-0.9797 -8.0687 -2.5000 0.9666
-0.6540 -8.1016 -2.5000 0.9666
-0.3273 -8.1214 -2.5000 0.9666
0.0000 -8.1280 -2.5000 0.9666
0.3273 -8.1214 -2.5000 0.9666
0.6540 -8.1016 -2.5000 0.9666
0.9797 -8.0687 -2.5000 0.9666
1.3038 -8.0227 -2.5000 0.9666
1.9452 -7.8918 -2.5000 0.9666
2.2613 -7.8071 -2.5000 0.9666
3.1859 -7.4776 -2.5000 0.9666
3.4844 -7.3432 -2.5000 0.9666
3.7772 -7.1969 -2.5000 0.9666
4.3441 -6.8697 -2.5000 0.9666
4.6172 -6.6892 -2.5000 0.9666
5.3898 -6.0839 -2.5000 0.9666
5.6304 -5.8619 -2.5000 0.9666
6.0838 -5.3898 -2.5000 0.9666
6.4978 -4.8828 -2.5000 0.9666
6.6892 -4.6172 -2.5000 0.9666
6.8696 -4.3441 -2.5000 0.9666
7.0390 -4.0640 -2.5000 0.9666
7.1969 -3.7772 -2.5000 0.9666
7.3432 -3.4844 -2.5000 0.9666
7.4775 -3.1859 -2.5000 0.9666
7.5998 -2.8822 -2.5000 0.9666
7.8070 -2.2613 -2.5000 0.9666
7.8918 -1.9452 -2.5000 0.9666
8.0687 -0.9797 -2.5000 0.9666
6.8334 -0.5516 -2.1086 0.9717
6.8019 0.2741 -2.0938 0.9719
7.1009 0.8622 -2.2001 0.9705
7.9637 1.6258 -2.5000 0.9666
7.8918 1.9451 -2.5000 0.9666
7.8071 2.2613 -2.5000 0.9666
7.7096 2.5739 -2.5000 0.9666
7.0217 2.9917 -2.3476 0.9686
6.8956 3.2720 -2.3476 0.9686
6.7582 3.5470 -2.3476 0.9686
6.4509 4.0793 -2.3476 0.9686
6.2814 4.3357 -2.3476 0.9686
5.9121 4.8271 -2.3476 0.9686
3.1365 4.9601 -1.8050 0.9757
2.8623 4.9578 -1.7608 0.9763
3.5574 6.7780 -2.3544 0.9685
2.1063 4.9437 -1.6528 0.9778
1.8790 4.9547 -1.6299 0.9781
1.6538 4.9540 -1.6064 0.9784
1.2207 4.9526 -1.5689 0.9789
0.6168 7.6401 -2.3576 0.9684
0.1994 4.9494 -1.5235 0.9795
-0.0000 4.9488 -1.5221 0.9795
-0.9239 7.6087 -2.3575 0.9684
-0.8039 4.9462 -1.5413 0.9792
-1.6504 4.9436 -1.6030 0.9784
-1.8746 4.9429 -1.6260 0.9781
-2.3392 4.9297 -1.6783 0.9774
-3.1264 4.9441 -1.7992 0.9758
-4.3452 6.2951 -2.3527 0.9685
-3.7100 4.9371 -1.8995 0.9745
-4.0302 4.9361 -1.9600 0.9737
-5.2924 5.5099 -2.3499 0.9685
-5.7146 5.0627 -2.3482 0.9686
-6.1017 4.5851 -2.3476 0.9686
-6.6099 3.8162 -2.3476 0.9686
-7.0217 2.9917 -2.3476 0.9686
-7.1643 2.7171 -2.3567 0.9684
-7.7097 2.5739 -2.5000 0.9666
-8.0227 1.3038 -2.5000 0.9666
-8.0687 0.9797 -2.5000 0.9666
-8.1016 0.6540 -2.5000 0.9666
-8.1214 0.3273 -2.5000 0.9666
-7.4965 -0.6052 -2.5000 0.9688
-7.4661 -0.9065 -2.5000 0.9688
-7.4235 -1.2065 -2.5000 0.9688
-7.3689 -1.5044 -2.5000 0.9688
-7.1338 -2.3816 -2.5000 0.9688
-7.0321 -2.6669 -2.5000 0.9688
-6.9191 -2.9479 -2.5000 0.9688
-6.5133 -3.7604 -2.5000 0.9688
-6.1896 -4.2723 -2.5000 0.9688
-5.8257 -4.7565 -2.5000 0.9688
-5.4241 -5.2099 -2.5000 0.9688
-4.5181 -6.0125 -2.5000 0.9688
-3.4951 -6.6594 -2.5000 0.9688
-2.9479 -6.9191 -2.5000 0.9688
-2.3816 -7.1338 -2.5000 0.9688
-2.0925 -7.2240 -2.5000 0.9688
-1.7999 -7.3023 -2.5000 0.9688
-1.5044 -7.3689 -2.5000 0.9688
-0.6052 -7.4965 -2.5000 0.9688
1.7999 -7.3024 -2.5000 0.9688
2.6669 -7.0322 -2.5000 0.9688
2.9479 -6.9191 -2.5000 0.9688
3.4951 -6.6594 -2.5000 0.9688
4.2724 -6.1896 -2.5000 0.9688
4.9873 -5.6295 -2.5000 0.9688
5.2099 -5.4241 -2.5000 0.9688
5.4241 -5.2099 -2.5000 0.9688
6.0125 -4.5181 -2.5000 0.9688
6.1896 -4.2724 -2.5000 0.9688
6.5133 -3.7604 -2.5000 0.9688
6.6594 -3.4951 -2.5000 0.9688
6.7947 -3.2241 -2.5000 0.9688
6.9191 -2.9479 -2.5000 0.9688
7.0322 -2.6670 -2.5000 0.9688
7.1338 -2.3816 -2.5000 0.9688
7.2239 -2.0925 -2.5000 0.9688
7.4235 -1.2064 -2.5000 0.9688
7.4965 -0.6052 -2.5000 0.9688
7.4965 0.6052 -2.5000 0.9688
7.3023 1.7999 -2.5000 0.9688
7.2239 2.0924 -2.5000 0.9688
7.1338 2.3816 -2.5000 0.9688
6.4973 2.7682 -2.3476 0.9707
6.3805 3.0276 -2.3476 0.9707
6.1162 3.5312 -2.3476 0.9707
5.9691 3.7746 -2.3476 0.9707
5.8122 4.0119 -2.3476 0.9707
5.6460 4.2427 -2.3476 0.9707
5.4705 4.4666 -2.3476 0.9707
4.8939 5.0951 -2.3483 0.9707
4.3964 4.9626 -2.2038 0.9724
4.2477 5.6527 -2.3504 0.9706
4.0177 5.8206 -2.3510 0.9706
2.8623 4.9578 -1.9029 0.9762
3.2891 6.2668 -2.3526 0.9706
1.6538 4.9540 -1.7361 0.9782
1.0085 4.9402 -1.6760 0.9790
0.3986 4.9383 -1.6468 0.9793
0.1989 4.9377 -1.6426 0.9794
-0.1989 4.9364 -1.6422 0.9794
-0.3985 4.9358 -1.6460 0.9793
-0.5993 4.9352 -1.6525 0.9793
-0.8020 4.9345 -1.6618 0.9791
-1.0073 4.9339 -1.6739 0.9790
-1.2159 4.9332 -1.6889 0.9788
-1.9707 6.8037 -2.3545 0.9706
-1.6504 4.9436 -1.7324 0.9783
-1.8746 4.9429 -1.7572 0.9780
-2.3447 4.9414 -1.8181 0.9772
-3.1265 4.9442 -1.9445 0.9756
-3.7100 4.9371 -2.0528 0.9743
-4.3720 4.9350 -2.1916 0.9726
-5.6460 4.2427 -2.3476 0.9707
-5.8122 4.0119 -2.3476 0.9707
-5.9691 3.7746 -2.3476 0.9707
-6.1162 3.5312 -2.3476 0.9707
-6.3806 3.0276 -2.3476 0.9707
-6.4973 2.7682 -2.3476 0.9707
-7.0321 2.6669 -2.5000 0.9688
-7.1338 2.3816 -2.5000 0.9688
-7.2239 2.0924 -2.5000 0.9688
-7.3023 1.7999 -2.5000 0.9688
-7.3689 1.5044 -2.5000 0.9688
-7.4235 1.2064 -2.5000 0.9688
-7.5148 0.3028 -2.5000 0.9688
-6.9909 0.0000 -2.5000 0.9707
-6.9399 -0.8427 -2.5000 0.9707
-6.9004 -1.1214 -2.5000 0.9707
-6.6311 -2.2138 -2.5000 0.9707
-6.5366 -2.4790 -2.5000 0.9707
-6.3159 -2.9969 -2.5000 0.9707
-6.1901 -3.2488 -2.5000 0.9707
-6.0543 -3.4954 -2.5000 0.9707
-5.4152 -4.4213 -2.5000 0.9707
-4.8428 -5.0418 -2.5000 0.9707
-4.6358 -5.2328 -2.5000 0.9707
-4.4213 -5.4152 -2.5000 0.9707
-4.1997 -5.5888 -2.5000 0.9707
-3.2488 -6.1901 -2.5000 0.9707
-2.9969 -6.3159 -2.5000 0.9707
-2.7402 -6.4315 -2.5000 0.9707
-2.2138 -6.6311 -2.5000 0.9707
-1.6730 -6.7877 -2.5000 0.9707
-1.1214 -6.9003 -2.5000 0.9707
-0.8427 -6.9399 -2.5000 0.9707
-0.2815 -6.9852 -2.5000 0.9707
0.2815 -6.9852 -2.5000 0.9707
1.3983 -6.8496 -2.5000 0.9707
1.6730 -6.7877 -2.5000 0.9707
1.9450 -6.7149 -2.5000 0.9707
2.4790 -6.5366 -2.5000 0.9707
2.9969 -6.3159 -2.5000 0.9707
3.4954 -6.0543 -2.5000 0.9707
4.4213 -5.4152 -2.5000 0.9707
4.8427 -5.0418 -2.5000 0.9707
5.0418 -4.8428 -2.5000 0.9707
5.4152 -4.4213 -2.5000 0.9707
5.5888 -4.1997 -2.5000 0.9707
5.7534 -3.9713 -2.5000 0.9707
5.9086 -3.7364 -2.5000 0.9707
6.0543 -3.4954 -2.5000 0.9707
6.1901 -3.2488 -2.5000 0.9707
6.3159 -2.9969 -2.5000 0.9707
6.6311 -2.2138 -2.5000 0.9707
6.7148 -1.9450 -2.5000 0.9707
6.9003 -1.1214 -2.5000 0.9707
6.9852 -0.2815 -2.5000 0.9707
6.9909 0.0000 -2.5000 0.9707
6.9399 0.8427 -2.5000 0.9707
6.9003 1.1214 -2.5000 0.9707
6.8496 1.3984 -2.5000 0.9707
6.7877 1.6730 -2.5000 0.9707
6.7149 1.9450 -2.5000 0.9707
5.4026 3.7292 -2.3476 0.9725
5.2481 3.9437 -2.3476 0.9725
4.3534 4.9140 -2.3477 0.9725
4.0509 4.9615 -2.2905 0.9732
3.9459 5.2511 -2.3489 0.9725
3.7322 5.4070 -2.3495 0.9725
3.0552 5.8212 -2.3510 0.9725
2.3517 4.9562 -1.9618 0.9770
1.8790 4.9547 -1.8950 0.9777
1.6538 4.9540 -1.8677 0.9781
1.0109 4.9519 -1.8074 0.9788
0.7933 6.5334 -2.3536 0.9724
0.1994 4.9494 -1.7714 0.9792
-0.0000 4.9488 -1.7697 0.9792
-0.1994 4.9481 -1.7709 0.9792
-0.5296 6.5604 -2.3537 0.9724
-0.7933 6.5334 -2.3536 0.9724
-1.8305 6.3195 -2.3528 0.9724
-1.6504 4.9436 -1.8638 0.9781
-1.8746 4.9429 -1.8904 0.9778
-2.5778 6.0503 -2.3518 0.9724
-2.8520 4.9398 -2.0398 0.9761
-4.0302 4.9361 -2.2788 0.9733
-4.3534 4.9140 -2.3477 0.9725
-4.5475 4.7345 -2.3476 0.9725
-4.9138 4.3532 -2.3476 0.9725
-5.0851 4.1518 -2.3476 0.9725
-5.2481 3.9437 -2.3476 0.9725
-5.5484 3.5086 -2.3476 0.9725
-5.8128 3.0508 -2.3476 0.9725
-6.3228 2.6939 -2.4578 0.9712
-6.5366 2.4790 -2.5000 0.9707
-6.7877 1.6730 -2.5000 0.9707
-6.9682 0.5625 -2.5000 0.9707
-6.5237 0.0000 -2.5000 0.9724
-6.5184 -0.2627 -2.5000 0.9724
-6.5025 -0.5249 -2.5000 0.9724
-6.4761 -0.7863 -2.5000 0.9724
-6.4392 -1.0465 -2.5000 0.9724
-6.2661 -1.8150 -2.5000 0.9724
-6.1879 -2.0658 -2.5000 0.9724
-6.0997 -2.3133 -2.5000 0.9724
-6.0017 -2.5570 -2.5000 0.9724
-5.8938 -2.7966 -2.5000 0.9724
-5.7764 -3.0317 -2.5000 0.9724
-5.6497 -3.2618 -2.5000 0.9724
-5.2153 -3.9190 -2.5000 0.9724
-5.0533 -4.1259 -2.5000 0.9724
-4.8830 -4.3260 -2.5000 0.9724
-4.5191 -4.7049 -2.5000 0.9724
-4.3260 -4.8830 -2.5000 0.9724
-3.7059 -5.3689 -2.5000 0.9724
-3.4867 -5.5137 -2.5000 0.9724
-2.3133 -6.0997 -2.5000 0.9724
-2.0658 -6.1879 -2.5000 0.9724
-1.8150 -6.2661 -2.5000 0.9724
-1.5612 -6.3341 -2.5000 0.9724
-1.3049 -6.3918 -2.5000 0.9724
-1.0465 -6.4392 -2.5000 0.9724
-0.7863 -6.4761 -2.5000 0.9724
-0.2627 -6.5184 -2.5000 0.9724
2.3133 -6.0997 -2.5000 0.9724
2.5571 -6.0016 -2.5000 0.9724
2.7966 -5.8938 -2.5000 0.9724
3.0317 -5.7764 -2.5000 0.9724
3.4867 -5.5137 -2.5000 0.9724
4.1258 -5.0533 -2.5000 0.9724
4.3260 -4.8830 -2.5000 0.9724
4.7049 -4.5191 -2.5000 0.9724
5.0532 -4.1258 -2.5000 0.9724
5.2153 -3.9190 -2.5000 0.9724
5.5137 -3.4867 -2.5000 0.9724
5.7764 -3.0317 -2.5000 0.9724
5.8938 -2.7967 -2.5000 0.9724
6.0016 -2.5571 -2.5000 0.9724
6.1879 -2.0658 -2.5000 0.9724
6.4392 -1.0465 -2.5000 0.9724
6.4761 -0.7863 -2.5000 0.9724
6.5025 -0.5249 -2.5000 0.9724
6.5025 0.5249 -2.5000 0.9724
6.4761 0.7863 -2.5000 0.9724
6.2661 1.8150 -2.5000 0.9724
6.1879 2.0658 -2.5000 0.9724
6.0016 2.5571 -2.5000 0.9724
5.7067 2.7079 -2.4206 0.9733
5.4243 2.8469 -2.3476 0.9741
5.0416 3.4800 -2.3476 0.9741
4.7452 3.8743 -2.3476 0.9741
4.5853 4.0623 -2.3476 0.9741
4.4181 4.2436 -2.3476 0.9741
4.0623 4.5854 -2.3476 0.9741
3.8743 4.7452 -2.3476 0.9741
3.6802 4.8975 -2.3476 0.9741
2.8623 4.9578 -2.1938 0.9758
2.3517 4.9562 -2.1023 0.9768
2.4040 5.6424 -2.3503 0.9741
1.8790 4.9547 -2.0307 0.9776
1.6538 4.9540 -2.0014 0.9779
1.2207 4.9526 -1.9547 0.9784
0.7398 6.0927 -2.3520 0.9741
-0.4939 6.1178 -2.3521 0.9741
-0.7398 6.0927 -2.3520 0.9741
-1.0097 4.9456 -1.9343 0.9786
-1.4685 5.9578 -2.3515 0.9741
-1.7070 5.8933 -2.3512 0.9741
-1.8746 4.9429 -2.0258 0.9776
-2.3447 4.9414 -2.0960 0.9768
-2.8520 4.9398 -2.1859 0.9759
-3.1267 4.9445 -2.2419 0.9753
-3.4808 5.0428 -2.3482 0.9741
-3.8743 4.7452 -2.3476 0.9741
-4.0623 4.5854 -2.3476 0.9741
-4.4181 4.2436 -2.3476 0.9741
-4.7452 3.8743 -2.3476 0.9741
-5.0416 3.4800 -2.3476 0.9741
-5.4243 2.8469 -2.3476 0.9741
-5.6946 2.7021 -2.4155 0.9734
-6.0016 2.5571 -2.5000 0.9724
-6.0997 2.3133 -2.5000 0.9724
-6.3341 1.5612 -2.5000 0.9724
-6.3918 1.3049 -2.5000 0.9724
-6.4761 0.7863 -2.5000 0.9724
-6.5184 0.2627 -2.5000 0.9724
-2.6499 -0.2139 -1.0881 0.9886
-2.6602 -0.3230 -1.0968 0.9885
-2.8591 -0.4647 -1.1855 0.9876
-5.9849 -1.2218 -2.5000 0.9739
-5.7940 -1.9343 -2.5000 0.9739
-5.6195 -2.3943 -2.5000 0.9739
-5.4087 -2.8387 -2.5000 0.9739
-5.2900 -3.0542 -2.5000 0.9739
-5.0271 -3.4699 -2.5000 0.9739
-4.7316 -3.8632 -2.5000 0.9739
-4.5721 -4.0506 -2.5000 0.9739
-4.0506 -4.5721 -2.5000 0.9739
-3.8632 -4.7316 -2.5000 0.9739
-3.6695 -4.8833 -2.5000 0.9739
-3.4699 -5.0271 -2.5000 0.9739
-3.0542 -5.2900 -2.5000 0.9739
-1.9343 -5.7940 -2.5000 0.9739
-1.2218 -5.9849 -2.5000 0.9739
-0.9799 -6.0292 -2.5000 0.9739
-0.7363 -6.0638 -2.5000 0.9739
-0.4915 -6.0885 -2.5000 0.9739
-0.2460 -6.1034 -2.5000 0.9739
-0.0000 -6.1083 -2.5000 0.9739
0.2460 -6.1034 -2.5000 0.9739
0.4915 -6.0885 -2.5000 0.9739
1.4618 -5.9308 -2.5000 0.9739
1.9343 -5.7940 -2.5000 0.9739
2.1660 -5.7114 -2.5000 0.9739
2.3943 -5.6195 -2.5000 0.9739
2.6186 -5.5186 -2.5000 0.9739
3.0542 -5.2900 -2.5000 0.9739
3.4699 -5.0271 -2.5000 0.9739
3.8632 -4.7315 -2.5000 0.9739
4.0506 -4.5721 -2.5000 0.9739
4.2314 -4.4053 -2.5000 0.9739
4.4054 -4.2314 -2.5000 0.9739
4.5721 -4.0506 -2.5000 0.9739
5.0271 -3.4699 -2.5000 0.9739
5.1627 -3.2647 -2.5000 0.9739
5.2900 -3.0542 -2.5000 0.9739
5.5186 -2.6186 -2.5000 0.9739
5.6195 -2.3943 -2.5000 0.9739
5.7114 -2.1660 -2.5000 0.9739
5.7939 -1.9343 -2.5000 0.9739
5.8672 -1.6994 -2.5000 0.9739
5.9849 -1.2218 -2.5000 0.9739
6.0292 -0.9798 -2.5000 0.9739
6.0638 -0.7363 -2.5000 0.9739
6.0885 -0.4915 -2.5000 0.9739
6.1034 0.2460 -2.5000 0.9739
6.0885 0.4915 -2.5000 0.9739
6.0638 0.7363 -2.5000 0.9739
6.0292 0.9798 -2.5000 0.9739
5.9849 1.2218 -2.5000 0.9739
5.1698 2.7133 -2.3896 0.9751
4.8480 3.0657 -2.3476 0.9755
4.7206 3.2584 -2.3476 0.9755
4.2934 3.8037 -2.3476 0.9755
3.9734 4.1368 -2.3476 0.9755
3.2584 4.7206 -2.3476 0.9755
3.0655 4.8477 -2.3475 0.9755
2.8555 4.9460 -2.3374 0.9756
2.6664 5.0805 -2.3483 0.9755
2.2497 5.2802 -2.3490 0.9755
1.8790 4.9547 -2.1687 0.9774
1.5974 5.5148 -2.3499 0.9755
1.0109 4.9519 -2.0685 0.9784
0.6923 5.7013 -2.3505 0.9755
-0.6923 5.7013 -2.3506 0.9755
-1.6504 4.9436 -2.1330 0.9777
-1.8746 4.9429 -2.1636 0.9774
-2.2497 5.2802 -2.3490 0.9755
-2.3447 4.9414 -2.2385 0.9766
-2.6665 5.0805 -2.3483 0.9755
-3.2584 4.7206 -2.3476 0.9755
-3.6277 4.4431 -2.3476 0.9755
-3.8037 4.2934 -2.3476 0.9755
-4.4431 3.6277 -2.3476 0.9755
-4.5856 3.4458 -2.3476 0.9755
-4.7206 3.2584 -2.3476 0.9755
-4.9789 2.8745 -2.3530 0.9755
-5.5186 2.6186 -2.5000 0.9739
-5.6195 2.3943 -2.5000 0.9739
-5.7114 2.1660 -2.5000 0.9739
-5.8671 1.6994 -2.5000 0.9739
-5.9308 1.4618 -2.5000 0.9739
-5.9849 1.2218 -2.5000 0.9739
-2.8592 0.4647 -1.1855 0.9876
-2.6602 0.3230 -1.0968 0.9885
-2.4020 0.0000 -1.0468 0.9896
-2.4011 -0.0968 -1.0473 0.9896
-5.5696 -1.3728 -2.5000 0.9753
-5.5099 -1.5959 -2.5000 0.9753
-5.4411 -1.8165 -2.5000 0.9753
-5.3636 -2.0341 -2.5000 0.9753
-5.2773 -2.2484 -2.5000 0.9753
-5.1825 -2.4591 -2.5000 0.9753
-4.9678 -2.8682 -2.5000 0.9753
-4.8483 -3.0659 -2.5000 0.9753
-4.7209 -3.2586 -2.5000 0.9753
-4.2937 -3.8039 -2.5000 0.9753
-4.1371 -3.9737 -2.5000 0.9753
-3.9737 -4.1370 -2.5000 0.9753
-3.4461 -4.5859 -2.5000 0.9753
-2.6658 -5.0792 -2.5000 0.9753
-2.4591 -5.1825 -2.5000 0.9753
-2.2484 -5.2773 -2.5000 0.9753
-1.8165 -5.4411 -2.5000 0.9753
-1.5960 -5.5098 -2.5000 0.9753
-1.1474 -5.6204 -2.5000 0.9753
-0.9202 -5.6620 -2.5000 0.9753
-0.0000 -5.7363 -2.5000 0.9753
0.9202 -5.6620 -2.5000 0.9753
1.1474 -5.6204 -2.5000 0.9753
1.3728 -5.5696 -2.5000 0.9753
2.0341 -5.3636 -2.5000 0.9753
2.2484 -5.2773 -2.5000 0.9753
2.6658 -5.0793 -2.5000 0.9753
3.0659 -4.8483 -2.5000 0.9753
3.4461 -4.5859 -2.5000 0.9753
3.8039 -4.2937 -2.5000 0.9753
3.9737 -4.1370 -2.5000 0.9753
4.4434 -3.6279 -2.5000 0.9753
4.7209 -3.2586 -2.5000 0.9753
4.8483 -3.0659 -2.5000 0.9753
