ply
format ascii 1.0
element vertex 1571
property float32 x
property float32 y
property float32 z
property float32 I
end_header
1.9214 -23.8006 0.4033 0.9089
1.9264 -15.8655 0.2700 0.9381
5.0146 -24.5631 0.4235 0.9046
6.2349 -18.6756 0.3326 0.9243
7.3595 -15.5097 0.2900 0.9336
9.6940 -16.7905 0.3275 0.9254
16.1225 -19.7465 0.4306 0.9030
19.5464 8.3279 0.3589 0.9185
11.9167 8.2255 0.2446 0.9437
11.4544 8.6074 0.2420 0.9443
11.1148 9.0749 0.2424 0.9442
10.8878 12.2898 0.2773 0.9364
10.8975 13.3470 0.2911 0.9334
5.8457 10.1251 0.1975 0.9543
5.3993 10.2875 0.1963 0.9546
3.9570 8.3391 0.1559 0.9637
2.4342 8.4040 0.1478 0.9656
1.5642 9.6248 0.1647 0.9617
1.1687 9.6248 0.1638 0.9620
0.7738 9.5854 0.1624 0.9623
0.3901 9.6811 0.1637 0.9620
0.0000 9.6811 0.1635 0.9620
-0.7770 9.6248 0.1631 0.9621
-1.9764 9.6811 0.1669 0.9612
-2.3723 9.6248 0.1674 0.9611
-2.7879 9.6248 0.1693 0.9607
-3.9408 8.3050 0.1553 0.9639
-31.0380 35.0347 0.7906 0.8292
-32.3746 31.0963 0.7583 0.8356
-28.6684 25.3981 0.6470 0.8579
-32.3759 26.4341 0.7060 0.8460
-30.6338 23.0198 0.6473 0.8579
-11.1530 7.6984 0.2289 0.9472
-32.0401 18.4984 0.6249 0.8624
-31.4129 16.4868 0.5993 0.8677
-32.4354 9.3950 0.5704 0.8736
-41.4194 5.0292 0.7048 0.8463
-40.2420 -21.1206 -0.2559 0.8338
-36.8287 -23.2892 -0.2453 0.8400
-23.1380 -15.9710 -0.1583 0.8936
-21.8360 -16.4087 -0.1538 0.8965
-20.1070 -17.8132 -0.1512 0.8981
-19.1461 -18.3901 -0.1495 0.8993
-17.2512 -19.4726 -0.1465 0.9012
-15.6441 -20.8184 -0.1466 0.9011
-14.4718 -20.9659 -0.1434 0.9031
-22.8747 -43.5842 -0.2771 0.8213
-17.2551 -36.3644 -0.2266 0.8513
-8.5662 -22.5872 -0.1360 0.9079
-7.5900 -22.7349 -0.1349 0.9086
-6.0624 -24.5961 -0.1426 0.9036
-5.2275 -25.6061 -0.1471 0.9007
-4.3324 -26.6580 -0.1521 0.8976
-1.8164 -22.5005 -0.1271 0.9137
0.0000 -22.8205 -0.1285 0.9128
2.0300 -25.1464 -0.1420 0.9040
1.9215 -15.8247 -0.0898 0.9382
6.5299 -40.1798 -0.2292 0.8497
7.8809 -38.6031 -0.2218 0.8542
8.9134 -26.6986 -0.1585 0.8935
7.3618 -17.2788 -0.1057 0.9276
8.8905 -16.9395 -0.1077 0.9263
9.5449 -16.5322 -0.1075 0.9265
11.9504 -18.8979 -0.1259 0.9144
14.3982 -20.8594 -0.1427 0.9036
16.0823 -21.4016 -0.1507 0.8984
16.6473 -20.3892 -0.1482 0.9001
18.9915 9.0116 -0.1184 0.9194
16.6026 9.5855 -0.1079 0.9262
13.2939 8.4065 -0.0886 0.9390
11.9167 8.2255 -0.0815 0.9437
11.4544 8.6074 -0.0807 0.9443
11.1148 9.0749 -0.0808 0.9442
10.8975 9.6543 -0.0820 0.9434
10.0494 9.6526 -0.0785 0.9458
7.2535 9.6526 -0.0680 0.9529
6.6627 9.6526 -0.0660 0.9542
6.1039 9.6526 -0.0643 0.9553
5.0232 9.5708 -0.0609 0.9577
2.7517 8.2423 -0.0489 0.9658
2.1724 8.8138 -0.0511 0.9643
1.5642 9.6248 -0.0549 0.9617
0.7738 9.5854 -0.0541 0.9623
0.3901 9.6811 -0.0546 0.9620
-0.3863 9.5868 -0.0540 0.9623
-1.1755 9.6811 -0.0549 0.9617
-1.5733 9.6811 -0.0552 0.9615
-2.3723 9.6248 -0.0558 0.9611
-3.1229 9.3541 -0.0555 0.9613
-3.6005 8.4507 -0.0517 0.9639
-3.9408 8.3050 -0.0518 0.9639
-5.2753 8.3422 -0.0556 0.9613
-25.0834 26.1145 -0.2039 0.8652
-30.6338 23.0198 -0.2157 0.8579
-11.1530 7.6984 -0.0763 0.9472
-31.4129 16.4868 -0.1997 0.8677
-31.9046 13.5933 -0.1953 0.8705
-30.3740 8.7980 -0.1780 0.8812
-30.4878 6.2242 -0.1752 0.8830
-44.6535 -16.9348 -1.3447 0.8260
-39.4205 -16.7955 -1.2066 0.8424
-31.5075 -16.5364 -1.0019 0.8673
-21.8983 -16.4555 -0.7713 0.8962
-22.2164 -18.1391 -0.8076 0.8916
-20.0825 -17.7916 -0.7555 0.8982
-18.8147 -18.0718 -0.7346 0.9009
-23.8222 -26.8897 -1.0115 0.8661
-17.9426 -23.8773 -0.8410 0.8873
-10.1583 -16.0640 -0.5352 0.9268
-8.5344 -22.5035 -0.6777 0.9082
-5.8086 -23.5664 -0.6834 0.9074
-3.6827 -30.3294 -0.8603 0.8849
-1.8149 -22.4820 -0.6351 0.9137
-1.0090 -25.0378 -0.7056 0.9046
0.0000 -25.2535 -0.7111 0.9039
7.1384 -43.9243 -1.2530 0.8369
4.9081 -19.9129 -0.5775 0.9212
5.5971 -19.3235 -0.5665 0.9227
8.9397 -26.7776 -0.7949 0.8932
11.3264 -26.5839 -0.8137 0.8908
8.7458 -15.1481 -0.4925 0.9324
9.0546 -14.3187 -0.4770 0.9345
15.1703 -20.1880 -0.7111 0.9039
13.9593 -15.7568 -0.5927 0.9192
19.6229 -20.4296 -0.7976 0.8928
24.9866 -20.4009 -0.9083 0.8789
18.9915 9.0116 -0.5919 0.9193
16.1781 8.4909 -0.5145 0.9295
16.0934 9.2916 -0.5233 0.9283
10.9706 8.9572 -0.3988 0.9449
9.2715 9.6526 -0.3769 0.9479
6.1039 9.6526 -0.3216 0.9553
5.5729 9.6526 -0.3138 0.9564
3.9570 8.3391 -0.2599 0.9637
3.5256 8.2749 -0.2533 0.9646
3.1382 8.2749 -0.2492 0.9652
2.7517 8.2423 -0.2447 0.9658
1.8488 9.0560 -0.2603 0.9637
1.5642 9.6248 -0.2746 0.9617
0.7738 9.5854 -0.2708 0.9622
-1.1755 9.6811 -0.2746 0.9617
-1.9764 9.6811 -0.2782 0.9612
-2.3723 9.6248 -0.2791 0.9611
-2.7879 9.6248 -0.2822 0.9607
-3.1229 9.3541 -0.2777 0.9613
-3.9408 8.3050 -0.2588 0.9639
-4.7598 8.2441 -0.2680 0.9626
-31.0380 35.0347 -1.3179 0.8292
-31.3483 30.1105 -1.2239 0.8404
-30.9350 27.4061 -1.1637 0.8476
-32.3760 26.4342 -1.1769 0.8460
-30.4409 22.8748 -1.0722 0.8587
-30.1668 19.0764 -1.0050 0.8669
-30.6193 14.5290 -0.9543 0.8732
-31.9046 13.5933 -0.9765 0.8704
-30.3740 11.5194 -0.9147 0.8781
-30.3740 10.1404 -0.9017 0.8797
-30.3740 8.7980 -0.8904 0.8811
-30.4878 6.2242 -0.8762 0.8829
-37.5261 6.0986 -1.0705 0.8589
-49.1356 -3.9666 -2.5000 0.8208
-48.9360 -5.9419 -2.5000 0.8208
-48.6571 -7.9076 -2.5000 0.8208
-48.2993 -9.8604 -2.5000 0.8208
-47.8630 -11.7972 -2.5000 0.8208
-45.6573 -13.2248 -2.4107 0.8266
-43.3173 -16.4280 -2.3495 0.8306
-39.5438 -16.8480 -2.1799 0.8418
-28.6614 -16.5477 -1.6784 0.8759
-23.8398 -16.4554 -1.4691 0.8905
-20.0236 -16.3487 -1.3110 0.9016
-18.4120 -16.3116 -1.2475 0.9062
-15.5299 -16.1683 -1.1369 0.9141
-14.2988 -16.1400 -1.0935 0.9173
-29.0753 -35.6107 -2.3315 0.8318
-10.1658 -16.0759 -0.9646 0.9266
-8.4369 -22.2463 -1.2066 0.9091
-7.4092 -22.1934 -1.1866 0.9105
-5.7789 -23.4460 -1.2246 0.9078
-5.5187 -45.4501 -2.3219 0.8325
3.6845 -45.6397 -2.3221 0.8324
9.1630 -44.8831 -2.3232 0.8324
8.2910 -28.6235 -1.5113 0.8875
8.9924 -26.9355 -1.4401 0.8925
10.1063 -26.6480 -1.4454 0.8921
12.6250 -26.6065 -1.4935 0.8887
8.2004 -15.6246 -0.8949 0.9318
23.0626 -39.9456 -2.3392 0.8313
10.0575 -15.9046 -0.9543 0.9274
16.1532 -15.5154 -1.1359 0.9142
20.6971 -15.5528 -1.3130 0.9015
43.4288 -22.7931 -2.4874 0.8217
43.4410 -18.5085 -2.3947 0.8277
44.5404 -14.8697 -2.3814 0.8286
46.4609 -13.4576 -2.4531 0.8239
48.9361 -5.9419 -2.5000 0.8208
49.1356 -3.9666 -2.5000 0.8208
49.2555 -1.9849 -2.5000 0.8208
49.2955 0.0000 -2.5000 0.8208
49.2555 1.9849 -2.5000 0.8208
46.1403 3.7248 -2.3476 0.8308
45.6911 7.4255 -2.3476 0.8308
43.9311 14.6664 -2.3488 0.8307
43.2847 16.4157 -2.3477 0.8308
17.8174 8.4545 -1.0002 0.9241
16.0919 8.4457 -0.9217 0.9298
14.5741 8.4144 -0.8535 0.9348
11.9167 8.2255 -0.7343 0.9437
11.4544 8.6074 -0.7266 0.9442
11.1147 9.0749 -0.7277 0.9442
10.3071 9.1313 -0.6983 0.9463
9.5901 9.2114 -0.6744 0.9481
6.6627 9.6526 -0.5948 0.9541
6.1039 9.6526 -0.5792 0.9553
5.5729 9.6526 -0.5653 0.9563
5.0232 9.5708 -0.5482 0.9576
3.4619 8.1254 -0.4479 0.9652
2.1235 8.6154 -0.4500 0.9651
0.3901 9.6811 -0.4914 0.9619
-0.3863 9.5868 -0.4866 0.9623
-1.1755 9.6811 -0.4946 0.9617
-1.5733 9.6811 -0.4974 0.9615
-1.9764 9.6811 -0.5011 0.9612
-2.1421 8.6907 -0.4539 0.9648
-3.1229 9.3541 -0.5001 0.9613
-3.3151 8.7413 -0.4741 0.9632
-3.9408 8.3050 -0.4662 0.9639
-25.8931 37.5127 -2.3116 0.8331
-28.9192 35.4196 -2.3190 0.8327
-30.3412 34.2481 -2.3204 0.8326
-30.9350 27.4061 -2.0960 0.8474
-29.8887 17.2563 -1.7503 0.8709
-31.4128 16.4867 -1.7992 0.8675
-30.6193 14.5291 -1.7188 0.8731
-30.3740 11.5194 -1.6475 0.8780
-37.5261 6.0986 -1.9281 0.8588
-45.9893 5.5841 -2.3494 0.8307
-46.1508 3.7257 -2.3481 0.8307
-49.2555 1.9849 -2.5000 0.8208
-33.9853 -2.7436 -2.5000 0.8722
-33.8473 -4.1098 -2.5000 0.8722
-33.4068 -6.8200 -2.5000 0.8722
-32.7497 -9.4861 -2.5000 0.8722
-32.3412 -10.7971 -2.5000 0.8722
-27.7392 -16.0152 -2.3485 0.8794
-27.0821 -17.1257 -2.3494 0.8794
-20.0236 -16.3487 -1.8954 0.9015
-18.5876 -16.4671 -1.8208 0.9052
-15.6054 -16.2470 -1.6518 0.9136
-21.1986 -23.9283 -2.3440 0.8797
-12.1489 -16.1673 -1.4828 0.9221
-11.1435 -16.1442 -1.4383 0.9243
-10.1375 -16.0313 -1.3908 0.9267
-9.3174 -16.1383 -1.3664 0.9280
-7.6220 -16.0631 -1.3036 0.9312
-6.8361 -16.0450 -1.2788 0.9324
-5.3451 -16.0106 -1.2376 0.9345
-4.6328 -15.9942 -1.2209 0.9354
-3.9383 -15.9782 -1.2066 0.9361
-3.2588 -15.9625 -1.1945 0.9367
-2.5917 -15.9472 -1.1846 0.9373
1.2802 -15.8580 -1.1665 0.9382
3.8938 -15.7978 -1.1930 0.9368
4.5714 -15.7822 -1.2048 0.9362
5.2636 -15.7662 -1.2187 0.9355
5.9731 -15.7499 -1.2351 0.9347
6.7032 -15.7331 -1.2539 0.9337
8.1923 -15.6091 -1.2925 0.9317
15.9686 -27.6584 -2.3417 0.8798
19.2054 -25.5577 -2.3441 0.8797
12.7323 -15.5942 -1.4761 0.9224
13.9271 -15.7205 -1.5399 0.9192
14.9298 -15.5436 -1.5803 0.9172
18.9247 -15.4516 -1.7914 0.9067
26.3767 -18.2065 -2.3500 0.8794
29.5281 -17.0481 -2.5000 0.8722
31.3676 -13.3645 -2.5000 0.8722
32.3413 -10.7971 -2.5000 0.8722
32.7498 -9.4861 -2.5000 0.8722
33.1052 -8.1597 -2.5000 0.8722
33.4069 -6.8201 -2.5000 0.8722
34.0683 -1.3729 -2.5000 0.8722
33.9854 2.7436 -2.5000 0.8722
33.6545 5.4694 -2.5000 0.8722
33.1053 8.1597 -2.5000 0.8722
32.7499 9.4862 -2.5000 0.8722
31.8804 12.0906 -2.5000 0.8722
16.1280 7.6529 -1.3089 0.9309
13.2939 8.4065 -1.1533 0.9389
11.3873 8.5570 -1.0444 0.9445
9.5695 8.4778 -0.9374 0.9500
8.9702 8.6160 -0.9120 0.9513
8.9160 9.2826 -0.9437 0.9497
6.4599 8.5966 -0.7885 0.9578
5.9739 8.6547 -0.7711 0.9587
5.5061 8.7072 -0.7554 0.9595
5.0586 8.7617 -0.7418 0.9602
3.9570 8.3391 -0.6768 0.9637
3.5256 8.2749 -0.6595 0.9646
3.1382 8.2749 -0.6489 0.9651
2.7517 8.2423 -0.6371 0.9657
2.4342 8.4040 -0.6415 0.9655
2.1724 8.8138 -0.6656 0.9642
1.8488 9.0558 -0.6777 0.9636
1.0551 8.6893 -0.6418 0.9655
0.7738 9.5853 -0.7051 0.9622
0.3901 9.6811 -0.7104 0.9619
0.0000 9.6811 -0.7098 0.9619
-0.3863 9.5868 -0.7035 0.9622
-2.1281 8.6342 -0.6520 0.9650
-5.2753 8.3422 -0.7237 0.9612
-19.0697 27.6272 -2.4614 0.8740
-20.1667 26.8370 -2.4614 0.8740
-24.4341 21.6467 -2.3935 0.8773
-24.3948 19.9183 -2.3091 0.8813
-30.3115 10.1195 -2.3431 0.8797
-30.3740 7.4866 -2.2937 0.8821
-30.4878 6.2242 -2.2815 0.8827
-31.6107 5.1373 -2.3482 0.8795
-31.7862 3.8595 -2.3477 0.8795
-25.8503 -3.1388 -2.5000 0.9006
-25.5139 -5.2087 -2.5000 0.9006
-25.0120 -7.2448 -2.5000 0.9006
-24.3479 -9.2339 -2.5000 0.9006
-23.9564 -10.2069 -2.5000 0.9006
-22.5515 -13.0201 -2.5000 0.9006
-19.5488 -14.6900 -2.3476 0.9064
-18.9421 -15.4658 -2.3477 0.9064
-18.3102 -16.2215 -2.3485 0.9064
-14.3683 -16.2185 -2.0802 0.9166
-12.1490 -16.1673 -1.9415 0.9219
-11.1435 -16.1442 -1.8833 0.9242
-5.3695 -16.0836 -1.6279 0.9341
-6.5074 -22.4663 -2.2455 0.9103
-0.6408 -15.9022 -1.5279 0.9380
0.0000 -15.8875 -1.5253 0.9382
1.2802 -15.8580 -1.5274 0.9381
1.9180 -15.7962 -1.5277 0.9381
3.8938 -15.7978 -1.5621 0.9367
5.9731 -15.7499 -1.6172 0.9346
6.7032 -15.7331 -1.6418 0.9336
7.4572 -15.7157 -1.6700 0.9325
10.7947 -15.6388 -1.8243 0.9265
11.7355 -15.6172 -1.8755 0.9245
13.9639 -15.7620 -2.0217 0.9189
16.9731 -17.6709 -2.3523 0.9062
17.6371 -16.9407 -2.3478 0.9064
18.3032 -16.2152 -2.3476 0.9064
20.1242 -13.8907 -2.3476 0.9064
22.5514 -13.0201 -2.5000 0.9006
23.5260 -11.1632 -2.5000 0.9006
24.3480 -9.2339 -2.5000 0.9006
25.0121 -7.2448 -2.5000 0.9006
25.7030 -4.1771 -2.5000 0.9006
25.8503 -3.1389 -2.5000 0.9006
26.0190 -1.0485 -2.5000 0.9006
26.0402 0.0000 -2.5000 0.9006
25.8503 3.1388 -2.5000 0.9006
23.2880 7.7747 -2.3571 0.9061
22.9072 8.6876 -2.3521 0.9062
17.8163 7.5908 -1.8592 0.9251
14.8013 7.0233 -1.5729 0.9363
14.5753 7.6497 -1.5803 0.9360
14.5742 8.4144 -1.6157 0.9346
11.9167 8.2255 -1.3901 0.9435
11.4544 8.6074 -1.3756 0.9441
10.3450 8.4465 -1.2822 0.9477
9.5341 8.4465 -1.2229 0.9501
8.8527 8.5032 -1.1785 0.9519
8.7975 9.1592 -1.2193 0.9502
7.8811 9.6526 -1.1963 0.9512
5.6905 8.2442 -0.9617 0.9605
4.9964 8.6541 -0.9594 0.9606
3.9570 8.3391 -0.8862 0.9636
3.4619 8.1254 -0.8479 0.9651
3.0801 8.1216 -0.8339 0.9657
2.7517 8.2423 -0.8342 0.9657
2.4342 8.4040 -0.8400 0.9655
2.1235 8.6154 -0.8519 0.9650
1.8470 9.0472 -0.8865 0.9636
1.5641 9.6243 -0.9361 0.9616
-0.3863 9.5868 -0.9211 0.9622
-1.1755 9.6811 -0.9363 0.9616
-1.5733 9.6811 -0.9416 0.9614
-2.1671 8.7923 -0.8694 0.9643
-3.6005 8.4507 -0.8819 0.9638
-3.9408 8.3050 -0.8825 0.9637
-4.2725 8.1406 -0.8826 0.9637
-4.6828 8.1109 -0.8992 0.9631
-17.0012 19.1905 -2.4614 0.9021
-17.7602 18.4904 -2.4614 0.9021
-18.4903 17.7602 -2.4614 0.9021
-19.1904 17.0013 -2.4614 0.9021
-19.8595 16.2147 -2.4614 0.9021
-21.0998 14.5641 -2.4614 0.9021
-22.2033 12.8191 -2.4614 0.9021
-22.7015 11.9147 -2.4614 0.9021
-23.1629 10.9909 -2.4614 0.9021
-23.8975 7.9782 -2.4188 0.9037
-24.5140 5.0046 -2.4020 0.9044
-25.2343 4.1010 -2.4544 0.9024
-25.8499 3.1387 -2.4999 0.9007
-25.9340 2.0936 -2.4979 0.9007
-26.0043 1.0479 -2.4986 0.9007
-21.0461 0.0000 -2.5000 0.9187
-21.0292 -0.8475 -2.5000 0.9187
-20.9779 -1.6935 -2.5000 0.9187
-20.6208 -4.2098 -2.5000 0.9187
-20.2152 -5.8554 -2.5000 0.9187
-17.3206 -11.9556 -2.5000 0.9187
-16.1674 -13.2003 -2.4793 0.9194
-14.2532 -13.6904 -2.3476 0.9235
-13.6904 -14.2532 -2.3476 0.9235
-12.4991 -15.3086 -2.3476 0.9235
-10.1375 -16.0313 -2.2531 0.9264
-9.1988 -17.5269 -2.3513 0.9234
-6.0784 -16.0275 -2.0362 0.9333
-5.3451 -16.0106 -2.0050 0.9343
-3.9383 -15.9782 -1.9548 0.9359
-3.2588 -15.9625 -1.9352 0.9365
-2.5917 -15.9472 -1.9192 0.9370
-1.9345 -15.9320 -1.9064 0.9374
-1.2850 -15.9171 -1.8969 0.9377
-0.6408 -15.9022 -1.8905 0.9379
0.0000 -15.8875 -1.8872 0.9380
0.6397 -15.8727 -1.8870 0.9380
1.9180 -15.7962 -1.8902 0.9379
2.5723 -15.8282 -1.9048 0.9374
4.5714 -15.7822 -1.9518 0.9360
5.9732 -15.7499 -2.0009 0.9344
9.8837 -17.1191 -2.3481 0.9235
10.5643 -16.7060 -2.3479 0.9235
11.2268 -16.2648 -2.3476 0.9235
12.4991 -15.3086 -2.3476 0.9235
13.1054 -14.7929 -2.3476 0.9235
14.2532 -13.6904 -2.3476 0.9235
14.9097 -13.2088 -2.3661 0.9229
16.8252 -12.6433 -2.5000 0.9187
17.7880 -11.2484 -2.5000 0.9187
19.3620 -8.2494 -2.5000 0.9187
19.9630 -6.6646 -2.5000 0.9187
20.2152 -5.8554 -2.5000 0.9187
20.7736 -3.3760 -2.5000 0.9187
21.0462 0.0000 -2.5000 0.9187
20.8927 2.5368 -2.5000 0.9187
18.9829 5.4985 -2.3476 0.9235
18.4612 7.0014 -2.3453 0.9235
16.0911 7.6353 -2.1157 0.9308
14.5742 8.4144 -1.9990 0.9345
13.2939 8.4065 -1.8684 0.9386
11.4544 8.6074 -1.7020 0.9439
10.3450 8.4465 -1.5864 0.9476
8.5515 9.6526 -1.5318 0.9494
6.7940 8.3211 -1.2760 0.9577
4.9330 8.5442 -1.1719 0.9610
5.0232 9.5708 -1.2839 0.9574
3.4859 8.1816 -1.0564 0.9648
3.0989 8.1711 -1.0381 0.9654
2.7517 8.2423 -1.0322 0.9656
0.9562 7.8755 -0.9424 0.9685
0.7738 9.5846 -1.1422 0.9620
0.3869 9.6021 -1.1415 0.9620
-0.3863 9.5868 -1.1397 0.9621
-0.6486 8.0337 -0.9574 0.9681
-1.1573 9.5315 -1.1405 0.9621
-1.5412 9.4830 -1.1412 0.9620
-3.3399 8.8067 -1.1188 0.9628
-11.0557 16.0170 -2.3118 0.9246
-13.1050 16.0508 -2.4614 0.9199
-13.7407 15.5101 -2.4614 0.9199
-14.3541 14.9442 -2.4614 0.9199
-14.9442 14.3541 -2.4614 0.9199
-15.5101 13.7407 -2.4614 0.9199
-17.5134 11.0748 -2.4614 0.9199
-18.3478 9.6297 -2.4614 0.9199
-21.0265 0.8474 -2.4997 0.9187
-17.6298 -0.7104 -2.5000 0.9312
-17.5155 -2.1268 -2.5000 0.9312
-17.4156 -2.8303 -2.5000 0.9312
-16.9475 -4.9089 -2.5000 0.9312
-16.7361 -5.5873 -2.5000 0.9312
-16.4975 -6.2567 -2.5000 0.9312
-15.9406 -7.5639 -2.5000 0.9312
-14.5208 -10.0230 -2.5000 0.9312
-14.1055 -10.5996 -2.5000 0.9312
-12.2225 -12.7250 -2.5000 0.9312
-9.9534 -13.2456 -2.3476 0.9353
-8.2843 -14.3488 -2.3476 0.9353
-7.1028 -14.9688 -2.3476 0.9353
-6.4943 -15.2427 -2.3476 0.9353
-5.8753 -15.4920 -2.3476 0.9353
-4.6102 -15.9162 -2.3479 0.9352
-3.3147 -16.2368 -2.3480 0.9352
-2.6583 -16.3575 -2.3481 0.9352
-1.9976 -16.4516 -2.3481 0.9352
-0.6673 -16.5592 -2.3482 0.9352
0.6673 -16.5589 -2.3481 0.9352
3.3145 -16.2354 -2.3478 0.9352
3.9654 -16.0879 -2.3477 0.9353
5.2468 -15.7159 -2.3476 0.9353
5.8753 -15.4918 -2.3476 0.9353
6.4943 -15.2427 -2.3476 0.9353
8.2843 -14.3488 -2.3476 0.9353
8.8553 -14.0035 -2.3476 0.9353
9.9534 -13.2456 -2.3476 0.9353
10.7787 -13.2015 -2.4148 0.9335
11.6819 -13.1861 -2.4961 0.9313
12.2225 -12.7250 -2.5000 0.9312
12.7251 -12.2225 -2.5000 0.9312
13.6673 -11.1589 -2.5000 0.9312
14.1055 -10.5996 -2.5000 0.9312
14.5208 -10.0230 -2.5000 0.9312
14.9127 -9.4302 -2.5000 0.9312
15.6231 -8.1996 -2.5000 0.9312
15.9406 -7.5639 -2.5000 0.9312
16.2322 -6.9159 -2.5000 0.9312
16.4975 -6.2567 -2.5000 0.9312
16.9475 -4.9089 -2.5000 0.9312
17.2875 -3.5293 -2.5000 0.9312
17.4156 -2.8303 -2.5000 0.9312
17.6441 0.0000 -2.5000 0.9312
16.7297 2.7188 -2.4015 0.9338
16.2337 3.3142 -2.3476 0.9353
16.0871 3.9651 -2.3476 0.9353
15.9144 4.6097 -2.3476 0.9353
15.7159 5.2467 -2.3476 0.9353
15.4918 5.8753 -2.3476 0.9353
15.2427 6.4943 -2.3476 0.9353
14.9404 7.0893 -2.3431 0.9354
14.5748 7.6494 -2.3322 0.9357
11.9167 8.2255 -2.0516 0.9432
8.3980 8.7432 -1.7177 0.9522
7.8940 8.9105 -1.6867 0.9530
5.1935 8.2128 -1.3768 0.9615
3.9570 8.3391 -1.3078 0.9634
2.7517 8.2423 -1.2312 0.9655
1.5641 9.6243 -1.3815 0.9614
0.7182 8.8969 -1.2647 0.9646
0.3593 8.9147 -1.2641 0.9646
-0.6345 7.8601 -1.1173 0.9686
-1.0746 8.8504 -1.2632 0.9646
-3.3913 8.9422 -1.3551 0.9621
-3.6005 8.4507 -1.3015 0.9636
-4.3430 8.2749 -1.3241 0.9629
-4.7775 8.2749 -1.3538 0.9621
-5.2753 8.3422 -1.3985 0.9609
-11.2973 11.7617 -2.3107 0.9362
-11.7552 11.2911 -2.3095 0.9363
-13.4562 10.9867 -2.4614 0.9322
-14.2967 9.8683 -2.4614 0.9322
-14.6825 9.2846 -2.4614 0.9322
-15.6967 7.4482 -2.4617 0.9322
-16.0024 6.8180 -2.4646 0.9321
-16.3351 6.1951 -2.4754 0.9319
-16.5998 5.5418 -2.4796 0.9317
-16.8350 4.8763 -2.4834 0.9316
-17.2784 3.5274 -2.4987 0.9312
-17.4091 2.8293 -2.4990 0.9312
-17.5867 1.4197 -2.5000 0.9312
-17.6298 0.7105 -2.5000 0.9312
-15.1631 -0.6111 -2.5000 0.9403
-15.0648 -1.8292 -2.5000 0.9403
-14.9789 -2.4343 -2.5000 0.9403
-14.8687 -3.0355 -2.5000 0.9403
-14.7344 -3.6317 -2.5000 0.9403
-13.4372 -7.0523 -2.5000 0.9403
-12.8261 -8.1107 -2.5000 0.9403
-11.7550 -9.5976 -2.5000 0.9403
-10.9446 -10.5124 -2.5000 0.9403
-9.5976 -11.7549 -2.5000 0.9403
-8.6206 -12.4891 -2.5000 0.9403
-8.1107 -12.8261 -2.5000 0.9403
-5.6312 -13.2169 -2.3667 0.9434
-3.9647 -13.6877 -2.3476 0.9439
-3.4103 -13.8362 -2.3476 0.9439
-2.2859 -14.0658 -2.3476 0.9439
-1.7177 -14.1464 -2.3476 0.9439
0.0000 -14.2503 -2.3476 0.9439
1.1467 -14.2041 -2.3476 0.9439
2.2859 -14.0658 -2.3476 0.9439
2.8504 -13.9623 -2.3476 0.9439
3.4103 -13.8362 -2.3476 0.9439
3.9647 -13.6877 -2.3476 0.9439
4.5126 -13.5169 -2.3476 0.9439
5.0532 -13.3243 -2.3476 0.9439
5.6294 -13.2126 -2.3660 0.9434
7.5876 -13.1423 -2.5000 0.9403
8.1108 -12.8261 -2.5000 0.9403
9.5976 -11.7550 -2.5000 0.9403
10.0632 -11.3589 -2.5000 0.9403
10.9446 -10.5124 -2.5000 0.9403
12.1319 -9.1165 -2.5000 0.9403
12.4891 -8.6206 -2.5000 0.9403
12.8261 -8.1107 -2.5000 0.9403
13.9611 -5.9482 -2.5000 0.9403
14.3944 -4.8055 -2.5000 0.9403
14.8687 -3.0355 -2.5000 0.9403
14.9789 -2.4343 -2.5000 0.9403
15.1262 -1.2211 -2.5000 0.9403
15.1754 0.0000 -2.5000 0.9403
15.1631 0.6110 -2.5000 0.9403
15.1262 1.2211 -2.5000 0.9403
13.8362 3.4103 -2.3476 0.9439
13.5169 4.5126 -2.3476 0.9439
13.3243 5.0532 -2.3476 0.9439
12.8745 6.1090 -2.3476 0.9439
12.6180 6.6225 -2.3476 0.9439
11.9849 7.5788 -2.3360 0.9441
11.6753 8.0589 -2.3371 0.9441
11.3463 8.5262 -2.3381 0.9441
10.3252 8.4302 -2.1959 0.9474
8.2325 7.9075 -1.8805 0.9548
8.3980 8.7432 -1.9972 0.9520
6.8150 8.3468 -1.7752 0.9573
5.1935 8.2128 -1.6008 0.9614
4.9964 8.6541 -1.6462 0.9603
3.9570 8.3391 -1.5206 0.9633
3.1382 8.2749 -1.4579 0.9648
1.8488 9.0558 -1.5226 0.9632
0.9336 7.6885 -1.2759 0.9691
0.6926 8.5798 -1.4180 0.9657
0.3458 8.5812 -1.4148 0.9658
0.0000 8.5826 -1.4139 0.9658
-0.6210 7.6929 -1.2714 0.9692
-1.0423 8.5837 -1.4245 0.9656
-2.1146 8.5793 -1.4556 0.9648
-2.2157 7.6495 -1.3120 0.9682
-3.1229 9.3541 -1.6246 0.9608
-3.3913 8.9422 -1.5755 0.9620
-4.7775 8.2749 -1.5741 0.9620
-9.3158 10.5154 -2.3143 0.9446
-9.7317 10.1318 -2.3143 0.9446
-10.1287 9.7288 -2.3136 0.9447
-10.5075 9.3088 -2.3126 0.9447
-11.2129 8.4259 -2.3106 0.9447
-11.5385 7.9644 -2.3097 0.9447
-12.9394 7.4706 -2.4614 0.9412
-13.2354 6.9465 -2.4625 0.9412
-14.0988 5.3470 -2.4840 0.9407
-14.7295 3.6305 -2.4991 0.9404
-14.8653 3.0348 -2.4994 0.9403
-15.1631 0.6111 -2.5000 0.9403
-13.2036 -1.6032 -2.5000 0.9473
-13.1283 -2.1336 -2.5000 0.9473
-13.0318 -2.6605 -2.5000 0.9473
-12.7754 -3.7004 -2.5000 0.9473
-12.6161 -4.2118 -2.5000 0.9473
-12.4362 -4.7164 -2.5000 0.9473
-10.6330 -7.9902 -2.5000 0.9473
-9.5924 -9.2136 -2.5000 0.9473
-8.4119 -10.3027 -2.5000 0.9473
-7.9902 -10.6330 -2.5000 0.9473
-7.1087 -11.2415 -2.5000 0.9473
-6.6503 -11.5186 -2.5000 0.9473
-6.1811 -11.7771 -2.5000 0.9473
-5.2125 -12.2362 -2.5000 0.9473
-4.7164 -12.4362 -2.5000 0.9473
-3.7004 -12.7754 -2.5000 0.9473
-3.1830 -12.9141 -2.5000 0.9473
-1.6017 -13.1911 -2.4976 0.9474
-1.0650 -13.1927 -2.4878 0.9476
-0.5317 -13.1936 -2.4819 0.9477
0.0000 -13.1937 -2.4799 0.9477
2.1335 -13.1283 -2.5000 0.9473
3.7005 -12.7754 -2.5000 0.9473
5.2152 -12.2362 -2.5000 0.9473
5.7019 -12.0164 -2.5000 0.9473
6.6503 -11.5186 -2.5000 0.9473
7.5556 -10.9461 -2.5000 0.9473
7.9902 -10.6330 -2.5000 0.9473
9.5924 -9.2136 -2.5000 0.9473
10.3027 -8.4119 -2.5000 0.9473
10.6330 -7.9902 -2.5000 0.9473
10.9462 -7.5556 -2.5000 0.9473
11.5186 -6.6503 -2.5000 0.9473
11.7771 -6.1811 -2.5000 0.9473
12.2362 -5.2134 -2.5000 0.9473
12.7754 -3.7004 -2.5000 0.9473
12.9141 -3.1830 -2.5000 0.9473
13.2574 -1.0702 -2.5000 0.9473
13.3006 0.0000 -2.5000 0.9473
13.0318 2.6605 -2.5000 0.9473
11.9966 3.4749 -2.3476 0.9504
11.8470 3.9551 -2.3476 0.9504
11.2839 5.3543 -2.3476 0.9504
10.8165 6.2449 -2.3476 0.9504
10.5562 6.6754 -2.3476 0.9504
10.2496 7.0748 -2.3409 0.9506
9.6189 7.8536 -2.3341 0.9507
9.2980 8.2373 -2.3348 0.9507
7.1852 8.1103 -2.0366 0.9569
6.1715 8.2128 -1.9310 0.9590
5.6689 8.2128 -1.8757 0.9602
5.1935 8.2128 -1.8264 0.9612
3.9570 8.3391 -1.7349 0.9631
2.4342 8.4040 -1.6445 0.9650
0.6778 8.3959 -1.5832 0.9663
0.0000 8.3987 -1.5786 0.9664
-0.6080 7.5314 -1.4202 0.9697
-1.3649 8.3984 -1.5993 0.9660
-2.0693 8.3956 -1.6253 0.9654
-2.1678 7.4841 -1.4645 0.9688
-3.1229 9.3541 -1.8536 0.9607
-3.6005 8.4507 -1.7266 0.9633
-4.7775 8.2749 -1.7960 0.9619
-5.2753 8.3422 -1.8552 0.9606
-6.9982 10.1386 -2.3156 0.9511
-7.3989 9.8462 -2.3150 0.9511
-8.5294 8.8800 -2.3143 0.9511
-9.5376 7.7872 -2.3143 0.9511
-10.4182 6.5881 -2.3169 0.9511
-10.7094 6.1831 -2.3244 0.9509
-11.2271 5.3273 -2.3358 0.9507
-12.1666 5.1837 -2.4857 0.9476
-12.3933 4.7001 -2.4913 0.9475
-12.5974 4.2056 -2.4963 0.9474
-12.7714 3.6993 -2.4992 0.9473
-13.2574 1.0703 -2.5000 0.9473
-11.8174 -0.4762 -2.5000 0.9528
-11.7886 -0.9517 -2.5000 0.9528
-11.7407 -1.4256 -2.5000 0.9528
-11.5879 -2.3657 -2.5000 0.9528
-11.0584 -4.1939 -2.5000 0.9528
-10.8806 -4.6358 -2.5000 0.9528
-10.4723 -5.4963 -2.5000 0.9528
-10.2425 -5.9135 -2.5000 0.9528
-9.7334 -6.7185 -2.5000 0.9528
-9.1612 -7.4799 -2.5000 0.9528
-8.8526 -7.8427 -2.5000 0.9528
-7.1050 -9.4550 -2.5000 0.9528
-6.7185 -9.7334 -2.5000 0.9528
-6.3211 -9.9960 -2.5000 0.9528
-5.0701 -10.6851 -2.5000 0.9528
-4.6358 -10.8806 -2.5000 0.9528
-2.8304 -11.4833 -2.5000 0.9528
-0.9517 -11.7886 -2.5000 0.9528
-0.4762 -11.8174 -2.5000 0.9528
0.4762 -11.8174 -2.5000 0.9528
1.8972 -11.6738 -2.5000 0.9528
2.3657 -11.5879 -2.5000 0.9528
2.8304 -11.4833 -2.5000 0.9528
3.2905 -11.3600 -2.5000 0.9528
3.7452 -11.2183 -2.5000 0.9528
4.1939 -11.0584 -2.5000 0.9528
4.6358 -10.8806 -2.5000 0.9528
5.0700 -10.6851 -2.5000 0.9528
6.7183 -9.7334 -2.5000 0.9528
7.1050 -9.4550 -2.5000 0.9528
8.5296 -8.1928 -2.5000 0.9528
9.4550 -7.1050 -2.5000 0.9528
10.2425 -5.9135 -2.5000 0.9528
10.4723 -5.4963 -2.5000 0.9528
10.6851 -5.0701 -2.5000 0.9528
11.2183 -3.7452 -2.5000 0.9528
11.3600 -3.2905 -2.5000 0.9528
11.5880 -2.3657 -2.5000 0.9528
11.6738 -1.8972 -2.5000 0.9528
11.7408 -1.4256 -2.5000 0.9528
11.7886 -0.9517 -2.5000 0.9528
11.8174 -0.4762 -2.5000 0.9528
11.5880 2.3657 -2.5000 0.9528
10.6675 3.0899 -2.3476 0.9556
10.2173 4.3532 -2.3476 0.9556
9.1401 6.3089 -2.3476 0.9556
8.8786 6.6719 -2.3476 0.9556
7.6426 7.9568 -2.3321 0.9559
7.2282 8.1590 -2.3041 0.9564
6.6318 8.8253 -2.3335 0.9559
5.2026 8.2272 -2.0576 0.9610
5.0232 9.5708 -2.2848 0.9568
3.9570 8.3391 -1.9511 0.9630
3.5256 8.2749 -1.9013 0.9639
3.1281 8.2481 -1.8647 0.9646
2.7517 8.2423 -1.8368 0.9651
2.1724 8.8138 -1.9188 0.9636
0.6623 8.2047 -1.7400 0.9669
0.0000 8.2074 -1.7349 0.9670
-0.3308 8.2087 -1.7366 0.9670
-0.5770 7.1480 -1.5159 0.9711
-2.0222 8.2045 -1.7862 0.9660
-2.3444 7.0225 -1.5649 0.9702
-3.3913 8.9422 -2.0216 0.9617
-4.3430 8.2749 -1.9754 0.9625
-6.2255 9.0193 -2.3166 0.9562
-6.5822 8.7594 -2.3161 0.9562
-6.9281 8.4854 -2.3156 0.9562
-7.2627 8.1979 -2.3151 0.9562
-8.5232 6.9589 -2.3259 0.9560
-8.8254 6.6319 -2.3335 0.9559
-9.3704 5.9255 -2.3435 0.9557
-9.6095 5.5480 -2.3455 0.9556
-9.8280 5.1581 -2.3462 0.9556
-10.0322 4.7603 -2.3472 0.9556
-10.2168 4.3530 -2.3475 0.9556
-11.0510 4.1911 -2.4983 0.9528
-11.2169 3.7448 -2.4997 0.9528
-11.3597 3.2904 -2.4999 0.9528
-11.4833 2.8304 -2.5000 0.9528
-11.5879 2.3657 -2.5000 0.9528
-11.7407 1.4256 -2.5000 0.9528
-10.6372 0.0000 -2.5000 0.9572
-10.6286 -0.4283 -2.5000 0.9572
-10.6027 -0.8559 -2.5000 0.9572
-10.5596 -1.2822 -2.5000 0.9572
-10.4994 -1.7063 -2.5000 0.9572
-10.3281 -2.5457 -2.5000 0.9572
-10.2172 -2.9594 -2.5000 0.9572
-10.0898 -3.3685 -2.5000 0.9572
-9.7860 -4.1694 -2.5000 0.9572
-9.6102 -4.5601 -2.5000 0.9572
-9.4188 -4.9433 -2.5000 0.9572
-9.2121 -5.3186 -2.5000 0.9572
-8.5038 -6.3902 -2.5000 0.9572
-8.2396 -6.7274 -2.5000 0.9572
-7.9621 -7.0538 -2.5000 0.9572
-7.0538 -7.9620 -2.5000 0.9572
-6.7274 -8.2396 -2.5000 0.9572
-6.3902 -8.5038 -2.5000 0.9572
-6.0426 -8.7542 -2.5000 0.9572
-5.6852 -8.9904 -2.5000 0.9572
-4.9433 -9.4188 -2.5000 0.9572
-4.5601 -9.6102 -2.5000 0.9572
-4.1694 -9.7860 -2.5000 0.9572
-3.3685 -10.0898 -2.5000 0.9572
-2.9595 -10.2172 -2.5000 0.9572
-2.5457 -10.3281 -2.5000 0.9572
-2.1277 -10.4222 -2.5000 0.9572
-0.8559 -10.6027 -2.5000 0.9572
-0.0000 -10.6372 -2.5000 0.9572
0.8559 -10.6027 -2.5000 0.9572
1.2821 -10.5596 -2.5000 0.9572
2.1277 -10.4222 -2.5000 0.9572
2.5457 -10.3281 -2.5000 0.9572
2.9594 -10.2172 -2.5000 0.9572
4.1693 -9.7860 -2.5000 0.9572
4.5600 -9.6102 -2.5000 0.9572
4.9433 -9.4188 -2.5000 0.9572
5.3186 -9.2121 -2.5000 0.9572
6.0426 -8.7542 -2.5000 0.9572
6.3902 -8.5038 -2.5000 0.9572
6.7274 -8.2396 -2.5000 0.9572
7.3686 -7.6716 -2.5000 0.9572
7.6716 -7.3686 -2.5000 0.9572
8.5038 -6.3902 -2.5000 0.9572
9.6102 -4.5601 -2.5000 0.9572
9.9460 -3.7720 -2.5000 0.9572
10.2172 -2.9595 -2.5000 0.9572
10.4222 -2.1277 -2.5000 0.9572
10.6027 -0.8559 -2.5000 0.9572
10.4222 2.1277 -2.5000 0.9572
10.3281 2.5457 -2.5000 0.9572
9.5944 2.7791 -2.3476 0.9598
9.3396 3.5421 -2.3476 0.9598
9.1895 3.9153 -2.3476 0.9598
8.4424 5.3386 -2.3476 0.9598
7.7373 6.3173 -2.3476 0.9598
6.8690 7.1513 -2.3304 0.9601
6.5742 7.4207 -2.3300 0.9601
5.9558 7.9257 -2.3300 0.9601
5.6326 8.1602 -2.3303 0.9601
4.6092 8.7821 -2.3310 0.9601
3.9570 8.3391 -2.1693 0.9628
3.1382 8.2749 -2.0800 0.9643
1.8470 9.0472 -2.1702 0.9628
1.5642 9.6247 -2.2917 0.9607
0.8579 7.0651 -1.6727 0.9712
-0.3233 8.0227 -1.8870 0.9675
-0.5703 7.0642 -1.6656 0.9713
-0.8579 7.0650 -1.6726 0.9712
-1.3036 8.0214 -1.9099 0.9672
-3.6005 8.4507 -2.1589 0.9630
-4.2725 8.1406 -2.1607 0.9629
-5.2712 8.3358 -2.3179 0.9603
-5.6006 8.1138 -2.3171 0.9603
-6.5344 7.3758 -2.3159 0.9603
-7.2039 6.9195 -2.3476 0.9598
-7.7373 6.3173 -2.3476 0.9598
-8.2206 5.6743 -2.3476 0.9598
-8.6505 4.9944 -2.3476 0.9598
-9.0243 4.2821 -2.3476 0.9598
-9.1894 3.9152 -2.3476 0.9598
-10.0898 3.3685 -2.5000 0.9572
-10.2172 2.9595 -2.5000 0.9572
-10.3281 2.5457 -2.5000 0.9572
-10.4222 2.1277 -2.5000 0.9572
-10.4994 1.7063 -2.5000 0.9572
-10.5596 1.2822 -2.5000 0.9572
-10.6285 0.4283 -2.5000 0.9572
-9.6555 0.0000 -2.5000 0.9609
-9.6477 -0.3888 -2.5000 0.9609
-9.5851 -1.1638 -2.5000 0.9609
-9.4604 -1.9314 -2.5000 0.9609
-9.1586 -3.0576 -2.5000 0.9609
-9.0281 -3.4239 -2.5000 0.9609
-8.8829 -3.7846 -2.5000 0.9609
-8.5495 -4.4871 -2.5000 0.9609
-8.3619 -4.8278 -2.5000 0.9609
-8.1608 -5.1605 -2.5000 0.9609
-7.9463 -5.4850 -2.5000 0.9609
-7.2272 -6.4028 -2.5000 0.9609
-6.9636 -6.6886 -2.5000 0.9609
-6.6886 -6.9636 -2.5000 0.9609
-5.4850 -7.9463 -2.5000 0.9609
-4.8278 -8.3619 -2.5000 0.9609
-4.4871 -8.5495 -2.5000 0.9609
-4.1392 -8.7233 -2.5000 0.9609
-3.7846 -8.8829 -2.5000 0.9609
-3.4239 -9.0280 -2.5000 0.9609
-1.9314 -9.4604 -2.5000 0.9609
-1.5488 -9.5305 -2.5000 0.9609
-0.3888 -9.6477 -2.5000 0.9609
0.3888 -9.6477 -2.5000 0.9609
3.0576 -9.1586 -2.5000 0.9609
3.7846 -8.8829 -2.5000 0.9609
4.4872 -8.5495 -2.5000 0.9609
4.8278 -8.3619 -2.5000 0.9609
5.4850 -7.9463 -2.5000 0.9609
5.8005 -7.7190 -2.5000 0.9609
6.4028 -7.2273 -2.5000 0.9609
6.9636 -6.6886 -2.5000 0.9609
7.2272 -6.4028 -2.5000 0.9609
7.7190 -5.8005 -2.5000 0.9609
8.1607 -5.1605 -2.5000 0.9609
8.3619 -4.8278 -2.5000 0.9609
8.8829 -3.7846 -2.5000 0.9609
9.0281 -3.4239 -2.5000 0.9609
9.2743 -2.6863 -2.5000 0.9609
9.4604 -1.9313 -2.5000 0.9609
9.6477 -0.3888 -2.5000 0.9609
9.6555 0.0000 -2.5000 0.9609
9.6242 0.7769 -2.5000 0.9609
9.5851 1.1639 -2.5000 0.9609
9.5305 1.5489 -2.5000 0.9609
9.3750 2.3107 -2.5000 0.9609
8.6004 2.8712 -2.3476 0.9632
8.4777 3.2152 -2.3476 0.9632
8.1915 3.8869 -2.3476 0.9632
8.0283 4.2136 -2.3476 0.9632
7.8522 4.5335 -2.3476 0.9632
6.5391 6.2809 -2.3476 0.9632
6.2809 6.5391 -2.3476 0.9632
6.0125 6.7867 -2.3476 0.9632
5.7252 7.0121 -2.3439 0.9633
4.4955 7.7863 -2.3279 0.9635
4.1785 7.9616 -2.3281 0.9635
3.4859 8.1816 -2.3026 0.9639
3.0801 8.1216 -2.2490 0.9647
2.7517 8.2423 -2.2499 0.9647
2.4342 8.4040 -2.2654 0.9645
2.1380 8.6742 -2.3131 0.9638
1.7983 8.8088 -2.3278 0.9635
1.4420 8.8729 -2.3275 0.9635
0.8588 7.0729 -1.8448 0.9710
0.3159 7.8391 -2.0313 0.9681
-0.3160 7.8417 -2.0320 0.9681
-0.5709 7.0720 -1.8370 0.9711
-1.6004 7.8393 -2.0716 0.9675
-3.8397 8.0921 -2.3191 0.9637
-4.1610 7.9282 -2.3183 0.9637
-5.0846 7.3662 -2.3175 0.9637
-6.0125 6.7867 -2.3476 0.9632
-7.0233 5.7343 -2.3476 0.9632
-7.8522 4.5335 -2.3476 0.9632
-8.1915 3.8869 -2.3476 0.9632
-8.3414 3.5539 -2.3476 0.9632
-8.4777 3.2152 -2.3476 0.9632
-9.2743 2.6863 -2.5000 0.9609
-9.4604 1.9314 -2.5000 0.9609
-9.5305 1.5488 -2.5000 0.9609
-9.6477 0.3888 -2.5000 0.9609
-8.8310 0.0000 -2.5000 0.9640
-8.8238 -0.3556 -2.5000 0.9640
-8.8023 -0.7106 -2.5000 0.9640
-8.7666 -1.0645 -2.5000 0.9640
-8.7166 -1.4166 -2.5000 0.9640
-8.2571 -3.1315 -2.5000 0.9640
-8.1243 -3.4614 -2.5000 0.9640
-7.6479 -4.4155 -2.5000 0.9640
-7.4638 -4.7199 -2.5000 0.9640
-7.0598 -5.3051 -2.5000 0.9640
-6.8405 -5.5851 -2.5000 0.9640
-6.3689 -6.1174 -2.5000 0.9640
-6.1174 -6.3689 -2.5000 0.9640
-5.5851 -6.8405 -2.5000 0.9640
-5.3051 -7.0598 -2.5000 0.9640
-5.0166 -7.2677 -2.5000 0.9640
-4.4155 -7.6478 -2.5000 0.9640
-4.1039 -7.8194 -2.5000 0.9640
-3.7858 -7.9783 -2.5000 0.9640
-3.4614 -8.1243 -2.5000 0.9640
-2.7965 -8.3765 -2.5000 0.9640
-2.1134 -8.5743 -2.5000 0.9640
-1.4166 -8.7166 -2.5000 0.9640
-1.0645 -8.7666 -2.5000 0.9640
-0.7106 -8.8023 -2.5000 0.9640
-0.3556 -8.8238 -2.5000 0.9640
0.0000 -8.8310 -2.5000 0.9640
0.7106 -8.8023 -2.5000 0.9640
1.4166 -8.7166 -2.5000 0.9640
1.7664 -8.6525 -2.5000 0.9640
2.1134 -8.5744 -2.5000 0.9640
3.1315 -8.2571 -2.5000 0.9640
3.4615 -8.1243 -2.5000 0.9640
3.7858 -7.9783 -2.5000 0.9640
4.1040 -7.8194 -2.5000 0.9640
5.0166 -7.2677 -2.5000 0.9640
5.3051 -7.0599 -2.5000 0.9640
5.8560 -6.6101 -2.5000 0.9640
6.3689 -6.1174 -2.5000 0.9640
6.8405 -5.5851 -2.5000 0.9640
7.0599 -5.3051 -2.5000 0.9640
7.2678 -5.0166 -2.5000 0.9640
7.4639 -4.7198 -2.5000 0.9640
7.6479 -4.4155 -2.5000 0.9640
7.8195 -4.1040 -2.5000 0.9640
7.9783 -3.7858 -2.5000 0.9640
8.2571 -3.1315 -2.5000 0.9640
8.7167 -1.4166 -2.5000 0.9640
8.8024 -0.7106 -2.5000 0.9640
8.8310 0.0000 -2.5000 0.9640
8.7666 1.0645 -2.5000 0.9640
8.6525 1.7664 -2.5000 0.9640
8.4823 2.4569 -2.5000 0.9640
7.6291 3.2504 -2.3476 0.9661
6.2071 5.4990 -2.3476 0.9661
5.9807 5.7445 -2.3476 0.9661
5.4990 6.2071 -2.3476 0.9661
4.1237 7.1424 -2.3347 0.9663
3.8201 7.2787 -2.3271 0.9664
3.5234 7.4254 -2.3267 0.9664
3.2210 7.5600 -2.3263 0.9664
2.9136 7.6824 -2.3260 0.9664
2.6016 7.7926 -2.3257 0.9664
2.2856 7.8908 -2.3256 0.9664
1.9659 7.9760 -2.3255 0.9664
1.3175 8.1070 -2.3252 0.9664
0.8598 7.0808 -2.0193 0.9708
0.6177 7.6518 -2.1732 0.9686
0.0000 7.6543 -2.1669 0.9687
-0.5715 7.0799 -2.0108 0.9709
-2.1655 7.4761 -2.2034 0.9682
-2.3651 7.0842 -2.1143 0.9694
-3.2115 7.5376 -2.3194 0.9665
-3.5119 7.4013 -2.3192 0.9665
-3.8067 7.2530 -2.3189 0.9665
-4.1236 7.1423 -2.3347 0.9663
-4.4323 7.0087 -2.3475 0.9661
-4.7108 6.8247 -2.3476 0.9661
-4.9817 6.6295 -2.3476 0.9661
-5.4990 6.2071 -2.3476 0.9661
-5.7445 5.9807 -2.3476 0.9661
-5.9807 5.7445 -2.3476 0.9661
-6.4235 5.2446 -2.3476 0.9661
-6.6295 4.9817 -2.3476 0.9661
-6.8247 4.7108 -2.3476 0.9661
-7.1816 4.1463 -2.3476 0.9661
-7.3428 3.8538 -2.3476 0.9661
-7.4920 3.5550 -2.3476 0.9661
-7.6290 3.2504 -2.3476 0.9661
-8.5743 2.1134 -2.5000 0.9640
-8.7666 1.0644 -2.5000 0.9640
-8.8238 0.3556 -2.5000 0.9640
-8.1214 -0.3273 -2.5000 0.9666
-8.1016 -0.6540 -2.5000 0.9666
-8.0227 -1.3038 -2.5000 0.9666
-7.8918 -1.9452 -2.5000 0.9666
-7.5998 -2.8822 -2.5000 0.9666
-7.4775 -3.1859 -2.5000 0.9666
-7.1970 -3.7772 -2.5000 0.9666
-7.0390 -4.0640 -2.5000 0.9666
-6.8697 -4.3441 -2.5000 0.9666
-6.6892 -4.6172 -2.5000 0.9666
-6.4978 -4.8828 -2.5000 0.9666
-6.2959 -5.1405 -2.5000 0.9666
-6.0839 -5.3898 -2.5000 0.9666
-5.8619 -5.6304 -2.5000 0.9666
-5.3898 -6.0838 -2.5000 0.9666
-4.8828 -6.4978 -2.5000 0.9666
-4.6172 -6.6892 -2.5000 0.9666
-4.3441 -6.8697 -2.5000 0.9666
-4.0640 -7.0390 -2.5000 0.9666
-2.8822 -7.5998 -2.5000 0.9666
-1.9452 -7.8918 -2.5000 0.9666
-0.9797 -8.0687 -2.5000 0.9666
0.0000 -8.1280 -2.5000 0.9666
0.6540 -8.1016 -2.5000 0.9666
0.9797 -8.0687 -2.5000 0.9666
1.3038 -8.0227 -2.5000 0.9666
1.9452 -7.8918 -2.5000 0.9666
2.5739 -7.7097 -2.5000 0.9666
2.8822 -7.5998 -2.5000 0.9666
3.1859 -7.4775 -2.5000 0.9666
4.0640 -7.0390 -2.5000 0.9666
4.6172 -6.6892 -2.5000 0.9666
4.8828 -6.4978 -2.5000 0.9666
5.1405 -6.2959 -2.5000 0.9666
5.3899 -6.0838 -2.5000 0.9666
5.6304 -5.8619 -2.5000 0.9666
6.6892 -4.6172 -2.5000 0.9666
7.4776 -3.1859 -2.5000 0.9666
7.8071 -2.2613 -2.5000 0.9666
7.8918 -1.9451 -2.5000 0.9666
8.0227 -1.3038 -2.5000 0.9666
8.1016 -0.6540 -2.5000 0.9666
8.1016 0.6540 -2.5000 0.9666
8.0687 0.9797 -2.5000 0.9666
7.8918 1.9452 -2.5000 0.9666
7.7097 2.5739 -2.5000 0.9666
7.1802 2.7231 -2.3619 0.9684
7.0217 2.9917 -2.3476 0.9686
6.8956 3.2720 -2.3476 0.9686
6.7582 3.5470 -2.3476 0.9686
6.2814 4.3357 -2.3476 0.9686
6.1017 4.5851 -2.3476 0.9686
5.7130 5.0613 -2.3476 0.9686
5.5046 5.2872 -2.3476 0.9686
5.2872 5.5046 -2.3476 0.9686
4.5852 6.1017 -2.3476 0.9686
4.3358 6.2814 -2.3476 0.9686
3.5470 6.7582 -2.3476 0.9686
3.2720 6.8956 -2.3476 0.9686
2.9883 7.0138 -2.3449 0.9686
2.1033 7.2613 -2.3252 0.9689
0.8608 7.0889 -2.1964 0.9706
0.6040 7.4813 -2.3086 0.9691
0.0000 7.4838 -2.3018 0.9692
-0.3016 7.4850 -2.3041 0.9691
-1.2108 7.4503 -2.3216 0.9689
-1.5096 7.3945 -2.3213 0.9689
-1.8059 7.3268 -2.3210 0.9689
-2.3679 7.0927 -2.2999 0.9692
-2.6952 7.1068 -2.3378 0.9687
-2.9910 7.0201 -2.3471 0.9686
-3.5470 6.7582 -2.3476 0.9686
-4.3357 6.2814 -2.3476 0.9686
-4.5851 6.1017 -2.3476 0.9686
-4.8271 5.9122 -2.3476 0.9686
-5.0613 5.7130 -2.3476 0.9686
-5.5046 5.2872 -2.3476 0.9686
-5.7130 5.0613 -2.3476 0.9686
-6.2814 4.3358 -2.3476 0.9686
-6.7582 3.5470 -2.3476 0.9686
-7.1720 2.7200 -2.3593 0.9684
-7.7096 2.5739 -2.5000 0.9666
-7.8070 2.2613 -2.5000 0.9666
-7.9637 1.6258 -2.5000 0.9666
-8.0687 0.9797 -2.5000 0.9666
-8.1214 0.3273 -2.5000 0.9666
-7.5148 -0.3028 -2.5000 0.9688
-7.4965 -0.6052 -2.5000 0.9688
-7.3023 -1.7999 -2.5000 0.9688
-7.2239 -2.0925 -2.5000 0.9688
-7.1338 -2.3816 -2.5000 0.9688
-7.0321 -2.6669 -2.5000 0.9688
-6.9190 -2.9479 -2.5000 0.9688
-6.6594 -3.4951 -2.5000 0.9688
-6.5133 -3.7604 -2.5000 0.9688
-6.3566 -4.0196 -2.5000 0.9688
-6.0125 -4.5181 -2.5000 0.9688
-5.8257 -4.7565 -2.5000 0.9688
-5.6295 -4.9873 -2.5000 0.9688
-5.4240 -5.2099 -2.5000 0.9688
-4.7565 -5.8257 -2.5000 0.9688
-4.5181 -6.0125 -2.5000 0.9688
-3.4951 -6.6594 -2.5000 0.9688
-2.9479 -6.9191 -2.5000 0.9688
-2.3816 -7.1338 -2.5000 0.9688
-1.7999 -7.3023 -2.5000 0.9688
-1.5044 -7.3689 -2.5000 0.9688
-1.2064 -7.4235 -2.5000 0.9688
-0.6052 -7.4965 -2.5000 0.9688
0.3029 -7.5148 -2.5000 0.9688
0.6052 -7.4965 -2.5000 0.9688
1.2064 -7.4235 -2.5000 0.9688
1.7999 -7.3023 -2.5000 0.9688
2.9479 -6.9191 -2.5000 0.9688
3.4951 -6.6594 -2.5000 0.9688
3.7604 -6.5133 -2.5000 0.9688
4.5181 -6.0125 -2.5000 0.9688
4.7565 -5.8257 -2.5000 0.9688
4.9873 -5.6295 -2.5000 0.9688
5.6295 -4.9873 -2.5000 0.9688
5.8257 -4.7565 -2.5000 0.9688
6.0125 -4.5181 -2.5000 0.9688
6.1896 -4.2724 -2.5000 0.9688
7.0321 -2.6669 -2.5000 0.9688
7.1338 -2.3816 -2.5000 0.9688
7.3024 -1.7999 -2.5000 0.9688
7.4660 -0.9065 -2.5000 0.9688
7.4965 -0.6052 -2.5000 0.9688
7.5148 -0.3028 -2.5000 0.9688
7.5148 0.3028 -2.5000 0.9688
7.4965 0.6052 -2.5000 0.9688
7.4235 1.2064 -2.5000 0.9688
7.3689 1.5044 -2.5000 0.9688
7.1338 2.3816 -2.5000 0.9688
6.3805 3.0276 -2.3476 0.9707
6.2535 3.2821 -2.3476 0.9707
6.1162 3.5312 -2.3476 0.9707
5.9691 3.7746 -2.3476 0.9707
5.6460 4.2427 -2.3476 0.9707
5.2863 4.6833 -2.3476 0.9707
5.0934 4.8923 -2.3476 0.9707
4.8923 5.0934 -2.3476 0.9707
4.4666 5.4706 -2.3476 0.9707
4.2427 5.6460 -2.3476 0.9707
3.7746 5.9691 -2.3476 0.9707
3.2821 6.2535 -2.3476 0.9707
2.2364 6.6990 -2.3476 0.9707
1.4127 6.9197 -2.3476 0.9707
1.1326 6.9708 -2.3475 0.9707
0.8509 7.0079 -2.3466 0.9707
0.5675 7.0299 -2.3444 0.9707
0.0000 7.0479 -2.3428 0.9707
-1.4127 6.9197 -2.3476 0.9707
-1.6902 6.8572 -2.3476 0.9707
-2.2364 6.6990 -2.3476 0.9707
-2.7682 6.4973 -2.3476 0.9707
-3.2821 6.2534 -2.3476 0.9707
-3.5312 6.1162 -2.3476 0.9707
-4.4666 5.4706 -2.3476 0.9707
-4.6832 5.2863 -2.3476 0.9707
-5.0934 4.8923 -2.3476 0.9707
-5.6460 4.2427 -2.3476 0.9707
-6.1162 3.5312 -2.3476 0.9707
-7.4965 0.6052 -2.5000 0.9688
-7.5148 0.3029 -2.5000 0.9688
-6.9909 0.0000 -2.5000 0.9707
-6.9852 -0.2815 -2.5000 0.9707
-6.9003 -1.1214 -2.5000 0.9707
-6.7877 -1.6730 -2.5000 0.9707
-6.6311 -2.2138 -2.5000 0.9707
-6.1901 -3.2488 -2.5000 0.9707
-6.0543 -3.4954 -2.5000 0.9707
-5.9086 -3.7364 -2.5000 0.9707
-5.7534 -3.9713 -2.5000 0.9707
-5.5888 -4.1997 -2.5000 0.9707
-5.2327 -4.6358 -2.5000 0.9707
-4.8427 -5.0418 -2.5000 0.9707
-4.6358 -5.2327 -2.5000 0.9707
-4.4213 -5.4152 -2.5000 0.9707
-4.1997 -5.5888 -2.5000 0.9707
-3.7364 -5.9086 -2.5000 0.9707
-3.2488 -6.1901 -2.5000 0.9707
-2.9969 -6.3159 -2.5000 0.9707
-1.9450 -6.7148 -2.5000 0.9707
-1.3984 -6.8496 -2.5000 0.9707
-1.1214 -6.9003 -2.5000 0.9707
-0.2815 -6.9852 -2.5000 0.9707
0.2815 -6.9852 -2.5000 0.9707
0.8427 -6.9399 -2.5000 0.9707
1.1214 -6.9003 -2.5000 0.9707
1.3984 -6.8496 -2.5000 0.9707
1.9450 -6.7149 -2.5000 0.9707
2.2138 -6.6311 -2.5000 0.9707
2.4790 -6.5366 -2.5000 0.9707
2.7402 -6.4314 -2.5000 0.9707
2.9969 -6.3159 -2.5000 0.9707
3.2488 -6.1901 -2.5000 0.9707
3.4954 -6.0543 -2.5000 0.9707
3.9713 -5.7534 -2.5000 0.9707
4.1997 -5.5888 -2.5000 0.9707
4.4213 -5.4151 -2.5000 0.9707
4.6358 -5.2327 -2.5000 0.9707
5.0418 -4.8427 -2.5000 0.9707
5.4152 -4.4213 -2.5000 0.9707
5.5888 -4.1997 -2.5000 0.9707
5.7534 -3.9712 -2.5000 0.9707
6.1901 -3.2488 -2.5000 0.9707
6.3159 -2.9969 -2.5000 0.9707
6.4315 -2.7402 -2.5000 0.9707
6.8496 -1.3984 -2.5000 0.9707
6.9003 -1.1214 -2.5000 0.9707
6.9682 -0.5625 -2.5000 0.9707
6.9852 -0.2815 -2.5000 0.9707
6.9909 0.0000 -2.5000 0.9707
6.9852 0.2815 -2.5000 0.9707
6.9682 0.5625 -2.5000 0.9707
6.9399 0.8427 -2.5000 0.9707
6.9003 1.1214 -2.5000 0.9707
6.8496 1.3984 -2.5000 0.9707
6.7877 1.6730 -2.5000 0.9707
6.7149 1.9450 -2.5000 0.9707
6.6311 2.2138 -2.5000 0.9707
6.3437 2.7028 -2.4659 0.9711
5.6852 3.2824 -2.3476 0.9725
5.4027 3.7292 -2.3476 0.9725
5.0850 4.1518 -2.3476 0.9725
4.9137 4.3532 -2.3476 0.9725
4.7345 4.5475 -2.3476 0.9725
4.5475 4.7345 -2.3476 0.9725
4.3532 4.9137 -2.3476 0.9725
4.1518 5.0850 -2.3476 0.9725
3.2824 5.6852 -2.3476 0.9725
3.0508 5.8128 -2.3476 0.9725
2.5731 6.0394 -2.3476 0.9725
1.3131 6.4320 -2.3476 0.9725
1.0531 6.4797 -2.3476 0.9725
0.5282 6.5434 -2.3476 0.9725
0.0000 6.5647 -2.3476 0.9725
-1.0530 6.4797 -2.3476 0.9725
-1.3131 6.4320 -2.3476 0.9725
-1.5710 6.3739 -2.3476 0.9725
-2.3279 6.1381 -2.3476 0.9725
-2.8142 5.9309 -2.3476 0.9725
-3.2823 5.6852 -2.3476 0.9725
-4.1518 5.0851 -2.3476 0.9725
-4.7345 4.5475 -2.3476 0.9725
-4.9137 4.3532 -2.3476 0.9725
-5.2481 3.9437 -2.3476 0.9725
-5.4026 3.7292 -2.3476 0.9725
-5.5484 3.5086 -2.3476 0.9725
-5.8128 3.0508 -2.3476 0.9725
-6.7149 1.9450 -2.5000 0.9707
-6.7877 1.6730 -2.5000 0.9707
-6.9003 1.1214 -2.5000 0.9707
-6.9852 0.2815 -2.5000 0.9707
-3.5687 -0.2881 -1.3720 0.9848
-3.5921 -0.4362 -1.3867 0.9846
-6.4392 -1.0465 -2.5000 0.9724
-6.3918 -1.3049 -2.5000 0.9724
-6.3341 -1.5612 -2.5000 0.9724
-6.0997 -2.3133 -2.5000 0.9724
-6.0016 -2.5571 -2.5000 0.9724
-5.7764 -3.0317 -2.5000 0.9724
-5.6496 -3.2618 -2.5000 0.9724
-5.5137 -3.4867 -2.5000 0.9724
-4.8830 -4.3260 -2.5000 0.9724
-4.7049 -4.5191 -2.5000 0.9724
-4.3260 -4.8830 -2.5000 0.9724
-4.1259 -5.0533 -2.5000 0.9724
-3.2618 -5.6497 -2.5000 0.9724
-3.0317 -5.7764 -2.5000 0.9724
-2.5571 -6.0016 -2.5000 0.9724
-2.0658 -6.1879 -2.5000 0.9724
-0.5249 -6.5025 -2.5000 0.9724
0.0000 -6.5237 -2.5000 0.9724
0.2627 -6.5184 -2.5000 0.9724
0.7863 -6.4761 -2.5000 0.9724
1.0465 -6.4392 -2.5000 0.9724
1.5612 -6.3341 -2.5000 0.9724
1.8150 -6.2661 -2.5000 0.9724
2.3133 -6.0997 -2.5000 0.9724
2.5571 -6.0016 -2.5000 0.9724
3.2618 -5.6497 -2.5000 0.9724
3.7059 -5.3689 -2.5000 0.9724
4.1259 -5.0533 -2.5000 0.9724
4.3260 -4.8830 -2.5000 0.9724
4.7049 -4.5191 -2.5000 0.9724
4.8830 -4.3260 -2.5000 0.9724
5.0533 -4.1258 -2.5000 0.9724
5.2153 -3.9190 -2.5000 0.9724
5.3689 -3.7059 -2.5000 0.9724
5.7764 -3.0317 -2.5000 0.9724
5.8938 -2.7966 -2.5000 0.9724
6.0997 -2.3133 -2.5000 0.9724
6.1879 -2.0658 -2.5000 0.9724
6.2661 -1.8150 -2.5000 0.9724
6.3341 -1.5612 -2.5000 0.9724
6.3918 -1.3049 -2.5000 0.9724
6.4392 -1.0465 -2.5000 0.9724
6.4761 -0.7863 -2.5000 0.9724
6.5025 -0.5249 -2.5000 0.9724
6.5237 0.0000 -2.5000 0.9724
6.5184 0.2627 -2.5000 0.9724
6.3918 1.3049 -2.5000 0.9724
6.3341 1.5612 -2.5000 0.9724
6.2661 1.8150 -2.5000 0.9724
5.3053 3.0630 -2.3476 0.9741
5.0416 3.4800 -2.3476 0.9741
4.0623 4.5854 -2.3476 0.9741
3.4800 5.0416 -2.3476 0.9741
3.2741 5.1776 -2.3476 0.9741
2.8469 5.4243 -2.3476 0.9741
2.6262 5.5345 -2.3476 0.9741
1.9399 5.8107 -2.3476 0.9741
1.4660 5.9480 -2.3476 0.9741
0.4929 6.1061 -2.3476 0.9741
0.0000 6.1260 -2.3476 0.9741
-0.2467 6.1210 -2.3476 0.9741
-0.4929 6.1061 -2.3476 0.9741
-1.4660 5.9480 -2.3476 0.9741
-1.7043 5.8841 -2.3476 0.9741
-1.9399 5.8107 -2.3476 0.9741
-2.1723 5.7279 -2.3476 0.9741
-2.4012 5.6358 -2.3476 0.9741
-2.8469 5.4243 -2.3476 0.9741
-3.4799 5.0416 -2.3476 0.9741
-3.6801 4.8974 -2.3476 0.9741
-4.4180 4.2436 -2.3476 0.9741
-5.0416 3.4800 -2.3476 0.9741
-5.1776 3.2741 -2.3476 0.9741
-5.3052 3.0630 -2.3476 0.9741
-5.4243 2.8469 -2.3476 0.9741
-5.7039 2.7066 -2.4195 0.9733
-6.0016 2.5571 -2.5000 0.9724
-6.0997 2.3133 -2.5000 0.9724
-6.1879 2.0658 -2.5000 0.9724
-6.2661 1.8150 -2.5000 0.9724
-6.4392 1.0465 -2.5000 0.9724
-3.5921 0.4362 -1.3867 0.9846
-3.5687 0.2881 -1.3720 0.9848
-2.8160 0.0000 -1.1525 0.9879
-2.8096 -0.2268 -1.1536 0.9879
-3.0070 -0.6139 -1.2561 0.9868
-5.9308 -1.4618 -2.5000 0.9739
-5.8671 -1.6994 -2.5000 0.9739
-5.7940 -1.9343 -2.5000 0.9739
-5.7114 -2.1660 -2.5000 0.9739
-5.6195 -2.3942 -2.5000 0.9739
-5.2900 -3.0542 -2.5000 0.9739
-4.8833 -3.6695 -2.5000 0.9739
-4.7315 -3.8632 -2.5000 0.9739
-4.4053 -4.2314 -2.5000 0.9739
-4.2314 -4.4053 -2.5000 0.9739
-4.0506 -4.5721 -2.5000 0.9739
-3.8632 -4.7315 -2.5000 0.9739
-3.6695 -4.8833 -2.5000 0.9739
-3.4699 -5.0271 -2.5000 0.9739
-3.2647 -5.1627 -2.5000 0.9739
-2.8387 -5.4087 -2.5000 0.9739
-1.9343 -5.7940 -2.5000 0.9739
-1.6994 -5.8671 -2.5000 0.9739
-1.4618 -5.9308 -2.5000 0.9739
-0.7363 -6.0638 -2.5000 0.9739
-0.4915 -6.0885 -2.5000 0.9739
0.0000 -6.1083 -2.5000 0.9739
0.2460 -6.1034 -2.5000 0.9739
0.9799 -6.0292 -2.5000 0.9739
1.4618 -5.9308 -2.5000 0.9739
1.6995 -5.8672 -2.5000 0.9739
1.9343 -5.7940 -2.5000 0.9739
2.1660 -5.7114 -2.5000 0.9739
2.6186 -5.5186 -2.5000 0.9739
2.8387 -5.4087 -2.5000 0.9739
3.0542 -5.2900 -2.5000 0.9739
3.2647 -5.1627 -2.5000 0.9739
3.8632 -4.7315 -2.5000 0.9739
4.2314 -4.4053 -2.5000 0.9739
4.8833 -3.6695 -2.5000 0.9739
5.1627 -3.2647 -2.5000 0.9739
5.2900 -3.0542 -2.5000 0.9739
5.4087 -2.8387 -2.5000 0.9739
5.5186 -2.6186 -2.5000 0.9739
5.6195 -2.3943 -2.5000 0.9739
5.7114 -2.1660 -2.5000 0.9739
5.7940 -1.9343 -2.5000 0.9739
5.9849 -1.2218 -2.5000 0.9739
6.1083 0.0000 -2.5000 0.9739
6.1034 0.2460 -2.5000 0.9739
6.0638 0.7363 -2.5000 0.9739
5.9849 1.2218 -2.5000 0.9739
5.9308 1.4618 -2.5000 0.9739
5.7940 1.9343 -2.5000 0.9739
5.7114 2.1660 -2.5000 0.9739
5.1749 2.7160 -2.3919 0.9751
4.4431 3.6277 -2.3476 0.9755
3.9734 4.1368 -2.3476 0.9755
3.8037 4.2934 -2.3476 0.9755
3.6277 4.4431 -2.3476 0.9755
3.2584 4.7206 -2.3476 0.9755
3.0657 4.8480 -2.3476 0.9755
2.8680 4.9675 -2.3476 0.9755
2.6656 5.0789 -2.3476 0.9755
2.0340 5.3632 -2.3476 0.9755
1.8164 5.4408 -2.3476 0.9755
1.5959 5.5095 -2.3476 0.9755
1.3727 5.5693 -2.3476 0.9755
1.1473 5.6200 -2.3476 0.9755
0.9201 5.6617 -2.3476 0.9755
0.4616 5.7174 -2.3476 0.9755
0.0000 5.7360 -2.3476 0.9755
-0.2310 5.7313 -2.3476 0.9755
-0.6914 5.6941 -2.3476 0.9755
-0.9201 5.6617 -2.3476 0.9755
-1.1473 5.6201 -2.3476 0.9755
-1.3727 5.5693 -2.3476 0.9755
-1.5958 5.5095 -2.3476 0.9755
-2.6656 5.0789 -2.3476 0.9755
-2.8680 4.9675 -2.3476 0.9755
-3.0657 4.8480 -2.3476 0.9755
-3.2584 4.7206 -2.3476 0.9755
-4.1368 3.9734 -2.3476 0.9755
-4.2934 3.8036 -2.3476 0.9755
-4.4431 3.6277 -2.3476 0.9755
-5.6195 2.3943 -2.5000 0.9739
-5.7114 2.1660 -2.5000 0.9739
-3.0070 0.6139 -1.2561 0.9868
-2.8203 0.1137 -1.1552 0.9879
-2.3670 -0.0954 -1.0324 0.9897
-2.3649 -0.1909 -1.0340 0.9897
-2.3794 -0.2889 -1.0446 0.9896
-2.4021 -0.3904 -1.0606 0.9894
-2.4207 -0.4942 -1.0767 0.9893
-5.5696 -1.3728 -2.5000 0.9753
-5.1825 -2.4591 -2.5000 0.9753
-4.8483 -3.0659 -2.5000 0.9753
-4.7209 -3.2586 -2.5000 0.9753
-4.5859 -3.4461 -2.5000 0.9753
-4.4434 -3.6279 -2.5000 0.9753
-3.6279 -4.4434 -2.5000 0.9753
-3.2586 -4.7209 -2.5000 0.9753
-2.8682 -4.9678 -2.5000 0.9753
-2.6658 -5.0792 -2.5000 0.9753
-2.2484 -5.2773 -2.5000 0.9753
-2.0341 -5.3636 -2.5000 0.9753
-1.8165 -5.4411 -2.5000 0.9753
-1.5959 -5.5098 -2.5000 0.9753
-0.9202 -5.6620 -2.5000 0.9753
-0.4616 -5.7177 -2.5000 0.9753
-0.2310 -5.7317 -2.5000 0.9753
0.0000 -5.7363 -2.5000 0.9753
0.2310 -5.7317 -2.5000 0.9753
0.6914 -5.6945 -2.5000 0.9753
1.1474 -5.6204 -2.5000 0.9753
1.3728 -5.5696 -2.5000 0.9753
1.5960 -5.5098 -2.5000 0.9753
1.8165 -5.4411 -2.5000 0.9753
2.0341 -5.3636 -2.5000 0.9753
2.2484 -5.2773 -2.5000 0.9753
2.8682 -4.9678 -2.5000 0.9753
3.2586 -4.7209 -2.5000 0.9753
3.8039 -4.2937 -2.5000 0.9753
3.9737 -4.1370 -2.5000 0.9753
4.2937 -3.8039 -2.5000 0.9753
4.4434 -3.6279 -2.5000 0.9753
4.5858 -3.4460 -2.5000 0.9753
4.7209 -3.2586 -2.5000 0.9753
5.0793 -2.6658 -2.5000 0.9753
5.4411 -1.8165 -2.5000 0.9753
5.5696 -1.3728 -2.5000 0.9753
5.6621 -0.9202 -2.5000 0.9753
5.6945 -0.6914 -2.5000 0.9753
5.7177 -0.4616 -2.5000 0.9753
5.7317 -0.2310 -2.5000 0.9753
5.7363 0.0000 -2.5000 0.9753
5.7317 0.2310 -2.5000 0.9753
5.7177 0.4616 -2.5000 0.9753
5.6945 0.6914 -2.5000 0.9753
5.6204 1.1474 -2.5000 0.9753
5.5099 1.5960 -2.5000 0.9753
5.4411 1.8165 -2.5000 0.9753
5.2773 2.2484 -2.5000 0.9753
5.1825 2.4591 -2.5000 0.9753
5.0793 2.6658 -2.5000 0.9753
4.3063 3.2360 -2.3476 0.9768
4.1725 3.4067 -2.3476 0.9768
3.8849 3.7315 -2.3476 0.9768
3.5720 4.0320 -2.3476 0.9768
3.4068 4.1725 -2.3476 0.9768
3.2360 4.3063 -2.3476 0.9768
3.0600 4.4331 -2.3476 0.9768
2.8790 4.5527 -2.3476 0.9768
1.9101 5.0366 -2.3476 0.9768
1.2891 5.2301 -2.3476 0.9768
1.0775 5.2778 -2.3476 0.9768
0.6493 5.3474 -2.3476 0.9768
0.2169 5.3823 -2.3476 0.9768
-0.2169 5.3823 -2.3476 0.9768
-0.4334 5.3692 -2.3476 0.9768
-0.6493 5.3474 -2.3476 0.9768
-1.2891 5.2301 -2.3476 0.9768
-1.7058 5.1094 -2.3476 0.9768
-2.1114 4.9556 -2.3476 0.9768
-2.3092 4.8666 -2.3476 0.9768
-2.5033 4.7696 -2.3476 0.9768
-3.4067 4.1725 -2.3476 0.9768
-2.9993 3.3855 -1.9712 0.9805
-4.1725 3.4068 -2.3476 0.9768
-4.4331 3.0600 -2.3476 0.9768
-4.7051 2.7165 -2.3678 0.9766
