ply
format ascii 1.0
element vertex 1568
property float32 x
property float32 y
property float32 z
property float32 I
end_header
12.7954 -17.0276 1.3208 0.9182
18.4839 -20.8640 1.7285 0.8943
26.1088 7.5625 1.6856 0.8968
21.5059 8.1561 1.4263 0.9119
20.2613 8.6325 1.3657 0.9155
16.6705 9.6247 1.1937 0.9258
12.5507 8.6631 0.9457 0.9407
12.0948 9.0886 0.9382 0.9412
12.1394 11.6600 1.0438 0.9348
12.0342 12.5290 1.0773 0.9327
8.5835 9.6888 0.8027 0.9494
8.3412 10.2162 0.8178 0.9485
5.3092 8.3959 0.6160 0.9610
4.3430 8.2749 0.5795 0.9632
3.9066 8.2330 0.5651 0.9641
3.3311 8.7835 0.5825 0.9631
3.0311 9.0792 0.5935 0.9624
2.7878 9.6247 0.6214 0.9606
2.3723 9.6247 0.6147 0.9611
1.9574 9.5879 0.6068 0.9615
1.5733 9.6811 0.6082 0.9615
1.1755 9.6811 0.6047 0.9617
0.7738 9.5856 0.5963 0.9622
-0.0000 9.6811 0.6003 0.9619
-0.3901 9.6811 0.6008 0.9619
-1.1687 9.6248 0.6012 0.9619
-1.9527 9.5648 0.6054 0.9616
-2.2169 8.9941 0.5744 0.9636
-3.8733 8.1627 0.5603 0.9644
-1.7978 3.4254 0.2399 0.9846
-10.2297 17.7183 1.2687 0.9213
-10.9970 17.3903 1.2759 0.9208
-30.3186 26.8600 2.5117 0.8502
-32.4913 26.5283 2.6011 0.8453
-22.8020 17.1346 1.7687 0.8920
-21.7733 13.7686 1.5975 0.9019
-22.8171 13.1735 1.6338 0.8998
-23.1087 12.1284 1.6184 0.9007
-22.4041 8.4967 1.4858 0.9084
-42.4667 14.1775 2.7762 0.8357
-30.6827 8.8873 1.9808 0.8798
-31.1922 7.6882 1.9921 0.8792
-41.4349 5.0311 2.5883 0.8460
-43.0766 -20.4401 1.8801 0.8262
-42.6804 -22.4004 1.9006 0.8245
-39.7086 -22.9258 1.8080 0.8323
-19.6579 -18.8817 1.0748 0.8966
-18.4979 -20.8798 1.0999 0.8943
-14.2523 -20.6479 0.9893 0.9044
-10.1452 -17.5721 0.8001 0.9220
-17.3870 -33.1283 1.4753 0.8609
-12.5612 -26.4721 1.1554 0.8893
-10.9399 -37.7687 1.5505 0.8544
-4.3175 -26.5669 1.0613 0.8979
-1.7604 -21.8069 0.8627 0.9161
-0.0000 -21.3496 0.8418 0.9181
1.9586 -24.2613 0.9598 0.9072
2.8518 -23.4864 0.9329 0.9096
3.8205 -23.5082 0.9391 0.9091
4.8084 -23.5531 0.9479 0.9083
6.5482 -26.5669 1.0789 0.8963
7.1214 -24.5859 1.0093 0.9026
6.9226 -20.7355 0.8620 0.9162
7.7546 -20.4473 0.8623 0.9162
8.3115 -19.5077 0.8361 0.9186
8.4078 -17.7190 0.7733 0.9245
10.2345 -16.1846 0.7551 0.9262
10.5605 -15.2995 0.7330 0.9283
12.2742 -16.3340 0.8056 0.9215
19.4621 -20.2621 1.1078 0.8936
20.3700 8.6789 0.8731 0.9152
18.4725 9.6951 0.8226 0.9199
16.7924 9.6951 0.7646 0.9253
12.5507 8.6631 0.6013 0.9408
11.9928 10.6247 0.6318 0.9379
12.1394 11.6600 0.6637 0.9348
12.0342 12.5290 0.6850 0.9328
12.0342 13.5838 0.7156 0.9299
7.7118 10.2625 0.5062 0.9499
3.9066 8.2330 0.3593 0.9642
3.5789 8.4000 0.3600 0.9641
2.7878 9.6247 0.3951 0.9607
2.3723 9.6247 0.3909 0.9611
1.5733 9.6811 0.3867 0.9615
1.1755 9.6811 0.3845 0.9617
0.7738 9.5856 0.3792 0.9622
0.3879 9.6247 0.3798 0.9622
-0.3901 9.6811 0.3820 0.9620
-1.1687 9.6248 0.3823 0.9619
-1.5642 9.6247 0.3845 0.9617
-1.9527 9.5648 0.3849 0.9617
-2.2169 8.9941 0.3653 0.9636
-3.5256 8.2749 0.3547 0.9646
-3.8733 8.1627 0.3563 0.9645
-1.7978 3.4254 0.1525 0.9846
-21.4116 24.1687 1.2732 0.8787
-26.1885 25.1543 1.4318 0.8647
-21.0269 17.1679 1.0704 0.8970
-10.2447 7.6984 0.5053 0.9500
-21.4786 14.8256 1.0291 0.9008
-23.5286 14.8786 1.0977 0.8945
-30.8307 17.8001 1.4038 0.8672
-29.7370 14.1103 1.2979 0.8765
-34.6446 13.1389 1.4610 0.8622
-45.6489 13.2224 1.8740 0.8268
-29.7078 7.3223 1.2065 0.8847
-30.8786 6.3039 1.2427 0.8815
-32.6950 5.3135 1.3061 0.8758
-42.2238 -20.0354 0.7895 0.8295
-41.8372 -21.9578 0.7981 0.8278
-40.9651 -23.6512 0.7990 0.8276
-21.1562 -15.8978 0.4470 0.8995
-18.2772 -20.6307 0.4656 0.8956
-10.1431 -17.5684 0.3427 0.9220
-20.9598 -39.9357 0.7618 0.8349
-11.1621 -29.4320 0.5317 0.8817
-8.3434 -24.9916 0.4451 0.9000
-6.3355 -25.7041 0.4472 0.8995
-4.3516 -26.7764 0.4582 0.8972
-2.1806 -27.0110 0.4577 0.8973
-1.0423 -25.8641 0.4372 0.9016
-0.0000 -20.8602 0.3524 0.9199
2.9509 -24.3031 0.4135 0.9067
6.0662 -24.6115 0.4282 0.9036
6.9721 -24.0704 0.4233 0.9046
6.1788 -18.5079 0.3296 0.9249
7.0952 -18.7084 0.3380 0.9231
7.3289 -17.2016 0.3158 0.9279
8.5517 -18.0223 0.3370 0.9233
8.0981 -15.4296 0.2943 0.9327
8.9394 -15.4834 0.3020 0.9310
11.9857 -17.3643 0.3564 0.9191
17.3643 -19.6002 0.4423 0.9005
26.1088 7.5625 0.4592 0.8970
18.4459 9.6811 0.3519 0.9200
16.7682 9.6811 0.3271 0.9255
11.9928 10.6247 0.2706 0.9379
7.3671 9.8039 0.2072 0.9521
3.5789 8.4000 0.1542 0.9641
1.9574 9.5878 0.1653 0.9616
1.1755 9.6811 0.1647 0.9617
0.3879 9.6247 0.1627 0.9622
-0.3901 9.6811 0.1637 0.9620
-3.1383 8.2749 0.1495 0.9652
-3.8733 8.1627 0.1526 0.9645
-1.7978 3.4254 0.0653 0.9846
-20.9421 27.8688 0.5889 0.8698
-22.1733 23.0848 0.5407 0.8798
-30.3267 26.8671 0.6844 0.8504
-32.5047 26.5392 0.7088 0.8455
-10.2447 7.6984 0.2165 0.9500
-23.5223 14.8746 0.4701 0.8946
-29.3929 15.4266 0.5607 0.8756
-31.8468 13.5687 0.5847 0.8707
-41.7226 13.9291 0.7430 0.8386
-30.2653 7.4597 0.5265 0.8828
-31.4427 6.4191 0.5421 0.8795
-40.2019 6.5334 0.6880 0.8496
-44.5359 -16.8902 -0.2682 0.8265
-41.5299 -23.9773 -0.2700 0.8255
-21.9443 -16.4901 -0.1545 0.8960
-18.7078 -17.9691 -0.1460 0.9014
-18.7857 -21.2046 -0.1595 0.8929
-15.7952 -19.3455 -0.1406 0.9049
-14.3999 -20.8618 -0.1427 0.9036
-13.3031 -21.0370 -0.1401 0.9052
-10.1417 -17.5660 -0.1142 0.9221
-19.8842 -41.9052 -0.2611 0.8307
-9.3393 -24.6257 -0.1483 0.9000
-7.5535 -22.6254 -0.1343 0.9090
-6.5806 -22.7188 -0.1332 0.9097
-4.9138 -24.0693 -0.1383 0.9064
-2.2214 -27.5170 -0.1554 0.8955
-1.0610 -26.3276 -0.1483 0.9000
0.0000 -24.8615 -0.1400 0.9053
0.9638 -23.9143 -0.1348 0.9087
1.9210 -23.7952 -0.1344 0.9089
3.0501 -25.1197 -0.1425 0.9037
9.8083 -39.7941 -0.2308 0.8488
10.5836 -36.5390 -0.2142 0.8588
10.0993 -26.6296 -0.1604 0.8923
8.4439 -19.8187 -0.1213 0.9174
10.5412 -16.6695 -0.1110 0.9241
17.3877 -21.2961 -0.1548 0.8959
26.1588 -19.6571 -0.1842 0.8773
21.7037 8.2311 -0.1307 0.9113
20.3700 8.6789 -0.1247 0.9152
16.7682 9.6811 -0.1090 0.9255
13.0280 8.2384 -0.0868 0.9402
12.0948 9.0886 -0.0852 0.9413
11.7221 9.5708 -0.0852 0.9413
10.8955 9.6526 -0.0820 0.9434
9.2714 9.6526 -0.0754 0.9479
7.8811 9.6526 -0.0702 0.9514
5.3092 8.3959 -0.0559 0.9610
4.3430 8.2749 -0.0526 0.9633
3.9066 8.2330 -0.0513 0.9642
3.5789 8.4000 -0.0514 0.9641
3.0311 9.0792 -0.0539 0.9624
1.9573 9.5878 -0.0551 0.9616
0.3879 9.6247 -0.0542 0.9622
-0.0000 9.6811 -0.0545 0.9620
-1.1687 9.6248 -0.0546 0.9620
-1.5642 9.6247 -0.0549 0.9617
-2.2169 8.9941 -0.0522 0.9636
-3.1383 8.2749 -0.0498 0.9652
-3.5256 8.2749 -0.0506 0.9647
-1.7978 3.4254 -0.0218 0.9846
-10.2297 17.7183 -0.1152 0.9214
-30.5779 34.5154 -0.2596 0.8316
-31.2298 32.5137 -0.2538 0.8350
-30.3267 26.8671 -0.2281 0.8504
-32.5047 26.5392 -0.2363 0.8455
-29.8294 20.5898 -0.2041 0.8650
-23.5161 14.8707 -0.1567 0.8947
-29.3930 15.4266 -0.1869 0.8757
-29.4566 6.0136 -0.1693 0.8867
-37.5261 6.0986 -0.2141 0.8589
-35.2485 -16.7256 -1.0986 0.8555
-31.5596 -16.5638 -1.0036 0.8671
-36.6676 -23.1873 -1.2216 0.8406
-35.3895 -24.4277 -1.2108 0.8419
-22.4900 -16.9002 -0.7921 0.8935
-24.1344 -19.7051 -0.8773 0.8828
-18.2175 -22.3124 -0.8111 0.8911
-21.8753 -41.6800 -1.3254 0.8283
-16.8253 -35.4586 -1.1051 0.8547
-9.2788 -24.4661 -0.7368 0.9006
-6.5343 -22.5591 -0.6613 0.9103
-4.8052 -23.5375 -0.6764 0.9083
-4.3024 -26.4735 -0.7552 0.8982
-1.0915 -27.0864 -0.7633 0.8972
0.0000 -25.1022 -0.7068 0.9044
1.0173 -25.2450 -0.7114 0.9038
2.0178 -24.9952 -0.7061 0.9045
3.3395 -27.5030 -0.7801 0.8951
6.5050 -19.4849 -0.5784 0.9211
12.6227 -26.6018 -0.8291 0.8889
9.0269 -15.6350 -0.5084 0.9303
10.0794 -14.6026 -0.4996 0.9315
17.1284 -22.7938 -0.8028 0.8922
17.1273 -20.9771 -0.7625 0.8973
16.7642 -18.9228 -0.7118 0.9038
15.0927 -15.7132 -0.6135 0.9165
26.1727 -25.1392 -1.0219 0.8648
26.1234 -21.3291 -0.9496 0.8738
26.1123 -19.6221 -0.9197 0.8775
26.1088 7.5625 -0.7654 0.8969
21.7037 8.2311 -0.6536 0.9113
15.7099 9.0701 -0.5108 0.9300
12.9296 8.1762 -0.4308 0.9406
10.8955 9.6526 -0.4099 0.9434
6.6627 9.6526 -0.3303 0.9542
4.3430 8.2749 -0.2631 0.9633
3.5789 8.4000 -0.2571 0.9641
2.7878 9.6247 -0.2822 0.9607
1.9573 9.5877 -0.2755 0.9616
1.5746 9.6890 -0.2764 0.9615
-0.3901 9.6811 -0.2728 0.9620
-0.7816 9.6811 -0.2735 0.9619
-1.1502 9.4728 -0.2687 0.9625
-2.2169 8.9941 -0.2608 0.9636
-2.7772 8.3186 -0.2469 0.9655
-3.1383 8.2749 -0.2492 0.9652
-1.7978 3.4254 -0.1089 0.9846
-10.2297 17.7183 -0.5761 0.9214
-29.5485 33.3534 -1.2547 0.8367
-30.2396 26.7900 -1.1376 0.8507
-32.3125 26.3823 -1.1746 0.8463
-29.6969 20.4983 -1.0161 0.8655
-23.5098 14.8667 -0.7832 0.8947
-29.4268 15.4444 -0.9358 0.8755
-29.7370 14.1103 -0.9268 0.8766
-29.2372 11.0882 -0.8805 0.8824
-29.2372 8.4687 -0.8571 0.8853
-29.2372 7.2064 -0.8479 0.8865
-29.4566 6.0136 -0.8466 0.8867
-49.2955 -0.0000 -2.5000 0.8208
-49.2555 -1.9849 -2.5000 0.8208
-49.1356 -3.9666 -2.5000 0.8208
-48.9361 -5.9419 -2.5000 0.8208
-48.6571 -7.9076 -2.5000 0.8208
-48.2992 -9.8604 -2.5000 0.8208
-45.6587 -13.2252 -2.4107 0.8266
-43.9219 -14.6633 -2.3483 0.8307
-35.2485 -16.7256 -1.9786 0.8553
-28.7087 -16.5750 -1.6812 0.8757
-26.1168 -16.5153 -1.5671 0.8836
-23.9677 -16.5437 -1.4769 0.8899
-22.0668 -16.5821 -1.3999 0.8953
-16.9750 -16.3047 -1.1937 0.9100
-15.5556 -16.1951 -1.1388 0.9140
-14.3225 -16.1667 -1.0954 0.9171
-24.5366 -38.8014 -2.3282 0.8320
-9.2884 -16.0880 -0.9421 0.9283
-21.3169 -40.6156 -2.3263 0.8322
-19.6573 -41.4269 -2.3255 0.8322
-4.7260 -23.1494 -1.1982 0.9097
-3.6838 -45.6322 -2.3217 0.8325
3.6844 -45.6387 -2.3221 0.8324
5.5197 -45.4587 -2.3223 0.8324
10.9649 -44.4864 -2.3236 0.8323
12.7505 -44.0197 -2.3242 0.8323
10.1780 -26.8371 -1.4556 0.8914
11.4646 -26.9084 -1.4833 0.8895
12.5510 -26.4506 -1.4848 0.8894
24.6784 -39.0258 -2.3417 0.8312
10.7603 -15.5890 -0.9606 0.9269
11.6981 -15.5674 -0.9875 0.9250
12.6916 -15.5445 -1.0177 0.9228
13.8163 -15.5954 -1.0566 0.9199
16.1799 -15.5410 -1.1378 0.9141
17.5076 -15.5104 -1.1862 0.9106
26.2336 -21.4190 -1.7175 0.8732
20.5474 -15.4404 -1.3035 0.9022
41.6643 -26.3469 -2.5000 0.8208
43.6492 -22.9086 -2.5000 0.8208
44.5363 -21.1327 -2.5000 0.8208
44.5669 -18.9881 -2.4568 0.8236
44.6480 -16.9327 -2.4217 0.8259
45.4239 -15.1647 -2.4286 0.8255
47.1401 -13.6543 -2.4889 0.8215
47.8630 -11.7972 -2.5000 0.8208
48.6571 -7.9074 -2.5000 0.8208
48.9361 -5.9417 -2.5000 0.8208
49.1356 -3.9667 -2.5000 0.8208
49.2555 -1.9850 -2.5000 0.8208
49.2555 1.9849 -2.5000 0.8208
45.6912 7.4256 -2.3476 0.8308
44.1721 14.7471 -2.3617 0.8298
17.2283 8.1749 -0.9671 0.9265
15.7101 9.0702 -0.9200 0.9299
13.0280 8.2384 -0.7817 0.9401
12.0948 9.0886 -0.7673 0.9412
10.3071 9.1313 -0.6983 0.9463
10.0494 9.6526 -0.7067 0.9457
9.2714 9.6526 -0.6788 0.9478
8.5514 9.6526 -0.6540 0.9497
6.6627 9.6526 -0.5948 0.9541
4.7005 8.1415 -0.4768 0.9630
4.2590 8.1150 -0.4648 0.9640
3.5789 8.4000 -0.4631 0.9641
3.2654 8.6103 -0.4670 0.9638
3.0059 9.0038 -0.4814 0.9627
2.1215 8.6073 -0.4496 0.9651
1.9573 9.5877 -0.4963 0.9616
0.7016 8.6906 -0.4422 0.9657
0.3502 8.6902 -0.4411 0.9658
-0.3901 9.6811 -0.4914 0.9619
-1.0552 8.6905 -0.4440 0.9655
-1.9527 9.5648 -0.4951 0.9617
-2.1623 8.7727 -0.4582 0.9645
-2.7451 8.2225 -0.4396 0.9659
-3.0725 8.1016 -0.4394 0.9659
-3.8733 8.1627 -0.4582 0.9645
-24.1226 34.9475 -2.1536 0.8436
-27.4610 36.5440 -2.3182 0.8327
-28.9340 35.4377 -2.3201 0.8326
-29.1517 32.9055 -2.2295 0.8386
-28.9230 30.1121 -2.1175 0.8460
-30.3267 26.8671 -2.0547 0.8502
-32.5048 26.5393 -2.1281 0.8453
-10.2447 7.6983 -0.6499 0.9500
-29.4268 20.3119 -1.8134 0.8666
-29.8862 17.2548 -1.7501 0.8709
-29.6873 14.0868 -1.6665 0.8767
-31.8469 13.5687 -1.7556 0.8705
-29.2372 11.0882 -1.5858 0.8823
-29.2372 9.7609 -1.5632 0.8839
-29.2372 8.4687 -1.5437 0.8852
-46.1529 3.7258 -2.3482 0.8307
-49.2555 1.9849 -2.5000 0.8208
-33.9854 -2.7436 -2.5000 0.8722
-33.8473 -4.1098 -2.5000 0.8722
-32.3412 -10.7971 -2.5000 0.8722
-31.8802 -12.0906 -2.5000 0.8722
-28.9285 -13.7267 -2.3478 0.8795
-28.3554 -14.8821 -2.3480 0.8795
-27.0826 -17.1260 -2.3495 0.8794
-21.8469 -16.4169 -2.0037 0.8962
-20.0566 -16.3757 -1.8985 0.9014
-23.9557 -21.2229 -2.3466 0.8795
-16.9750 -16.3047 -1.7258 0.9099
-15.6311 -16.2737 -1.6545 0.9135
-20.2103 -24.7532 -2.3431 0.8797
-10.3003 -16.2887 -1.4131 0.9256
-8.4543 -16.1084 -1.3339 0.9296
-5.3539 -16.0370 -1.2397 0.9344
-3.2458 -15.8987 -1.1898 0.9370
-1.2871 -15.9433 -1.1728 0.9379
-0.6419 -15.9285 -1.1689 0.9381
0.0000 -15.9137 -1.1668 0.9382
3.9002 -15.8238 -1.1950 0.9367
11.3933 -26.7411 -2.1313 0.8900
12.5374 -26.4218 -2.1443 0.8893
9.0161 -15.6163 -1.3222 0.9302
9.9187 -15.6852 -1.3607 0.9283
10.8125 -15.6646 -1.3956 0.9265
12.7532 -15.6199 -1.4785 0.9223
15.0634 -15.6827 -1.5944 0.9165
17.5076 -15.5104 -1.7150 0.9105
27.0610 -17.1123 -2.3476 0.8795
30.8041 -14.6167 -2.5000 0.8722
31.3676 -13.3645 -2.5000 0.8722
31.8803 -12.0906 -2.5000 0.8722
33.1052 -8.1597 -2.5000 0.8722
33.6544 -5.4694 -2.5000 0.8722
34.0683 -1.3729 -2.5000 0.8722
34.0683 1.3729 -2.5000 0.8722
33.9854 2.7436 -2.5000 0.8722
33.6545 5.4694 -2.5000 0.8722
33.1053 8.1597 -2.5000 0.8722
32.3414 10.7971 -2.5000 0.8722
19.0792 7.2358 -1.4962 0.9214
17.3149 7.3772 -1.3800 0.9273
15.7112 8.2459 -1.3010 0.9313
12.4722 8.6089 -1.1112 0.9410
11.2402 8.4465 -1.0309 0.9452
10.0494 9.6526 -1.0217 0.9456
6.9665 8.5325 -0.8077 0.9568
6.4600 8.5967 -0.7885 0.9578
6.1332 8.8855 -0.7916 0.9576
4.7433 8.2157 -0.6956 0.9627
4.3430 8.2749 -0.6852 0.9632
3.9066 8.2330 -0.6682 0.9641
3.5789 8.4000 -0.6695 0.9640
3.3311 8.7835 -0.6888 0.9630
3.0310 9.0790 -0.7018 0.9623
2.7878 9.6245 -0.7347 0.9606
1.9573 9.5877 -0.7175 0.9615
1.5733 9.6811 -0.7192 0.9614
0.7016 8.6903 -0.6393 0.9656
-0.0000 9.6811 -0.7098 0.9619
-0.3901 9.6811 -0.7104 0.9619
-1.5640 9.6239 -0.7149 0.9616
-2.2169 8.9940 -0.6792 0.9635
-2.4514 8.4630 -0.6460 0.9653
-2.7772 8.3186 -0.6430 0.9654
-3.8733 8.1627 -0.6625 0.9644
-1.7978 3.4254 -0.2836 0.9846
-10.2297 17.7183 -1.5001 0.9212
-19.0697 27.6272 -2.4614 0.8740
-20.1667 26.8370 -2.4614 0.8740
-22.2608 25.1272 -2.4614 0.8740
-23.3310 22.4098 -2.3720 0.8783
-23.5747 20.8854 -2.3093 0.8813
-24.4204 19.9386 -2.3116 0.8812
-27.5733 15.9195 -2.3345 0.8801
-28.2123 14.8069 -2.3362 0.8800
-28.8068 13.6690 -2.3379 0.8800
-29.2372 8.4687 -2.2319 0.8851
-29.2372 7.2064 -2.2079 0.8862
-29.4566 6.0136 -2.2044 0.8864
-31.6121 5.1375 -2.3483 0.8795
-33.3131 2.6893 -2.4505 0.8746
-34.0683 1.3729 -2.5000 0.8722
-26.0304 0.0000 -2.4991 0.9007
-25.8503 -3.1388 -2.5000 0.9006
-25.7029 -4.1771 -2.5000 0.9006
-25.5139 -5.2087 -2.5000 0.9006
-25.0120 -7.2448 -2.5000 0.9006
-24.7000 -8.2461 -2.5000 0.9006
-24.3480 -9.2340 -2.5000 0.9006
-23.9564 -10.2069 -2.5000 0.9006
-20.1243 -13.8908 -2.3476 0.9064
-19.5488 -14.6900 -2.3476 0.9064
-18.9422 -15.4658 -2.3477 0.9064
-17.6463 -16.9494 -2.3490 0.9064
-16.9617 -17.6590 -2.3507 0.9063
-14.3920 -16.2452 -2.0836 0.9165
-8.4543 -16.1084 -1.7465 0.9295
-7.6346 -16.0895 -1.7098 0.9309
-6.8636 -16.1096 -1.6811 0.9321
-7.3094 -21.8943 -2.2160 0.9114
-3.2458 -15.8987 -1.5578 0.9369
-2.5959 -15.9735 -1.5537 0.9370
-2.9434 -24.2415 -2.3444 0.9065
-1.9649 -24.3398 -2.3443 0.9065
-0.9832 -24.3990 -2.3443 0.9065
2.9438 -24.2443 -2.3447 0.9065
3.9179 -24.1080 -2.3449 0.9065
3.2154 -15.7499 -1.5433 0.9374
4.5789 -15.8082 -1.5800 0.9360
9.5816 -22.4887 -2.3468 0.9064
10.4814 -22.0891 -2.3473 0.9064
8.2915 -15.7982 -1.7129 0.9308
9.0161 -15.6163 -1.7312 0.9301
9.9187 -15.6852 -1.7817 0.9281
10.8125 -15.6646 -1.8273 0.9264
11.7549 -15.6429 -1.8786 0.9244
17.6374 -16.9409 -2.3478 0.9064
22.5515 -13.0201 -2.5000 0.9006
23.5260 -11.1632 -2.5000 0.9006
24.7000 -8.2461 -2.5000 0.9006
25.0120 -7.2448 -2.5000 0.9006
25.5139 -5.2087 -2.5000 0.9006
25.7029 -4.1771 -2.5000 0.9006
25.8503 -3.1388 -2.5000 0.9006
25.9557 -2.0953 -2.5000 0.9006
26.0401 0.0000 -2.5000 0.9006
25.9557 2.0954 -2.5000 0.9006
24.2744 2.9475 -2.3476 0.9064
24.1361 3.9225 -2.3476 0.9064
23.2010 7.7456 -2.3483 0.9064
15.7113 8.2459 -1.7035 0.9312
15.7101 9.0702 -1.7416 0.9297
13.0280 8.2384 -1.4799 0.9399
12.5507 8.6631 -1.4641 0.9406
11.2402 8.4465 -1.3498 0.9451
10.3450 8.4464 -1.2822 0.9477
10.0494 9.6526 -1.3378 0.9455
9.2714 9.6526 -1.2849 0.9476
6.1332 8.8855 -1.0365 0.9575
4.2590 8.1150 -0.8799 0.9638
3.9066 8.2330 -0.8749 0.9640
3.5789 8.4000 -0.8766 0.9640
3.2654 8.6103 -0.8841 0.9637
3.0059 9.0038 -0.9113 0.9626
2.0196 8.1940 -0.8102 0.9667
1.1755 9.6811 -0.9363 0.9616
0.6632 8.2146 -0.7912 0.9674
0.3311 8.2164 -0.7895 0.9675
-0.3901 9.6811 -0.9302 0.9618
-1.5640 9.6239 -0.9361 0.9616
-1.9527 9.5648 -0.9372 0.9615
-2.7772 8.3186 -0.8420 0.9654
-3.8733 8.1627 -0.8674 0.9643
-13.7028 21.6692 -2.4614 0.9021
-16.2147 19.8595 -2.4614 0.9021
-18.4903 17.7602 -2.4614 0.9021
-20.4963 15.4019 -2.4614 0.9021
-21.0998 14.5642 -2.4614 0.9021
-21.6691 13.7028 -2.4614 0.9021
-22.8704 10.8521 -2.4303 0.9033
-22.8012 8.6473 -2.3412 0.9067
-23.7675 4.8522 -2.3289 0.9071
-24.2761 3.9452 -2.3612 0.9059
-25.4680 3.0924 -2.4630 0.9020
-25.9557 2.0954 -2.5000 0.9006
-26.0190 1.0485 -2.5000 0.9006
-20.9779 -1.6935 -2.5000 0.9187
-20.8927 -2.5368 -2.5000 0.9187
-20.7736 -3.3761 -2.5000 0.9187
-20.6208 -4.2098 -2.5000 0.9187
-20.4346 -5.0367 -2.5000 0.9187
-20.2152 -5.8554 -2.5000 0.9187
-19.6785 -7.4631 -2.5000 0.9187
-19.0142 -9.0223 -2.5000 0.9187
-18.6354 -9.7806 -2.5000 0.9187
-18.2265 -10.5231 -2.5000 0.9187
-16.8252 -12.6433 -2.5000 0.9187
-14.2532 -13.6904 -2.3476 0.9235
-9.2591 -16.0373 -2.1997 0.9281
-9.1986 -17.5265 -2.3512 0.9234
-6.8474 -16.0714 -2.0751 0.9321
-6.0884 -16.0539 -2.0395 0.9332
-3.2458 -15.8987 -1.9275 0.9367
-1.9528 -16.0830 -1.9245 0.9368
-1.3007 -16.1118 -1.9201 0.9370
-0.6494 -16.1142 -1.9157 0.9371
1.2889 -15.9654 -1.9026 0.9375
1.9269 -15.8693 -1.8989 0.9376
3.2154 -15.7499 -1.9095 0.9373
3.9002 -15.8238 -1.9359 0.9365
5.2722 -15.7922 -1.9777 0.9351
5.9830 -15.7759 -2.0042 0.9343
8.4870 -17.8859 -2.3516 0.9234
10.5644 -16.7062 -2.3480 0.9235
11.8726 -15.7995 -2.3476 0.9235
12.4991 -15.3086 -2.3476 0.9235
16.8252 -12.6433 -2.5000 0.9187
17.3206 -11.9556 -2.5000 0.9187
17.7880 -11.2484 -2.5000 0.9187
19.3620 -8.2494 -2.5000 0.9187
19.6785 -7.4631 -2.5000 0.9187
20.7736 -3.3760 -2.5000 0.9187
21.0291 -0.8474 -2.5000 0.9187
21.0461 0.0000 -2.5000 0.9187
21.0290 0.8474 -2.5000 0.9187
20.8927 2.5368 -2.5000 0.9187
19.5072 3.1702 -2.3476 0.9235
19.3638 3.9532 -2.3476 0.9235
19.1889 4.7296 -2.3476 0.9235
18.9829 5.4985 -2.3476 0.9235
18.7461 6.2584 -2.3476 0.9235
15.7101 9.0703 -2.1548 0.9295
13.0280 8.2384 -1.8310 0.9398
11.2402 8.4465 -1.6701 0.9449
9.6678 7.8935 -1.4826 0.9510
7.2759 8.2128 -1.3033 0.9568
6.7055 8.2128 -1.2594 0.9582
6.1715 8.2128 -1.2203 0.9595
6.0147 8.7138 -1.2577 0.9582
4.2845 8.1634 -1.0951 0.9635
3.2856 8.6634 -1.1006 0.9634
2.7878 9.6245 -1.1902 0.9604
1.9234 9.4216 -1.1422 0.9620
1.5416 9.4857 -1.1415 0.9620
0.6486 8.0342 -0.9575 0.9681
0.3238 8.0364 -0.9554 0.9681
-0.3869 9.5994 -1.1412 0.9620
-1.0300 8.4828 -1.0150 0.9662
-1.9527 9.5648 -1.1596 0.9614
-2.7772 8.3186 -1.0418 0.9653
-3.9010 8.2212 -1.0809 0.9640
-1.7978 3.4254 -0.4595 0.9845
-9.7335 16.8589 -2.3124 0.9246
-10.3963 16.4404 -2.3106 0.9246
-11.0422 15.9975 -2.3090 0.9247
-12.4482 16.5654 -2.4614 0.9199
-13.1051 16.0508 -2.4614 0.9199
-14.9442 14.3541 -2.4614 0.9199
-16.0508 13.1051 -2.4614 0.9199
-16.5655 12.4481 -2.4614 0.9199
-17.0533 11.7710 -2.4614 0.9199
-17.5134 11.0748 -2.4614 0.9199
-18.3478 9.6296 -2.4614 0.9199
-19.0632 8.1220 -2.4614 0.9199
-19.3846 7.3516 -2.4626 0.9199
-20.5303 4.1913 -2.4890 0.9191
-20.8791 2.5352 -2.4984 0.9188
-20.9688 1.6928 -2.4989 0.9188
-21.0246 0.8473 -2.4995 0.9187
-17.6441 0.0000 -2.5000 0.9312
-17.6298 -0.7105 -2.5000 0.9312
-17.5869 -1.4198 -2.5000 0.9312
-17.4156 -2.8303 -2.5000 0.9312
-16.7361 -5.5873 -2.5000 0.9312
-16.4975 -6.2567 -2.5000 0.9312
-16.2322 -6.9159 -2.5000 0.9312
-15.6231 -8.1996 -2.5000 0.9312
-15.2803 -8.8221 -2.5000 0.9312
-14.9126 -9.4302 -2.5000 0.9312
-14.5208 -10.0230 -2.5000 0.9312
-14.1055 -10.5996 -2.5000 0.9312
-13.2068 -11.7002 -2.5000 0.9312
-12.7250 -12.2225 -2.5000 0.9312
-8.8553 -14.0036 -2.3476 0.9353
-7.1028 -14.9688 -2.3476 0.9353
-6.4943 -15.2427 -2.3476 0.9353
-4.6103 -15.9165 -2.3479 0.9352
-3.9658 -16.0899 -2.3480 0.9352
-2.6584 -16.3578 -2.3481 0.9352
-0.6673 -16.5595 -2.3482 0.9352
0.0000 -16.5729 -2.3482 0.9352
0.6673 -16.5592 -2.3482 0.9352
1.3335 -16.5186 -2.3481 0.9352
2.6582 -16.3566 -2.3480 0.9352
3.9654 -16.0881 -2.3477 0.9353
4.6097 -15.9145 -2.3476 0.9353
6.4943 -15.2427 -2.3476 0.9353
8.2843 -14.3488 -2.3476 0.9353
9.4120 -13.6356 -2.3476 0.9353
9.9534 -13.2456 -2.3476 0.9353
11.6822 -13.1865 -2.4961 0.9313
12.2225 -12.7250 -2.5000 0.9312
14.5208 -10.0230 -2.5000 0.9312
15.6231 -8.1996 -2.5000 0.9312
16.2322 -6.9159 -2.5000 0.9312
16.4975 -6.2567 -2.5000 0.9312
17.1314 -4.2225 -2.5000 0.9312
17.2875 -3.5293 -2.5000 0.9312
17.4156 -2.8303 -2.5000 0.9312
17.6298 -0.7104 -2.5000 0.9312
17.6441 -0.0000 -2.5000 0.9312
17.5869 1.4198 -2.5000 0.9312
16.7273 2.7184 -2.4012 0.9338
16.2337 3.3141 -2.3476 0.9353
16.0871 3.9651 -2.3476 0.9353
15.9144 4.6096 -2.3476 0.9353
15.7158 5.2467 -2.3476 0.9353
15.4918 5.8753 -2.3476 0.9353
12.5064 8.6325 -2.1532 0.9405
9.6860 7.9084 -1.7717 0.9507
9.2653 8.2083 -1.7539 0.9512
6.7055 8.2128 -1.5023 0.9581
6.1332 8.8855 -1.5298 0.9573
5.3092 8.3959 -1.4075 0.9607
3.9066 8.2330 -1.2912 0.9639
3.3311 8.7835 -1.3310 0.9628
1.7880 8.7585 -1.2666 0.9645
1.0749 8.8523 -1.2635 0.9646
0.6346 7.8606 -1.1174 0.9686
-0.0000 8.9160 -1.2633 0.9646
-0.3592 8.9128 -1.2639 0.9646
-1.0300 8.4831 -1.2108 0.9661
-1.2757 7.8497 -1.1268 0.9684
-1.9527 9.5648 -1.3832 0.9613
-2.2169 8.9940 -1.3125 0.9633
-2.7772 8.3186 -1.2426 0.9652
-3.0901 8.1478 -1.2347 0.9654
-3.4492 8.0956 -1.2468 0.9651
-8.1669 14.1455 -2.3143 0.9361
-8.7299 13.8052 -2.3143 0.9361
-9.2744 13.4363 -2.3133 0.9362
-9.8018 13.0438 -2.3118 0.9362
-10.3128 12.6309 -2.3104 0.9362
-13.0030 11.5196 -2.4614 0.9322
-13.4563 10.9867 -2.4614 0.9322
-14.6825 9.2846 -2.4614 0.9322
-15.3820 8.0730 -2.4614 0.9322
-15.6964 7.4480 -2.4617 0.9322
-16.3297 6.1930 -2.4745 0.9319
-16.8252 4.8735 -2.4820 0.9317
-17.0746 4.2085 -2.4917 0.9314
-17.4076 2.8290 -2.4988 0.9312
-17.5105 2.1262 -2.4993 0.9312
-17.5852 1.4196 -2.4997 0.9312
-15.1262 -1.2211 -2.5000 0.9403
-15.0648 -1.8292 -2.5000 0.9403
-14.9789 -2.4343 -2.5000 0.9403
-14.8687 -3.0355 -2.5000 0.9403
-14.1893 -5.3813 -2.5000 0.9403
-13.9611 -5.9483 -2.5000 0.9403
-13.4372 -7.0524 -2.5000 0.9403
-12.4891 -8.6206 -2.5000 0.9403
-12.1319 -9.1165 -2.5000 0.9403
-11.7550 -9.5976 -2.5000 0.9403
-10.9446 -10.5124 -2.5000 0.9403
-10.5124 -10.9445 -2.5000 0.9403
-9.5976 -11.7550 -2.5000 0.9403
-8.1108 -12.8261 -2.5000 0.9403
-6.9286 -13.2014 -2.4561 0.9414
-5.6314 -13.2174 -2.3668 0.9434
-4.5126 -13.5169 -2.3476 0.9439
-3.9647 -13.6877 -2.3476 0.9439
-3.4104 -13.8362 -2.3476 0.9439
-1.7177 -14.1464 -2.3476 0.9439
-0.5738 -14.2388 -2.3476 0.9439
0.5738 -14.2388 -2.3476 0.9439
1.1467 -14.2041 -2.3476 0.9439
2.8504 -13.9623 -2.3476 0.9439
3.9647 -13.6877 -2.3476 0.9439
5.6295 -13.2130 -2.3660 0.9434
9.1165 -12.1319 -2.5000 0.9403
9.5976 -11.7549 -2.5000 0.9403
10.0632 -11.3590 -2.5000 0.9403
11.3589 -10.0632 -2.5000 0.9403
11.7550 -9.5976 -2.5000 0.9403
12.1319 -9.1165 -2.5000 0.9403
13.7102 -6.5056 -2.5000 0.9403
13.9611 -5.9482 -2.5000 0.9403
14.1893 -5.3813 -2.5000 0.9403
14.5763 -4.2221 -2.5000 0.9403
14.7344 -3.6317 -2.5000 0.9403
14.8687 -3.0355 -2.5000 0.9403
14.9789 -2.4343 -2.5000 0.9403
15.1262 -1.2211 -2.5000 0.9403
15.1754 0.0000 -2.5000 0.9403
15.1631 0.6111 -2.5000 0.9403
15.1262 1.2211 -2.5000 0.9403
15.0648 1.8292 -2.5000 0.9403
14.9789 2.4343 -2.5000 0.9403
13.9623 2.8504 -2.3476 0.9439
13.5169 4.5126 -2.3476 0.9439
13.3243 5.0532 -2.3476 0.9439
12.8745 6.1090 -2.3476 0.9439
12.6180 6.6224 -2.3476 0.9439
12.3081 7.1061 -2.3413 0.9440
11.3397 8.5212 -2.3367 0.9441
9.7046 7.9235 -2.0639 0.9505
9.2806 8.2219 -2.0426 0.9510
7.9762 8.3042 -1.8969 0.9544
7.2759 8.2128 -1.8076 0.9565
6.7055 8.2128 -1.7467 0.9579
6.1715 8.2128 -1.6924 0.9592
6.1332 8.8855 -1.7786 0.9572
3.9066 8.2330 -1.5012 0.9637
3.0310 9.0790 -1.5768 0.9619
1.9909 8.0775 -1.3705 0.9668
1.7516 8.5801 -1.4426 0.9651
1.0421 8.5830 -1.4243 0.9656
0.6091 7.5452 -1.2470 0.9698
0.3101 7.6962 -1.2689 0.9693
-0.0000 8.5833 -1.4140 0.9658
-0.6927 8.5805 -1.4181 0.9657
-1.0301 8.4834 -1.4078 0.9659
-2.7772 8.3186 -1.4448 0.9651
-3.1383 8.2749 -1.4579 0.9648
-3.8733 8.1627 -1.4884 0.9640
-1.7978 3.4254 -0.6373 0.9844
-7.9804 11.5617 -2.3143 0.9446
-8.4395 11.2309 -2.3143 0.9446
-8.8838 10.8807 -2.3140 0.9446
-9.7208 10.1204 -2.3117 0.9447
-11.9446 8.9758 -2.4614 0.9412
-12.2963 8.4875 -2.4614 0.9412
-12.6281 7.9856 -2.4614 0.9412
-12.9415 7.4717 -2.4618 0.9412
-13.2352 6.9464 -2.4624 0.9412
-14.0906 5.3438 -2.4826 0.9407
-14.5398 4.2115 -2.4937 0.9405
-14.8640 3.0345 -2.4992 0.9404
-15.1631 0.6111 -2.5000 0.9403
-13.3006 0.0000 -2.5000 0.9473
-13.2898 -0.5356 -2.5000 0.9473
-13.2036 -1.6032 -2.5000 0.9473
-12.9141 -3.1830 -2.5000 0.9473
-12.6161 -4.2119 -2.5000 0.9473
-12.0164 -5.7019 -2.5000 0.9473
-11.5186 -6.6503 -2.5000 0.9473
-10.6330 -7.9902 -2.5000 0.9473
-9.9556 -8.8199 -2.5000 0.9473
-9.5924 -9.2136 -2.5000 0.9473
-9.2136 -9.5924 -2.5000 0.9473
-8.8199 -9.9556 -2.5000 0.9473
-8.4119 -10.3027 -2.5000 0.9473
-6.6503 -11.5186 -2.5000 0.9473
-6.1811 -11.7771 -2.5000 0.9473
-5.2124 -12.2362 -2.5000 0.9473
-4.2119 -12.6161 -2.5000 0.9473
-3.7005 -12.7754 -2.5000 0.9473
-3.1830 -12.9141 -2.5000 0.9473
-2.1336 -13.1283 -2.5000 0.9473
-1.6017 -13.1915 -2.4977 0.9474
-1.0651 -13.1931 -2.4879 0.9476
-0.5317 -13.1940 -2.4820 0.9477
0.0000 -13.1941 -2.4800 0.9477
1.0650 -13.1923 -2.4877 0.9476
1.6016 -13.1903 -2.4975 0.9474
2.1335 -13.1283 -2.5000 0.9473
3.1830 -12.9141 -2.5000 0.9473
3.7005 -12.7754 -2.5000 0.9473
5.2153 -12.2362 -2.5000 0.9473
7.1087 -11.2415 -2.5000 0.9473
7.5556 -10.9462 -2.5000 0.9473
8.4121 -10.3027 -2.5000 0.9473
9.2137 -9.5924 -2.5000 0.9473
9.5925 -9.2136 -2.5000 0.9473
10.3027 -8.4119 -2.5000 0.9473
10.9462 -7.5556 -2.5000 0.9473
11.2415 -7.1087 -2.5000 0.9473
11.5186 -6.6503 -2.5000 0.9473
12.4362 -4.7164 -2.5000 0.9473
12.6161 -4.2119 -2.5000 0.9473
12.7754 -3.7005 -2.5000 0.9473
13.2575 -1.0702 -2.5000 0.9473
13.3005 0.0000 -2.5000 0.9473
13.2574 1.0702 -2.5000 0.9473
13.2036 1.6032 -2.5000 0.9473
13.1283 2.1336 -2.5000 0.9473
11.9966 3.4749 -2.3476 0.9504
11.8470 3.9551 -2.3476 0.9504
11.4903 4.8955 -2.3476 0.9504
11.0591 5.8043 -2.3476 0.9504
10.8165 6.2449 -2.3476 0.9504
9.9201 7.4545 -2.3324 0.9507
9.6134 7.8491 -2.3327 0.9507
9.2926 8.2325 -2.3335 0.9507
8.4437 8.1103 -2.2006 0.9535
8.2395 9.3004 -2.3355 0.9507
7.8567 9.6227 -2.3350 0.9507
6.1715 8.2128 -1.9310 0.9590
4.7433 8.2157 -1.7831 0.9621
3.9066 8.2330 -1.7129 0.9636
3.5789 8.4000 -1.7162 0.9635
3.3311 8.7835 -1.7657 0.9625
3.0310 9.0790 -1.7991 0.9618
2.0813 7.1856 -1.4061 0.9700
1.9910 8.0777 -1.5637 0.9667
1.3648 8.3977 -1.5992 0.9660
1.0198 8.3991 -1.5903 0.9662
0.5885 7.2903 -1.3748 0.9707
0.3036 7.5350 -1.4174 0.9698
-0.3384 8.3980 -1.5798 0.9664
-1.0194 8.3952 -1.5896 0.9662
-1.2219 7.5188 -1.4318 0.9695
-2.2169 8.9940 -1.7411 0.9630
-2.7772 8.3186 -1.6484 0.9649
-3.8733 8.1627 -1.6982 0.9639
-1.7978 3.4254 -0.7271 0.9844
-6.9945 10.1332 -2.3143 0.9511
-7.3968 9.8434 -2.3143 0.9511
-8.1649 9.2163 -2.3143 0.9511
-8.5294 8.8800 -2.3143 0.9511
-8.8781 8.5275 -2.3138 0.9511
-9.2105 8.1598 -2.3129 0.9512
-9.5280 7.7794 -2.3120 0.9512
-12.5928 4.2041 -2.4954 0.9474
-12.7693 3.6987 -2.4988 0.9473
-13.0308 2.6602 -2.4998 0.9473
-13.1283 2.1336 -2.5000 0.9473
-13.2036 1.6032 -2.5000 0.9473
-13.2898 0.5355 -2.5000 0.9473
-11.8270 0.0000 -2.5000 0.9528
-11.8174 -0.4762 -2.5000 0.9528
-11.7886 -0.9517 -2.5000 0.9528
-11.6738 -1.8972 -2.5000 0.9528
-10.8806 -4.6358 -2.5000 0.9528
-10.6851 -5.0701 -2.5000 0.9528
-10.4722 -5.4963 -2.5000 0.9528
-10.2425 -5.9135 -2.5000 0.9528
-9.7334 -6.7185 -2.5000 0.9528
-9.4550 -7.1050 -2.5000 0.9528
-8.5296 -8.1928 -2.5000 0.9528
-8.1928 -8.5296 -2.5000 0.9528
-7.4799 -9.1612 -2.5000 0.9528
-7.1050 -9.4550 -2.5000 0.9528
-6.7185 -9.7334 -2.5000 0.9528
-5.0701 -10.6851 -2.5000 0.9528
-4.6358 -10.8806 -2.5000 0.9528
-3.7452 -11.2183 -2.5000 0.9528
-3.2905 -11.3600 -2.5000 0.9528
-1.8972 -11.6738 -2.5000 0.9528
-1.4256 -11.7407 -2.5000 0.9528
-0.4762 -11.8174 -2.5000 0.9528
0.9517 -11.7886 -2.5000 0.9528
2.3657 -11.5880 -2.5000 0.9528
4.1939 -11.0584 -2.5000 0.9528
4.6359 -10.8806 -2.5000 0.9528
5.9134 -10.2425 -2.5000 0.9528
6.3211 -9.9961 -2.5000 0.9528
6.7186 -9.7334 -2.5000 0.9528
7.1050 -9.4550 -2.5000 0.9528
7.4798 -9.1613 -2.5000 0.9528
8.1928 -8.5297 -2.5000 0.9528
9.1613 -7.4799 -2.5000 0.9528
9.4550 -7.1050 -2.5000 0.9528
10.4722 -5.4963 -2.5000 0.9528
11.0584 -4.1939 -2.5000 0.9528
11.2183 -3.7452 -2.5000 0.9528
11.3600 -3.2905 -2.5000 0.9528
11.4833 -2.8304 -2.5000 0.9528
11.6738 -1.8972 -2.5000 0.9528
11.8174 -0.4762 -2.5000 0.9528
11.8270 -0.0000 -2.5000 0.9528
11.8174 0.4762 -2.5000 0.9528
11.7886 0.9517 -2.5000 0.9528
11.7407 1.4256 -2.5000 0.9528
11.6738 1.8972 -2.5000 0.9528
11.0213 2.7165 -2.3994 0.9547
10.5344 3.5169 -2.3476 0.9556
10.3843 3.9382 -2.3476 0.9556
9.8339 5.1612 -2.3476 0.9556
9.1400 6.3089 -2.3476 0.9556
8.8786 6.6718 -2.3476 0.9556
8.2529 7.3114 -2.3306 0.9559
7.9502 7.6363 -2.3302 0.9559
7.6382 7.9522 -2.3307 0.9559
7.3134 8.2551 -2.3313 0.9559
6.2547 8.3235 -2.2008 0.9583
5.3092 8.3959 -2.0998 0.9602
3.0310 9.0790 -2.0232 0.9616
0.2887 7.1657 -1.5159 0.9711
-0.0000 8.2081 -1.7350 0.9670
-0.6624 8.2054 -1.7401 0.9669
-0.9962 8.2041 -1.7469 0.9668
-1.1503 7.0782 -1.5158 0.9711
-2.7772 8.3186 -1.8538 0.9648
-3.1280 8.2479 -1.8646 0.9646
-3.5256 8.2749 -1.9013 0.9639
-1.7978 3.4254 -0.8177 0.9843
-6.2214 9.0132 -2.3150 0.9562
-7.2603 8.1952 -2.3143 0.9562
-7.5844 7.8962 -2.3143 0.9562
-7.8962 7.5844 -2.3143 0.9562
-9.0618 6.2549 -2.3275 0.9560
-11.0442 4.1885 -2.4968 0.9529
-11.2151 3.7441 -2.4993 0.9528
-11.5880 2.3657 -2.5000 0.9528
-11.7886 0.9517 -2.5000 0.9528
-10.6372 0.0000 -2.5000 0.9572
-10.4222 -2.1277 -2.5000 0.9572
-10.3281 -2.5457 -2.5000 0.9572
-9.9460 -3.7720 -2.5000 0.9572
-9.7860 -4.1694 -2.5000 0.9572
-9.6102 -4.5601 -2.5000 0.9572
-9.4188 -4.9433 -2.5000 0.9572
-8.9904 -5.6852 -2.5000 0.9572
-8.5038 -6.3902 -2.5000 0.9572
-8.2396 -6.7275 -2.5000 0.9572
-7.6716 -7.3686 -2.5000 0.9572
-7.3687 -7.6716 -2.5000 0.9572
-7.0538 -7.9621 -2.5000 0.9572
-6.7275 -8.2396 -2.5000 0.9572
-6.3902 -8.5038 -2.5000 0.9572
-6.0426 -8.7542 -2.5000 0.9572
-4.1694 -9.7860 -2.5000 0.9572
-2.5457 -10.3281 -2.5000 0.9572
-2.1277 -10.4222 -2.5000 0.9572
-1.7063 -10.4994 -2.5000 0.9572
-1.2821 -10.5596 -2.5000 0.9572
0.4283 -10.6286 -2.5000 0.9572
0.8559 -10.6027 -2.5000 0.9572
1.2821 -10.5596 -2.5000 0.9572
2.1277 -10.4222 -2.5000 0.9572
2.5456 -10.3281 -2.5000 0.9572
2.9594 -10.2172 -2.5000 0.9572
3.7719 -9.9460 -2.5000 0.9572
4.1694 -9.7860 -2.5000 0.9572
4.5601 -9.6102 -2.5000 0.9572
4.9434 -9.4188 -2.5000 0.9572
5.3186 -9.2121 -2.5000 0.9572
5.6852 -8.9904 -2.5000 0.9572
6.3902 -8.5038 -2.5000 0.9572
6.7274 -8.2396 -2.5000 0.9572
7.6716 -7.3687 -2.5000 0.9572
7.9621 -7.0538 -2.5000 0.9572
8.2396 -6.7275 -2.5000 0.9572
8.7542 -6.0426 -2.5000 0.9572
9.4188 -4.9434 -2.5000 0.9572
9.6102 -4.5601 -2.5000 0.9572
9.7860 -4.1694 -2.5000 0.9572
9.9459 -3.7720 -2.5000 0.9572
10.2172 -2.9595 -2.5000 0.9572
10.3281 -2.5457 -2.5000 0.9572
10.4222 -2.1277 -2.5000 0.9572
10.4995 -1.7063 -2.5000 0.9572
10.5596 -1.2822 -2.5000 0.9572
10.4994 1.7063 -2.5000 0.9572
10.4222 2.1277 -2.5000 0.9572
9.1894 3.9153 -2.3476 0.9598
9.0243 4.2821 -2.3476 0.9598
8.6505 4.9944 -2.3476 0.9598
8.4424 5.3386 -2.3476 0.9598
8.2206 5.6742 -2.3476 0.9598
7.7373 6.3173 -2.3476 0.9598
7.4767 6.6237 -2.3476 0.9598
7.2101 6.9194 -2.3476 0.9598
6.5707 7.4168 -2.3288 0.9601
5.2970 8.3765 -2.3293 0.9601
3.2654 8.6103 -2.1643 0.9629
3.0059 9.0038 -2.2309 0.9617
1.9762 8.0179 -1.9408 0.9666
1.3035 8.0207 -1.9098 0.9672
0.0000 8.0221 -1.8854 0.9676
-2.1925 8.8953 -2.1532 0.9631
-2.4514 8.4630 -2.0708 0.9644
-2.7772 8.3186 -2.0611 0.9646
-3.1383 8.2749 -2.0800 0.9643
-3.5256 8.2749 -2.1139 0.9637
-3.8733 8.1627 -2.1235 0.9636
-1.7978 3.4254 -0.9092 0.9842
-4.9288 8.5370 -2.3168 0.9603
-6.5310 7.3719 -2.3147 0.9603
-6.8505 7.1321 -2.3242 0.9602
-7.1599 6.8772 -2.3332 0.9600
-7.9783 5.9953 -2.3455 0.9598
-8.2151 5.6705 -2.3460 0.9598
-8.4390 5.3365 -2.3466 0.9598
-8.8440 4.6417 -2.3474 0.9598
-10.0894 3.3683 -2.4999 0.9572
-10.6027 0.8559 -2.5000 0.9572
-10.6286 0.4283 -2.5000 0.9572
-9.6477 -0.3888 -2.5000 0.9609
-9.5851 -1.1638 -2.5000 0.9609
-9.5305 -1.5489 -2.5000 0.9609
-9.4604 -1.9314 -2.5000 0.9609
-9.2743 -2.6863 -2.5000 0.9609
-9.1586 -3.0576 -2.5000 0.9609
-8.5495 -4.4871 -2.5000 0.9609
-8.3619 -4.8278 -2.5000 0.9609
-7.4792 -6.1066 -2.5000 0.9609
-7.2273 -6.4028 -2.5000 0.9609
-6.9636 -6.6886 -2.5000 0.9609
-6.6886 -6.9636 -2.5000 0.9609
-5.8005 -7.7190 -2.5000 0.9609
-5.4850 -7.9463 -2.5000 0.9609
-4.8278 -8.3619 -2.5000 0.9609
-4.4871 -8.5495 -2.5000 0.9609
-3.4239 -9.0281 -2.5000 0.9609
-3.0576 -9.1586 -2.5000 0.9609
-2.6863 -9.2743 -2.5000 0.9609
-0.3888 -9.6477 -2.5000 0.9609
0.3888 -9.6477 -2.5000 0.9609
0.7770 -9.6242 -2.5000 0.9609
1.5488 -9.5305 -2.5000 0.9609
1.9314 -9.4604 -2.5000 0.9609
2.3107 -9.3749 -2.5000 0.9609
3.7846 -8.8829 -2.5000 0.9609
4.4871 -8.5496 -2.5000 0.9609
4.8278 -8.3619 -2.5000 0.9609
5.1605 -8.1608 -2.5000 0.9609
5.4850 -7.9463 -2.5000 0.9609
5.8005 -7.7190 -2.5000 0.9609
6.4028 -7.2273 -2.5000 0.9609
6.6886 -6.9636 -2.5000 0.9609
6.9636 -6.6886 -2.5000 0.9609
7.4792 -6.1066 -2.5000 0.9609
7.7190 -5.8005 -2.5000 0.9609
8.1607 -5.1605 -2.5000 0.9609
8.3619 -4.8278 -2.5000 0.9609
8.5495 -4.4871 -2.5000 0.9609
8.7233 -4.1392 -2.5000 0.9609
9.1586 -3.0576 -2.5000 0.9609
9.2743 -2.6863 -2.5000 0.9609
9.3749 -2.3107 -2.5000 0.9609
9.5305 -1.5489 -2.5000 0.9609
9.5851 -1.1638 -2.5000 0.9609
9.6556 0.0000 -2.5000 0.9609
9.6477 0.3888 -2.5000 0.9609
9.5851 1.1638 -2.5000 0.9609
9.4604 1.9314 -2.5000 0.9609
9.3749 2.3107 -2.5000 0.9609
9.2743 2.6863 -2.5000 0.9609
8.4777 3.2152 -2.3476 0.9632
8.3414 3.5539 -2.3476 0.9632
8.1915 3.8869 -2.3476 0.9632
7.6633 4.8460 -2.3476 0.9632
7.0233 5.7343 -2.3476 0.9632
6.7867 6.0125 -2.3476 0.9632
6.2809 6.5391 -2.3476 0.9632
6.0125 6.7867 -2.3476 0.9632
5.4008 7.1868 -2.3276 0.9635
4.8031 7.5955 -2.3268 0.9635
3.5226 8.2678 -2.3269 0.9635
3.1868 8.4030 -2.3269 0.9635
1.9317 7.8372 -2.0899 0.9672
0.2850 7.0723 -1.8326 0.9712
-0.0000 7.8411 -2.0302 0.9681
-0.3159 7.8398 -2.0315 0.9681
-0.9516 7.8373 -2.0441 0.9679
-1.1495 7.0729 -1.8553 0.9708
-2.1451 8.7028 -2.3207 0.9636
-2.4678 8.5198 -2.2966 0.9640
-3.0901 8.1478 -2.2562 0.9646
-1.7978 3.4254 -1.0016 0.9841
-4.7818 7.5618 -2.3165 0.9637
-5.0819 7.3624 -2.3163 0.9637
-5.7344 7.0231 -2.3475 0.9632
-6.7867 6.0125 -2.3476 0.9632
-7.0233 5.7343 -2.3476 0.9632
-7.2485 5.4469 -2.3476 0.9632
-7.6633 4.8459 -2.3476 0.9632
-7.8522 4.5334 -2.3476 0.9632
-8.1915 3.8869 -2.3476 0.9632
-8.3414 3.5539 -2.3476 0.9632
-9.2743 2.6863 -2.5000 0.9609
-9.3749 2.3107 -2.5000 0.9609
-9.4604 1.9313 -2.5000 0.9609
-9.5851 1.1638 -2.5000 0.9609
-9.6242 0.7770 -2.5000 0.9609
-8.8310 -0.0000 -2.5000 0.9640
-8.8024 -0.7106 -2.5000 0.9640
-8.7666 -1.0644 -2.5000 0.9640
-8.7166 -1.4166 -2.5000 0.9640
-8.4823 -2.4570 -2.5000 0.9640
-8.3765 -2.7965 -2.5000 0.9640
-8.2571 -3.1315 -2.5000 0.9640
-7.9783 -3.7858 -2.5000 0.9640
-7.8194 -4.1040 -2.5000 0.9640
-6.6101 -5.8560 -2.5000 0.9640
-5.5851 -6.8405 -2.5000 0.9640
-5.3052 -7.0599 -2.5000 0.9640
-5.0166 -7.2678 -2.5000 0.9640
-4.7199 -7.4638 -2.5000 0.9640
-4.1040 -7.8194 -2.5000 0.9640
-3.7858 -7.9783 -2.5000 0.9640
-3.4614 -8.1243 -2.5000 0.9640
-2.7965 -8.3765 -2.5000 0.9640
-2.1134 -8.5744 -2.5000 0.9640
-1.7664 -8.6525 -2.5000 0.9640
-1.4166 -8.7166 -2.5000 0.9640
-0.3556 -8.8238 -2.5000 0.9640
0.3556 -8.8238 -2.5000 0.9640
0.7106 -8.8023 -2.5000 0.9640
1.4166 -8.7166 -2.5000 0.9640
2.1134 -8.5744 -2.5000 0.9640
2.7965 -8.3765 -2.5000 0.9640
3.1315 -8.2571 -2.5000 0.9640
3.7858 -7.9784 -2.5000 0.9640
5.3051 -7.0599 -2.5000 0.9640
5.5851 -6.8405 -2.5000 0.9640
6.3689 -6.1174 -2.5000 0.9640
6.8405 -5.5851 -2.5000 0.9640
7.4639 -4.7199 -2.5000 0.9640
7.6479 -4.4155 -2.5000 0.9640
8.1243 -3.4614 -2.5000 0.9640
8.5744 -2.1134 -2.5000 0.9640
8.8237 -0.3556 -2.5000 0.9640
8.8310 0.0000 -2.5000 0.9640
8.7166 1.4166 -2.5000 0.9640
8.6525 1.7664 -2.5000 0.9640
8.4823 2.4569 -2.5000 0.9640
8.1201 2.7109 -2.4235 0.9650
7.7537 2.9406 -2.3476 0.9661
7.4920 3.5550 -2.3476 0.9661
7.3428 3.8538 -2.3476 0.9661
7.1816 4.1463 -2.3476 0.9661
7.0088 4.4321 -2.3476 0.9661
6.8247 4.7107 -2.3476 0.9661
5.9807 5.7445 -2.3476 0.9661
4.9817 6.6295 -2.3476 0.9661
4.7108 6.8247 -2.3476 0.9661
4.4289 7.0037 -2.3459 0.9661
1.8843 7.6449 -2.2290 0.9678
1.2439 7.6539 -2.1952 0.9683
0.9295 7.6552 -2.1830 0.9685
0.2853 7.0802 -2.0060 0.9710
-0.0000 7.6551 -2.1671 0.9687
-0.3084 7.6538 -2.1685 0.9687
-0.9290 7.6513 -2.1819 0.9685
-2.2792 7.8686 -2.3191 0.9665
-2.5938 7.7694 -2.3188 0.9665
-3.2098 7.5336 -2.3182 0.9665
-1.7978 3.4254 -1.0952 0.9840
-4.1243 7.1435 -2.3351 0.9663
-4.4319 7.0087 -2.3475 0.9661
-4.9817 6.6295 -2.3476 0.9661
-5.2446 6.4235 -2.3476 0.9661
-5.4990 6.2071 -2.3476 0.9661
-5.7445 5.9807 -2.3476 0.9661
-5.9807 5.7445 -2.3476 0.9661
-6.8247 4.7107 -2.3476 0.9661
-7.0089 4.4321 -2.3476 0.9661
-7.4920 3.5550 -2.3476 0.9661
-8.3765 2.7965 -2.5000 0.9640
-8.4823 2.4569 -2.5000 0.9640
-8.6525 1.7664 -2.5000 0.9640
-8.7666 1.0645 -2.5000 0.9640
-8.8023 0.7106 -2.5000 0.9640
-8.8238 0.3556 -2.5000 0.9640
-7.9637 -1.6258 -2.5000 0.9666
-7.8918 -1.9452 -2.5000 0.9666
-7.5998 -2.8822 -2.5000 0.9666
-7.4775 -3.1859 -2.5000 0.9666
-7.3432 -3.4844 -2.5000 0.9666
-7.0390 -4.0640 -2.5000 0.9666
-6.8697 -4.3441 -2.5000 0.9666
-6.4978 -4.8828 -2.5000 0.9666
-6.0839 -5.3898 -2.5000 0.9666
-5.3898 -6.0839 -2.5000 0.9666
-5.1405 -6.2960 -2.5000 0.9666
-4.8828 -6.4978 -2.5000 0.9666
-4.3441 -6.8697 -2.5000 0.9666
-3.1859 -7.4775 -2.5000 0.9666
-2.8822 -7.5998 -2.5000 0.9666
-2.5739 -7.7097 -2.5000 0.9666
-1.6258 -7.9637 -2.5000 0.9666
-1.3038 -8.0227 -2.5000 0.9666
-0.9797 -8.0687 -2.5000 0.9666
-0.3273 -8.1214 -2.5000 0.9666
0.6540 -8.1016 -2.5000 0.9666
0.9797 -8.0687 -2.5000 0.9666
1.6258 -7.9637 -2.5000 0.9666
1.9451 -7.8918 -2.5000 0.9666
2.2613 -7.8071 -2.5000 0.9666
2.5738 -7.7097 -2.5000 0.9666
2.8822 -7.5998 -2.5000 0.9666
3.1859 -7.4775 -2.5000 0.9666
3.7772 -7.1970 -2.5000 0.9666
4.3441 -6.8697 -2.5000 0.9666
4.6172 -6.6892 -2.5000 0.9666
5.3898 -6.0839 -2.5000 0.9666
6.0838 -5.3898 -2.5000 0.9666
6.2960 -5.1405 -2.5000 0.9666
6.6892 -4.6172 -2.5000 0.9666
6.8697 -4.3441 -2.5000 0.9666
7.0390 -4.0640 -2.5000 0.9666
7.1970 -3.7773 -2.5000 0.9666
7.5998 -2.8822 -2.5000 0.9666
8.0227 -1.3038 -2.5000 0.9666
8.1213 -0.3273 -2.5000 0.9666
8.1279 -0.0000 -2.5000 0.9666
8.1213 0.3273 -2.5000 0.9666
8.0227 1.3038 -2.5000 0.9666
7.9637 1.6258 -2.5000 0.9666
7.1795 2.7228 -2.3617 0.9684
7.0217 2.9917 -2.3476 0.9686
6.6099 3.8162 -2.3476 0.9686
6.2814 4.3358 -2.3476 0.9686
5.0612 5.7130 -2.3476 0.9686
4.3358 6.2814 -2.3476 0.9686
3.8162 6.6099 -2.3476 0.9686
2.0542 7.0920 -2.2710 0.9696
1.8080 7.3352 -2.3237 0.9689
1.2115 7.4547 -2.3230 0.9689
-0.0000 7.4845 -2.3021 0.9692
-1.8050 7.3229 -2.3198 0.9689
-2.0981 7.2434 -2.3195 0.9689
-2.6957 7.1080 -2.3382 0.9687
-4.8271 5.9121 -2.3476 0.9686
-5.0613 5.7130 -2.3476 0.9686
-5.5046 5.2872 -2.3476 0.9686
-5.7130 5.0613 -2.3476 0.9686
-5.9121 4.8271 -2.3476 0.9686
-6.2814 4.3357 -2.3476 0.9686
-6.4509 4.0793 -2.3476 0.9686
-6.6099 3.8162 -2.3476 0.9686
-6.7582 3.5470 -2.3476 0.9686
-7.7097 2.5738 -2.5000 0.9666
-7.8070 2.2613 -2.5000 0.9666
-7.8918 1.9451 -2.5000 0.9666
-7.9637 1.6258 -2.5000 0.9666
-8.0687 0.9797 -2.5000 0.9666
-8.1214 0.3273 -2.5000 0.9666
-7.5209 0.0000 -2.5000 0.9688
-7.5148 -0.3028 -2.5000 0.9688
-7.4660 -0.9066 -2.5000 0.9688
-7.2240 -2.0925 -2.5000 0.9688
-7.1338 -2.3816 -2.5000 0.9688
-6.9191 -2.9479 -2.5000 0.9688
-6.6594 -3.4951 -2.5000 0.9688
-6.5133 -3.7604 -2.5000 0.9688
-6.3566 -4.0197 -2.5000 0.9688
-6.1896 -4.2724 -2.5000 0.9688
-6.0125 -4.5181 -2.5000 0.9688
-5.4241 -5.2099 -2.5000 0.9688
-5.2099 -5.4241 -2.5000 0.9688
-4.9873 -5.6295 -2.5000 0.9688
-4.7565 -5.8257 -2.5000 0.9688
-3.7605 -6.5133 -2.5000 0.9688
-3.4951 -6.6594 -2.5000 0.9688
-2.9479 -6.9191 -2.5000 0.9688
-2.3816 -7.1338 -2.5000 0.9688
-2.0924 -7.2239 -2.5000 0.9688
-0.6052 -7.4965 -2.5000 0.9688
0.0000 -7.5209 -2.5000 0.9688
0.3028 -7.5148 -2.5000 0.9688
0.9065 -7.4660 -2.5000 0.9688
1.5044 -7.3689 -2.5000 0.9688
1.7999 -7.3023 -2.5000 0.9688
2.0924 -7.2239 -2.5000 0.9688
2.3816 -7.1338 -2.5000 0.9688
2.6669 -7.0322 -2.5000 0.9688
2.9479 -6.9191 -2.5000 0.9688
3.2241 -6.7948 -2.5000 0.9688
4.0196 -6.3566 -2.5000 0.9688
4.2723 -6.1896 -2.5000 0.9688
4.7566 -5.8257 -2.5000 0.9688
4.9873 -5.6295 -2.5000 0.9688
5.6295 -4.9873 -2.5000 0.9688
6.5133 -3.7604 -2.5000 0.9688
7.0321 -2.6669 -2.5000 0.9688
7.2239 -2.0925 -2.5000 0.9688
7.4235 -1.2064 -2.5000 0.9688
7.4965 -0.6052 -2.5000 0.9688
7.5209 0.0000 -2.5000 0.9688
7.4965 0.6052 -2.5000 0.9688
7.3689 1.5044 -2.5000 0.9688
7.2239 2.0924 -2.5000 0.9688
7.1338 2.3816 -2.5000 0.9688
7.0322 2.6669 -2.5000 0.9688
6.4973 2.7682 -2.3476 0.9707
5.8122 4.0119 -2.3476 0.9707
5.6460 4.2427 -2.3476 0.9707
4.8923 5.0934 -2.3476 0.9707
4.0119 5.8122 -2.3476 0.9707
3.7746 5.9691 -2.3476 0.9707
3.0276 6.3805 -2.3476 0.9707
2.7682 6.4973 -2.3476 0.9707
1.9649 6.7836 -2.3476 0.9707
1.1327 6.9708 -2.3476 0.9707
0.8510 7.0090 -2.3470 0.9707
0.2839 7.0444 -2.3435 0.9707
0.0000 7.0491 -2.3432 0.9707
-0.2839 7.0450 -2.3437 0.9707
-0.5677 7.0323 -2.3452 0.9707
-0.8512 7.0107 -2.3475 0.9707
-1.1328 6.9708 -2.3476 0.9707
-1.4127 6.9197 -2.3476 0.9707
-1.6902 6.8572 -2.3476 0.9707
-1.9649 6.7836 -2.3476 0.9707
-3.5312 6.1162 -2.3476 0.9707
-4.0119 5.8122 -2.3476 0.9707
-4.2427 5.6460 -2.3476 0.9707
-4.6832 5.2863 -2.3476 0.9707
-5.0934 4.8923 -2.3476 0.9707
-5.2863 4.6832 -2.3476 0.9707
-5.4706 4.4666 -2.3476 0.9707
-5.6460 4.2427 -2.3476 0.9707
-5.8123 4.0119 -2.3476 0.9707
-5.9691 3.7746 -2.3476 0.9707
-6.2534 3.2821 -2.3476 0.9707
-6.4973 2.7682 -2.3476 0.9707
-7.0322 2.6669 -2.5000 0.9688
-7.1338 2.3816 -2.5000 0.9688
-7.3689 1.5044 -2.5000 0.9688
-7.4235 1.2064 -2.5000 0.9688
-7.4660 0.9065 -2.5000 0.9688
-7.4965 0.6052 -2.5000 0.9688
-7.5148 0.3028 -2.5000 0.9688
-6.9909 0.0000 -2.5000 0.9707
-6.9852 -0.2815 -2.5000 0.9707
-6.9003 -1.1214 -2.5000 0.9707
-6.7877 -1.6730 -2.5000 0.9707
-6.5366 -2.4790 -2.5000 0.9707
-6.4315 -2.7402 -2.5000 0.9707
-6.3159 -2.9969 -2.5000 0.9707
-6.0543 -3.4954 -2.5000 0.9707
-5.9086 -3.7364 -2.5000 0.9707
-5.7534 -3.9713 -2.5000 0.9707
-5.5888 -4.1997 -2.5000 0.9707
-5.4152 -4.4213 -2.5000 0.9707
-5.0418 -4.8428 -2.5000 0.9707
-4.8427 -5.0418 -2.5000 0.9707
-4.4214 -5.4152 -2.5000 0.9707
-3.7364 -5.9086 -2.5000 0.9707
-3.4954 -6.0543 -2.5000 0.9707
-3.2488 -6.1901 -2.5000 0.9707
-2.9969 -6.3159 -2.5000 0.9707
-2.7402 -6.4315 -2.5000 0.9707
-2.2138 -6.6311 -2.5000 0.9707
-1.9450 -6.7149 -2.5000 0.9707
-0.8427 -6.9399 -2.5000 0.9707
-0.2815 -6.9852 -2.5000 0.9707
-0.0000 -6.9909 -2.5000 0.9707
0.2815 -6.9852 -2.5000 0.9707
0.5625 -6.9682 -2.5000 0.9707
1.6730 -6.7877 -2.5000 0.9707
2.7402 -6.4315 -2.5000 0.9707
3.4954 -6.0543 -2.5000 0.9707
3.9713 -5.7534 -2.5000 0.9707
4.1997 -5.5888 -2.5000 0.9707
4.6358 -5.2327 -2.5000 0.9707
5.0418 -4.8428 -2.5000 0.9707
5.2327 -4.6358 -2.5000 0.9707
5.5888 -4.1997 -2.5000 0.9707
6.0543 -3.4954 -2.5000 0.9707
6.3159 -2.9969 -2.5000 0.9707
6.5366 -2.4790 -2.5000 0.9707
6.6311 -2.2138 -2.5000 0.9707
6.7877 -1.6730 -2.5000 0.9707
6.9003 -1.1214 -2.5000 0.9707
6.9682 -0.5625 -2.5000 0.9707
6.9852 -0.2815 -2.5000 0.9707
6.9909 0.0000 -2.5000 0.9707
6.9682 0.5625 -2.5000 0.9707
6.9003 1.1214 -2.5000 0.9707
6.7877 1.6730 -2.5000 0.9707
5.6852 3.2824 -2.3476 0.9725
5.5484 3.5086 -2.3476 0.9725
5.4026 3.7292 -2.3476 0.9725
4.9137 4.3532 -2.3476 0.9725
4.5475 4.7345 -2.3476 0.9725
4.3532 4.9137 -2.3476 0.9725
4.1518 5.0851 -2.3476 0.9725
2.5731 6.0394 -2.3476 0.9725
1.8264 6.3055 -2.3476 0.9725
1.3131 6.4320 -2.3476 0.9725
1.0530 6.4797 -2.3476 0.9725
0.5282 6.5434 -2.3476 0.9725
0.0000 6.5647 -2.3476 0.9725
-0.5282 6.5434 -2.3476 0.9725
-1.0531 6.4797 -2.3476 0.9725
-2.0788 6.2269 -2.3476 0.9725
-2.3279 6.1381 -2.3476 0.9725
-2.8142 5.9309 -2.3476 0.9725
-3.9437 5.2481 -2.3476 0.9725
-4.1518 5.0850 -2.3476 0.9725
-4.3532 4.9137 -2.3476 0.9725
-4.9138 4.3532 -2.3476 0.9725
-5.6852 3.2823 -2.3476 0.9725
-5.9309 2.8142 -2.3476 0.9725
-6.3394 2.7010 -2.4642 0.9712
-6.5366 2.4790 -2.5000 0.9707
-6.8496 1.3984 -2.5000 0.9707
-6.9682 0.5625 -2.5000 0.9707
-6.9852 0.2815 -2.5000 0.9707
-3.5504 0.0000 -1.3606 0.9849
-3.5687 -0.2881 -1.3720 0.9848
-3.5921 -0.4362 -1.3867 0.9846
-6.3341 -1.5612 -2.5000 0.9724
-6.1879 -2.0658 -2.5000 0.9724
-6.0997 -2.3133 -2.5000 0.9724
-5.7764 -3.0317 -2.5000 0.9724
-5.6497 -3.2618 -2.5000 0.9724
-5.5138 -3.4867 -2.5000 0.9724
-5.2153 -3.9190 -2.5000 0.9724
-5.0533 -4.1259 -2.5000 0.9724
-4.8830 -4.3260 -2.5000 0.9724
-4.7049 -4.5191 -2.5000 0.9724
-4.1259 -5.0533 -2.5000 0.9724
-3.9191 -5.2153 -2.5000 0.9724
-3.7059 -5.3689 -2.5000 0.9724
-3.2618 -5.6497 -2.5000 0.9724
-2.7966 -5.8938 -2.5000 0.9724
-1.8150 -6.2661 -2.5000 0.9724
-0.7863 -6.4761 -2.5000 0.9724
-0.2627 -6.5184 -2.5000 0.9724
0.0000 -6.5237 -2.5000 0.9724
0.5249 -6.5025 -2.5000 0.9724
0.7863 -6.4761 -2.5000 0.9724
1.3049 -6.3918 -2.5000 0.9724
1.5612 -6.3341 -2.5000 0.9724
1.8150 -6.2661 -2.5000 0.9724
2.3133 -6.0997 -2.5000 0.9724
2.5571 -6.0016 -2.5000 0.9724
3.4867 -5.5137 -2.5000 0.9724
4.5191 -4.7049 -2.5000 0.9724
5.5137 -3.4867 -2.5000 0.9724
6.0016 -2.5571 -2.5000 0.9724
6.0997 -2.3133 -2.5000 0.9724
6.4392 -1.0465 -2.5000 0.9724
6.5185 -0.2627 -2.5000 0.9724
6.5025 0.5249 -2.5000 0.9724
6.4761 0.7863 -2.5000 0.9724
6.3918 1.3049 -2.5000 0.9724
6.3341 1.5612 -2.5000 0.9724
6.2661 1.8150 -2.5000 0.9724
6.0016 2.5571 -2.5000 0.9724
5.7114 2.7101 -2.4226 0.9733
5.4243 2.8469 -2.3476 0.9741
5.3053 3.0630 -2.3476 0.9741
4.8974 3.6801 -2.3476 0.9741
4.4181 4.2436 -2.3476 0.9741
4.2436 4.4181 -2.3476 0.9741
3.6801 4.8974 -2.3476 0.9741
3.4799 5.0416 -2.3476 0.9741
2.8469 5.4243 -2.3476 0.9741
2.6262 5.5345 -2.3476 0.9741
2.4012 5.6358 -2.3476 0.9741
2.1723 5.7279 -2.3476 0.9741
1.4661 5.9480 -2.3476 0.9741
1.2254 6.0022 -2.3476 0.9741
0.7384 6.0813 -2.3476 0.9741
0.4929 6.1061 -2.3476 0.9741
-0.0000 6.1260 -2.3476 0.9741
-0.2467 6.1210 -2.3476 0.9741
-0.4929 6.1061 -2.3476 0.9741
-1.2254 6.0022 -2.3476 0.9741
-1.7044 5.8841 -2.3476 0.9741
-1.9399 5.8107 -2.3476 0.9741
-2.1723 5.7279 -2.3476 0.9741
-3.0630 5.3053 -2.3476 0.9741
-3.2741 5.1776 -2.3476 0.9741
-3.4800 5.0416 -2.3476 0.9741
-3.6801 4.8974 -2.3476 0.9741
-3.8744 4.7452 -2.3476 0.9741
-4.4181 4.2436 -2.3476 0.9741
-4.7452 3.8743 -2.3476 0.9741
-4.8974 3.6801 -2.3476 0.9741
-6.0016 2.5571 -2.5000 0.9724
-6.1879 2.0658 -2.5000 0.9724
-6.2661 1.8150 -2.5000 0.9724
-6.3341 1.5612 -2.5000 0.9724
-6.3918 1.3049 -2.5000 0.9724
-6.4392 1.0465 -2.5000 0.9724
-3.5687 0.2881 -1.3720 0.9848
-2.8160 -0.0000 -1.1525 0.9879
-2.9323 -0.3560 -1.2089 0.9873
-3.0246 -0.4916 -1.2541 0.9868
-3.0070 -0.6139 -1.2561 0.9868
-5.8672 -1.6995 -2.5000 0.9739
-5.7940 -1.9343 -2.5000 0.9739
-5.5186 -2.6186 -2.5000 0.9739
-5.1627 -3.2647 -2.5000 0.9739
-5.0271 -3.4699 -2.5000 0.9739
-4.8832 -3.6695 -2.5000 0.9739
-4.7315 -3.8632 -2.5000 0.9739
-4.5721 -4.0506 -2.5000 0.9739
-4.2314 -4.4053 -2.5000 0.9739
-3.8632 -4.7315 -2.5000 0.9739
-3.6695 -4.8833 -2.5000 0.9739
-3.4699 -5.0271 -2.5000 0.9739
-3.2647 -5.1627 -2.5000 0.9739
-3.0542 -5.2900 -2.5000 0.9739
-2.1661 -5.7114 -2.5000 0.9739
-1.9343 -5.7940 -2.5000 0.9739
-1.6995 -5.8672 -2.5000 0.9739
-1.2218 -5.9849 -2.5000 0.9739
-0.9798 -6.0292 -2.5000 0.9739
-0.7363 -6.0638 -2.5000 0.9739
-0.2460 -6.1034 -2.5000 0.9739
-0.0000 -6.1083 -2.5000 0.9739
0.2460 -6.1034 -2.5000 0.9739
0.4915 -6.0885 -2.5000 0.9739
0.7363 -6.0638 -2.5000 0.9739
0.9799 -6.0292 -2.5000 0.9739
1.2218 -5.9849 -2.5000 0.9739
1.4618 -5.9308 -2.5000 0.9739
1.6994 -5.8672 -2.5000 0.9739
2.1660 -5.7114 -2.5000 0.9739
2.6186 -5.5186 -2.5000 0.9739
2.8387 -5.4087 -2.5000 0.9739
3.2647 -5.1627 -2.5000 0.9739
3.8632 -4.7315 -2.5000 0.9739
4.5721 -4.0506 -2.5000 0.9739
