ply
format ascii 1.0
element vertex 1569
property float32 x
property float32 y
property float32 z
property float32 I
end_header
1.1632 9.5796 1.2566 0.9618
0.7734 9.5808 1.2517 0.9620
0.0000 9.5808 1.2476 0.9621
-0.7733 9.5786 1.2514 0.9620
-1.1629 9.5775 1.2563 0.9618
-1.5642 9.6248 1.2698 0.9614
-2.2129 8.9780 1.2041 0.9634
-2.4731 8.5383 1.1576 0.9648
-3.0956 8.1624 1.1368 0.9654
-3.4535 8.1057 1.1473 0.9651
-4.4417 8.4629 1.2446 0.9622
-22.7425 25.6710 4.4661 0.8708
-23.8102 24.7890 4.4759 0.8705
-23.0791 13.3247 3.4703 0.8981
-31.3040 13.3374 4.4310 0.8717
-31.5124 7.7671 4.2264 0.8773
-41.7780 8.5290 5.5526 0.8420
-41.1394 -23.7518 5.1010 0.8260
-21.1008 -18.6937 3.0271 0.8928
-17.4319 -18.1484 2.7022 0.9037
-17.5861 -19.8505 2.8478 0.8988
-15.4976 -20.6236 2.7702 0.9014
-14.6718 -21.2558 2.7734 0.9013
-13.1651 -27.7448 3.2977 0.8838
-12.0911 -28.3787 3.3124 0.8833
-9.3978 -38.1283 4.2168 0.8539
-1.7506 -21.6847 2.3361 0.9162
-0.8629 -21.4112 2.3010 0.9174
0.7163 -17.7757 1.9103 0.9309
2.2788 -18.7678 2.0301 0.9268
2.9830 -18.3548 1.9968 0.9279
7.8535 -18.4328 2.1515 0.9226
8.3432 -17.5830 2.0899 0.9247
10.6058 -16.7717 2.1309 0.9233
12.5585 -16.7123 2.2448 0.9193
26.0039 7.5321 2.9071 0.8968
20.2603 8.6321 2.3648 0.9152
19.7959 9.3933 2.3529 0.9156
18.4974 9.7082 2.2432 0.9194
12.3622 8.5330 1.6130 0.9414
12.0157 9.0292 1.6140 0.9413
11.8744 10.5198 1.7035 0.9382
7.7140 8.0312 1.1958 0.9562
7.8750 8.8890 1.2752 0.9533
7.5247 9.2161 1.2776 0.9533
7.4746 9.9470 1.3361 0.9512
7.0235 10.1753 1.3277 0.9515
4.7103 8.1584 1.0116 0.9628
4.3430 8.2749 1.0035 0.9631
3.0274 9.0682 1.0266 0.9623
2.7878 9.6248 1.0760 0.9605
1.9649 9.6248 1.0548 0.9613
1.5733 9.6811 1.0532 0.9613
1.1755 9.6811 1.0472 0.9615
0.3879 9.6248 1.0344 0.9620
-0.3901 9.6811 1.0404 0.9618
-0.7816 9.6811 1.0430 0.9617
-1.1687 9.6248 1.0411 0.9617
-3.8838 8.1850 0.9728 0.9642
-24.0258 41.6140 5.1599 0.8242
-21.5187 26.3556 3.6536 0.8721
-22.7514 25.6811 3.6842 0.8711
-23.7287 24.7042 3.6783 0.8713
-22.8696 17.1854 3.0719 0.8913
-22.2630 14.0783 2.8285 0.8995
-23.0877 13.3297 2.8627 0.8983
-31.8439 13.5674 3.7169 0.8700
-35.6278 13.5118 4.0917 0.8579
-43.5021 14.5232 4.9248 0.8315
-31.3285 7.7218 3.4648 0.8783
-31.8365 6.4995 3.4892 0.8775
-39.7483 6.4597 4.3242 0.8504
-42.8376 -22.4829 4.0954 0.8235
-41.4753 -23.9458 4.0542 0.8251
-25.1452 -20.5304 2.7480 0.8778
-19.7781 -18.9972 2.3215 0.8958
-18.4138 -19.1707 2.2502 0.8988
-20.3121 -22.9276 2.5930 0.8843
-16.5857 -20.3137 2.2200 0.9001
-14.8177 -21.4672 2.2081 0.9006
-17.4669 -27.6218 2.7665 0.8770
-10.1699 -17.6148 1.7217 0.9216
-14.4133 -27.4622 2.6255 0.8829
-14.8285 -44.4167 3.9640 0.8286
-10.7635 -37.1596 3.2750 0.8562
-5.5784 -27.3247 2.3608 0.8941
-0.8040 -19.9496 1.6902 0.9230
0.0000 -33.6096 2.8451 0.8738
2.8752 -17.6920 1.5173 0.9306
3.7605 -18.4201 1.5915 0.9273
4.5959 -18.6465 1.6257 0.9258
8.8515 -18.6541 1.7479 0.9205
8.3547 -15.9185 1.5219 0.9304
15.5225 -22.4882 2.3132 0.8961
11.9537 -15.9075 1.6844 0.9232
26.0040 7.5321 2.2918 0.8970
20.1436 8.5824 1.8535 0.9159
12.4148 8.5693 1.2770 0.9412
9.2503 8.8850 1.0858 0.9498
11.8744 12.3625 1.4511 0.9335
8.5831 10.5124 1.1488 0.9470
7.2398 9.6344 1.0202 0.9528
7.2774 10.5432 1.0845 0.9499
4.7103 8.1584 0.7975 0.9629
4.3430 8.2749 0.7911 0.9632
3.0274 9.0682 0.8093 0.9623
1.9649 9.6248 0.8316 0.9613
1.5733 9.6811 0.8303 0.9614
1.1772 9.6951 0.8267 0.9616
0.7815 9.6811 0.8222 0.9618
-0.0000 9.6811 0.8195 0.9619
-0.7816 9.6811 0.8222 0.9618
-1.1687 9.6248 0.8207 0.9618
-1.5642 9.6248 0.8255 0.9616
-1.9649 9.6248 0.8316 0.9613
-2.2414 9.0938 0.7929 0.9631
-2.5087 8.6611 0.7633 0.9644
-3.0956 8.1624 0.7390 0.9656
-3.5142 8.2482 0.7590 0.9646
-3.8838 8.1850 0.7669 0.9643
-4.4197 8.4211 0.8051 0.9625
-10.2167 17.6959 1.7298 0.9212
-22.0041 24.8375 2.8090 0.8753
-25.6403 24.6279 3.0096 0.8670
-30.2441 26.7939 3.4204 0.8503
-22.0436 17.9980 2.4090 0.8920
-20.7787 15.6142 2.2003 0.9009
-21.0333 14.5183 2.1635 0.9025
-21.3392 13.4941 2.1373 0.9036
-21.6919 12.5238 2.1204 0.9043
-29.7426 14.1130 2.7869 0.8762
-41.1100 -23.7349 2.9436 0.8268
-21.3473 -17.4295 1.7089 0.8954
-17.7501 -21.7398 1.7404 0.8936
-15.3187 -20.3854 1.5812 0.9029
-17.5909 -27.8179 2.0410 0.8764
-14.6603 -27.9329 1.9562 0.8812
-10.9537 -28.8825 1.9155 0.8836
-5.4804 -26.8447 1.6990 0.8960
-3.3695 -20.7335 1.3026 0.9193
-1.7175 -21.2745 1.3235 0.9180
2.9628 -24.4011 1.5242 0.9062
9.4288 -38.2544 2.4432 0.8539
10.6004 -16.7633 1.2299 0.9236
12.7764 -17.0024 1.3188 0.9183
13.5606 -16.6087 1.3296 0.9177
18.4962 -20.8778 1.7296 0.8942
25.7200 -24.7043 2.2115 0.8668
26.0039 7.5321 1.6788 0.8972
20.2033 8.6077 1.3618 0.9158
19.8062 9.3982 1.3594 0.9159
18.2518 9.5793 1.2782 0.9207
16.6705 9.6248 1.1937 0.9258
12.9664 8.1995 0.9513 0.9404
12.4861 8.6185 0.9408 0.9410
12.1160 9.1046 0.9398 0.9411
11.9372 9.7464 0.9556 0.9401
11.9372 10.5755 0.9889 0.9381
12.0424 11.5669 1.0354 0.9353
8.5142 9.6106 0.7962 0.9498
8.0252 10.6797 0.8284 0.9479
7.2209 11.4189 0.8378 0.9473
4.7103 8.1584 0.5842 0.9629
4.3430 8.2749 0.5795 0.9632
3.8724 8.1609 0.5601 0.9644
3.5616 8.3594 0.5635 0.9642
3.2979 8.6958 0.5767 0.9634
3.0274 9.0682 0.5928 0.9624
2.7878 9.6248 0.6214 0.9606
2.3723 9.6248 0.6147 0.9611
1.5733 9.6811 0.6082 0.9615
0.7815 9.6811 0.6023 0.9618
-0.0000 9.6811 0.6003 0.9619
-0.3901 9.6811 0.6008 0.9619
-0.7816 9.6811 0.6023 0.9618
-1.1687 9.6248 0.6012 0.9619
-1.5642 9.6248 0.6047 0.9617
-1.9649 9.6248 0.6091 0.9614
-2.7913 8.3609 0.5466 0.9653
-3.8838 8.1850 0.5618 0.9643
-23.9746 41.5252 2.9733 0.8252
-23.1391 28.3402 2.2688 0.8636
-22.6836 25.6044 2.1212 0.8719
-25.1454 24.1525 2.1620 0.8696
-30.3623 26.8987 2.5154 0.8500
-22.9509 17.2464 1.7802 0.8913
-22.8813 13.2105 1.6384 0.8995
-23.2284 12.1912 1.6267 0.9002
-23.0689 10.9463 1.5834 0.9027
-35.7190 13.5464 2.3688 0.8580
-30.7924 8.9191 1.9879 0.8794
-39.0630 6.3484 2.4541 0.8533
-41.5428 5.0442 2.5950 0.8456
-42.7440 -22.4338 1.9035 0.8243
-39.7372 -22.9423 1.8093 0.8322
-21.5070 -17.5599 1.0948 0.8948
-18.0406 -18.7823 1.0269 0.9010
-18.6242 -21.0224 1.1074 0.8937
-19.4987 -23.8815 1.2157 0.8839
-14.2728 -20.6776 0.9907 0.9043
-10.1680 -17.6114 0.8019 0.9218
-17.4216 -33.1941 1.4782 0.8606
-11.0285 -29.0798 1.2263 0.8829
-14.8112 -44.3649 1.8443 0.8293
-0.8447 -20.9610 0.8272 0.9195
-0.0000 -21.3834 0.8432 0.9180
0.8972 -22.2644 0.8786 0.9147
1.9560 -24.2288 0.9585 0.9073
2.8477 -23.4528 0.9316 0.9098
6.5731 -26.6680 1.0830 0.8959
7.1314 -24.6203 1.0107 0.9025
6.9111 -20.7013 0.8606 0.9163
8.3040 -17.5003 0.7638 0.9254
8.7132 -16.6017 0.7393 0.9277
10.1813 -16.1004 0.7511 0.9266
10.4856 -15.1910 0.7278 0.9288
12.2714 -16.3303 0.8055 0.9215
19.3860 -20.1830 1.1035 0.8940
25.7186 -24.7031 1.4064 0.8670
26.0039 7.5321 1.0675 0.8973
21.6122 8.1964 0.9114 0.9116
20.2960 8.6473 0.8699 0.9155
12.1160 9.1046 0.5976 0.9411
11.9372 9.7465 0.6077 0.9402
7.6495 10.1797 0.5021 0.9503
7.3484 10.6460 0.5101 0.9495
9.0506 14.3124 0.6677 0.9345
3.5616 8.3594 0.3583 0.9643
3.2979 8.6958 0.3667 0.9635
1.5733 9.6811 0.3867 0.9615
0.7815 9.6811 0.3830 0.9619
0.3879 9.6248 0.3798 0.9622
-0.0000 9.6811 0.3817 0.9620
-0.7822 9.6887 0.3833 0.9618
-1.1687 9.6248 0.3823 0.9619
-1.9649 9.6248 0.3873 0.9614
-3.5144 8.2485 0.3535 0.9647
-4.4197 8.4211 0.3750 0.9626
-23.7896 24.7676 1.3541 0.8716
-30.2439 26.7938 1.5932 0.8507
-21.1023 17.2295 1.0742 0.8967
-21.5708 14.8893 1.0335 0.9004
-29.8028 14.1416 1.3007 0.8763
-31.8401 13.5658 1.3647 0.8706
-34.6446 13.1389 1.4610 0.8622
-41.6493 13.9046 1.7314 0.8388
-30.9674 6.3221 1.2463 0.8812
-40.0087 6.5020 1.5983 0.8502
-41.9187 -22.0006 0.7997 0.8275
-41.0263 -23.6866 0.8002 0.8274
-40.1917 -25.4157 0.8033 0.8268
-21.2257 -15.9501 0.4485 0.8992
-21.8073 -17.8051 0.4756 0.8935
-20.1441 -17.8462 0.4546 0.8979
-18.4775 -19.2371 0.4506 0.8988
-15.3540 -20.4325 0.4317 0.9028
-14.0297 -20.3255 0.4172 0.9059
-13.9270 -22.0237 0.4402 0.9010
-10.1663 -17.6085 0.3435 0.9219
-17.3426 -36.5487 0.6833 0.8506
-15.6259 -36.6752 0.6734 0.8526
-11.1799 -29.4789 0.5326 0.8815
-8.3417 -24.9865 0.4450 0.9000
-13.3333 -46.0317 0.8095 0.8255
-6.3271 -25.6700 0.4466 0.8996
-4.3321 -26.6562 0.4562 0.8976
-0.0000 -20.8052 0.3514 0.9201
2.9212 -24.0585 0.4094 0.9076
5.0628 -24.7992 0.4275 0.9037
6.0561 -24.5706 0.4275 0.9037
7.8473 -18.4182 0.3382 0.9230
8.4722 -17.8547 0.3338 0.9240
8.1123 -15.4567 0.2949 0.9325
10.5964 -16.7568 0.3349 0.9237
11.4019 -15.1731 0.3206 0.9269
17.2896 -19.5158 0.4404 0.9009
20.3661 -21.2034 0.4966 0.8890
25.7163 -24.7009 0.6023 0.8671
26.0040 7.5321 0.4573 0.8974
21.6122 8.1964 0.3905 0.9117
20.2960 8.6473 0.3727 0.9155
19.8062 9.3982 0.3703 0.9160
16.7682 9.6811 0.3271 0.9255
12.9664 8.1995 0.2591 0.9405
12.4861 8.6185 0.2563 0.9411
12.1160 9.1046 0.2560 0.9412
11.9372 9.7464 0.2603 0.9402
11.9372 10.5755 0.2694 0.9382
7.3077 9.7248 0.2055 0.9525
6.9827 10.1162 0.2076 0.9520
4.7103 8.1584 0.1591 0.9630
4.3430 8.2749 0.1579 0.9633
3.8724 8.1609 0.1526 0.9645
3.2979 8.6958 0.1571 0.9635
3.0274 9.0682 0.1615 0.9625
2.3723 9.6248 0.1674 0.9611
0.7815 9.6811 0.1641 0.9619
0.3879 9.6248 0.1627 0.9622
-0.0000 9.6811 0.1635 0.9620
-0.7822 9.6888 0.1642 0.9619
-1.1687 9.6248 0.1638 0.9620
-1.9649 9.6248 0.1659 0.9615
-2.7913 8.3609 0.1489 0.9654
-3.5144 8.2485 0.1515 0.9648
-3.8838 8.1850 0.1530 0.9644
-30.6159 34.5582 0.7799 0.8314
-31.3408 32.6292 0.7642 0.8344
-31.2704 30.0357 0.7324 0.8408
-32.3125 26.3823 0.7046 0.8463
-10.2446 7.6984 0.2165 0.9500
-29.7531 14.1180 0.5563 0.8766
-31.8696 13.5784 0.5852 0.8706
-35.7190 13.5464 0.6453 0.8583
-41.8370 13.9673 0.7450 0.8382
-31.1924 9.0350 0.5486 0.8782
-30.3701 7.4856 0.5284 0.8824
-31.5308 6.4371 0.5436 0.8792
-40.3279 4.8967 0.6862 0.8500
-39.3029 -20.6278 -0.2499 0.8373
-41.6347 -24.0378 -0.2707 0.8251
-36.4111 -23.0251 -0.2426 0.8417
-19.2381 -17.0435 -0.1447 0.9023
-17.8605 -18.5948 -0.1452 0.9020
-13.3378 -21.0920 -0.1405 0.9050
-21.9105 -41.7471 -0.2654 0.8281
-20.8494 -43.9391 -0.2738 0.8232
-15.5253 -36.4392 -0.2230 0.8535
-9.3502 -24.6544 -0.1485 0.8999
-7.5429 -22.5939 -0.1341 0.9091
-5.7416 -23.2944 -0.1351 0.9085
-3.2608 -15.9726 -0.0918 0.9369
-4.1585 -25.5883 -0.1460 0.9015
-3.2449 -26.7237 -0.1516 0.8979
-2.2246 -27.5568 -0.1557 0.8953
0.0000 -23.3187 -0.1313 0.9109
1.9157 -23.7304 -0.1340 0.9092
3.0533 -25.1465 -0.1426 0.9036
6.3885 -39.3098 -0.2242 0.8527
8.2096 -40.2134 -0.2311 0.8486
10.5741 -36.5063 -0.2140 0.8590
10.0793 -26.5768 -0.1600 0.8925
8.4060 -19.7297 -0.1207 0.9178
8.2631 -17.4140 -0.1085 0.9258
8.8079 -16.7820 -0.1067 0.9270
9.0519 -15.6784 -0.1019 0.9301
13.0652 -18.9281 -0.1295 0.9121
14.3627 -19.1133 -0.1346 0.9088
17.8927 -20.1966 -0.1519 0.8977
25.7135 -24.6982 -0.2007 0.8671
26.0619 -19.5842 -0.1835 0.8777
26.0039 7.5321 -0.1524 0.8974
21.6122 8.1964 -0.1301 0.9117
19.8062 9.3982 -0.1234 0.9160
18.4459 9.6811 -0.1173 0.9200
16.7682 9.6811 -0.1090 0.9255
12.9664 8.1995 -0.0864 0.9405
12.4861 8.6185 -0.0854 0.9411
10.0494 9.6526 -0.0785 0.9458
8.5515 9.6526 -0.0726 0.9497
7.8811 9.6526 -0.0702 0.9514
7.2534 9.6526 -0.0680 0.9529
6.6627 9.6526 -0.0660 0.9542
6.0522 9.5708 -0.0638 0.9557
3.8724 8.1609 -0.0509 0.9645
3.2979 8.6958 -0.0524 0.9635
3.0274 9.0682 -0.0538 0.9625
1.1755 9.6811 -0.0549 0.9617
0.3879 9.6248 -0.0542 0.9622
-0.7816 9.6811 -0.0547 0.9619
-1.1687 9.6248 -0.0546 0.9620
-1.5642 9.6248 -0.0549 0.9617
-3.0956 8.1624 -0.0491 0.9657
-3.8838 8.1850 -0.0510 0.9644
-4.4197 8.4211 -0.0535 0.9627
-31.3268 32.6147 -0.2546 0.8345
-10.2446 7.6984 -0.0721 0.9500
-30.9439 21.3591 -0.2117 0.8604
-30.8868 17.8325 -0.2008 0.8670
-29.7531 14.1180 -0.1854 0.8766
-31.8696 13.5783 -0.1950 0.8706
-29.3342 11.1250 -0.1766 0.8821
-29.3342 9.7933 -0.1741 0.8836
-29.4566 6.0136 -0.1693 0.8867
-47.1503 5.7251 -0.2674 0.8270
-44.4162 -16.8448 -1.3376 0.8269
-39.4800 -16.8208 -1.2084 0.8422
-35.2435 -16.7232 -1.0984 0.8555
-31.5552 -16.5614 -1.0035 0.8671
-36.6228 -23.1590 -1.2201 0.8408
-24.0896 -19.6685 -0.8757 0.8830
-19.6314 -17.3919 -0.7385 0.9004
-18.3622 -17.6371 -0.7169 0.9031
-19.5834 -22.1050 -0.8316 0.8885
-18.2789 -22.3875 -0.8138 0.8908
-21.9055 -41.7375 -1.3273 0.8281
-10.3202 -24.2224 -0.7414 0.9000
-8.5388 -22.5149 -0.6780 0.9081
-7.5155 -22.5116 -0.6683 0.9094
-6.5430 -22.5889 -0.6622 0.9102
-4.3221 -26.5951 -0.7587 0.8978
-3.5205 -28.9942 -0.8224 0.8897
-2.1608 -26.7657 -0.7561 0.8981
1.0176 -25.2512 -0.7116 0.9038
2.0130 -24.9358 -0.7044 0.9047
3.3481 -27.5738 -0.7821 0.8948
6.4834 -19.4200 -0.5765 0.9213
9.0255 -15.6327 -0.5083 0.9303
9.6590 -15.2746 -0.5089 0.9302
16.7035 -18.8543 -0.7093 0.9041
14.9938 -15.6102 -0.6095 0.9170
25.7107 -24.6955 -1.0038 0.8671
26.0264 -21.2499 -0.9461 0.8742
26.0040 7.5322 -0.7623 0.8973
20.2960 8.6473 -0.6212 0.9155
17.1324 8.9918 -0.5448 0.9255
12.3309 8.5114 -0.4219 0.9418
11.7221 9.5708 -0.4261 0.9412
10.0494 9.6526 -0.3924 0.9458
7.8811 9.6526 -0.3509 0.9514
7.2534 9.6526 -0.3400 0.9528
4.3430 8.2749 -0.2631 0.9633
3.5616 8.3594 -0.2559 0.9643
3.0145 9.0296 -0.2680 0.9626
2.3723 9.6248 -0.2791 0.9611
1.9649 9.6248 -0.2766 0.9615
1.5733 9.6811 -0.2762 0.9615
1.1759 9.6849 -0.2747 0.9617
0.7815 9.6811 -0.2735 0.9619
-0.0000 9.6811 -0.2726 0.9620
-0.3904 9.6872 -0.2730 0.9619
-0.7821 9.6874 -0.2737 0.9619
-1.1687 9.6248 -0.2730 0.9619
-1.5642 9.6248 -0.2746 0.9617
-1.9649 9.6248 -0.2766 0.9615
-2.5221 8.7074 -0.2553 0.9644
-2.7913 8.3609 -0.2482 0.9653
-3.8838 8.1850 -0.2551 0.9644
-30.3246 29.1272 -1.1840 0.8451
-30.2911 26.8356 -1.1395 0.8505
-32.3125 26.3823 -1.1746 0.8463
-10.2446 7.6984 -0.3608 0.9500
-29.8862 17.2548 -0.9717 0.8710
-29.5326 15.4999 -0.9391 0.8751
-29.3342 11.1250 -0.8834 0.8820
-29.3342 9.7933 -0.8708 0.8836
-29.3342 8.4968 -0.8599 0.8850
-29.3342 7.2303 -0.8507 0.8861
-37.5261 6.0986 -1.0705 0.8589
-49.2955 0.0000 -2.5000 0.8208
-49.2555 -1.9849 -2.5000 0.8208
-49.1356 -3.9666 -2.5000 0.8208
-48.2992 -9.8604 -2.5000 0.8208
-43.3183 -16.4285 -2.3495 0.8306
-40.6564 -17.3221 -2.2412 0.8378
-35.2435 -16.7232 -1.9784 0.8554
-28.7047 -16.5726 -1.6809 0.8757
-20.0795 -16.3944 -1.3146 0.9014
-14.3204 -16.1644 -1.0952 0.9171
-13.3818 -16.3897 -1.0731 0.9187
-19.5161 -28.2739 -1.7423 0.8714
-24.5364 -38.8012 -2.3282 0.8320
-10.2558 -24.0712 -1.3269 0.9005
-6.4299 -22.1985 -1.1721 0.9116
-3.2508 -15.9234 -0.8242 0.9370
-1.8434 -45.7430 -2.3217 0.8325
1.0716 -26.5918 -1.3497 0.8989
3.6843 -45.6388 -2.3221 0.8324
5.5197 -45.4588 -2.3223 0.8324
7.3468 -45.2065 -2.3227 0.8324
10.9650 -44.4865 -2.3236 0.8323
9.4523 -28.3128 -1.5138 0.8873
12.5369 -26.4209 -1.4831 0.8895
24.6838 -39.0342 -2.3422 0.8311
10.7587 -15.5868 -0.9605 0.9270
11.6964 -15.5652 -0.9874 0.9250
25.6220 -24.6103 -1.8017 0.8674
20.5445 -15.4382 -1.3033 0.9022
43.6492 -22.9089 -2.5000 0.8208
44.4650 -21.0989 -2.4960 0.8211
45.3476 -15.1393 -2.4245 0.8257
47.0787 -13.6365 -2.4857 0.8218
48.2992 -9.8605 -2.5000 0.8208
49.1356 -3.9667 -2.5000 0.8208
49.2555 -1.9849 -2.5000 0.8208
46.7695 3.7756 -2.3796 0.8287
45.3552 9.2594 -2.3476 0.8308
44.9706 11.0843 -2.3489 0.8307
44.0798 14.7161 -2.3568 0.8302
18.8179 8.0176 -1.0373 0.9213
17.0927 8.1106 -0.9595 0.9270
15.5758 8.1748 -0.8921 0.9320
12.9664 8.1995 -0.7780 0.9404
12.4861 8.6185 -0.7694 0.9410
11.0745 9.0420 -0.7251 0.9443
9.2714 9.6526 -0.6788 0.9478
6.6627 9.6526 -0.5948 0.9541
5.4709 8.6516 -0.5191 0.9598
4.2516 8.1008 -0.4640 0.9640
3.8724 8.1609 -0.4581 0.9645
3.5616 8.3594 -0.4608 0.9643
2.9675 8.8888 -0.4752 0.9632
2.7878 9.6247 -0.5082 0.9607
1.8958 9.2861 -0.4807 0.9628
1.5733 9.6811 -0.4974 0.9615
1.1760 9.6850 -0.4948 0.9617
-0.0000 9.6811 -0.4910 0.9620
-0.3903 9.6851 -0.4916 0.9619
-1.1285 9.2937 -0.4748 0.9632
-3.4535 8.1057 -0.4468 0.9653
-3.8654 8.1461 -0.4573 0.9645
-24.3496 38.5057 -2.3105 0.8332
-28.9327 35.4361 -2.3200 0.8326
-29.1517 32.9055 -2.2295 0.8386
-28.9235 30.1125 -2.1175 0.8460
-31.2703 30.0356 -2.1989 0.8406
-10.2446 7.6984 -0.6499 0.9500
-23.6005 14.9241 -1.4161 0.8942
-29.4754 15.4699 -1.6882 0.8752
-29.7531 14.1180 -1.6702 0.8764
-29.3342 11.1250 -1.5911 0.8819
-29.3342 8.4968 -1.5488 0.8849
-29.3342 7.2303 -1.5322 0.8860
-46.1527 3.7258 -2.3482 0.8307
-34.0959 0.0000 -2.5000 0.8722
-33.9853 -2.7436 -2.5000 0.8722
-33.8473 -4.1098 -2.5000 0.8722
-32.7498 -9.4861 -2.5000 0.8722
-32.3412 -10.7971 -2.5000 0.8722
-31.0008 -13.2082 -2.4708 0.8736
-28.3553 -14.8820 -2.3480 0.8795
-27.7392 -16.0152 -2.3485 0.8794
-27.0825 -17.1260 -2.3495 0.8794
-26.3738 -18.2045 -2.3497 0.8794
-15.6521 -16.2955 -1.6567 0.9134
-14.3900 -16.2429 -1.5911 0.9166
-11.1603 -16.1685 -1.4405 0.9242
-9.2427 -16.0782 -1.3613 0.9282
-8.4531 -16.1061 -1.3337 0.9296
-7.6335 -16.0873 -1.3056 0.9311
-6.8464 -16.0691 -1.2807 0.9323
-6.0876 -16.0516 -1.2587 0.9335
-3.9442 -16.0023 -1.2084 0.9360
-3.2520 -15.9291 -1.1920 0.9369
-1.2869 -15.9411 -1.1726 0.9379
0.6406 -15.8967 -1.1665 0.9382
1.9266 -15.8671 -1.1720 0.9379
3.8997 -15.8216 -1.1948 0.9367
4.5783 -15.8060 -1.2066 0.9361
10.1926 -26.8755 -2.1075 0.8911
8.2512 -15.7214 -1.3018 0.9313
9.0391 -15.6562 -1.3255 0.9301
9.9173 -15.6830 -1.3605 0.9283
14.9639 -15.5791 -1.5839 0.9170
16.1776 -15.5388 -1.6447 0.9140
23.9779 -21.2425 -2.3488 0.8794
18.9533 -15.4749 -1.7941 0.9065
20.5445 -15.4382 -1.8843 0.9021
27.0610 -17.1123 -2.3476 0.8795
30.1907 -15.8452 -2.5000 0.8722
30.8041 -14.6167 -2.5000 0.8722
31.3676 -13.3645 -2.5000 0.8722
31.8803 -12.0906 -2.5000 0.8722
32.3413 -10.7971 -2.5000 0.8722
32.7498 -9.4861 -2.5000 0.8722
33.4069 -6.8201 -2.5000 0.8722
33.6544 -5.4694 -2.5000 0.8722
33.8474 -4.1098 -2.5000 0.8722
34.0683 1.3729 -2.5000 0.8722
33.9854 2.7436 -2.5000 0.8722
33.8473 4.1098 -2.5000 0.8722
33.4070 6.8201 -2.5000 0.8722
32.3414 10.7971 -2.5000 0.8722
17.2491 7.3492 -1.3748 0.9276
17.1314 8.1290 -1.3904 0.9268
15.6132 9.0143 -1.3219 0.9302
11.2402 8.4465 -1.0309 0.9452
10.3517 8.4519 -0.9799 0.9478
9.9558 8.8201 -0.9752 0.9481
6.9665 8.5325 -0.8077 0.9568
6.4600 8.5967 -0.7885 0.9578
6.0904 8.8235 -0.7861 0.9579
6.0522 9.5708 -0.8303 0.9556
4.3430 8.2749 -0.6852 0.9632
3.8724 8.1609 -0.6623 0.9644
3.5616 8.3594 -0.6662 0.9642
3.0274 9.0681 -0.7010 0.9624
1.8956 9.2852 -0.6949 0.9627
1.5733 9.6811 -0.7192 0.9614
-0.0000 9.6811 -0.7098 0.9619
-0.7822 9.6895 -0.7128 0.9618
-1.1283 9.2921 -0.6863 0.9632
-2.2414 9.0938 -0.6867 0.9631
-2.5221 8.7074 -0.6647 0.9643
-3.0956 8.1624 -0.6401 0.9656
-3.5144 8.2485 -0.6574 0.9647
-17.9418 28.3727 -2.4614 0.8740
-19.0697 27.6272 -2.4614 0.8740
-21.2309 26.0032 -2.4614 0.8740
-22.2608 25.1272 -2.4614 0.8740
-23.4298 22.5047 -2.3820 0.8778
-23.5721 20.8832 -2.3091 0.8813
-24.4176 19.9364 -2.3113 0.8812
-25.2247 18.9551 -2.3135 0.8811
-28.8066 13.6689 -2.3379 0.8800
-29.3556 12.5073 -2.3396 0.8799
-29.3342 9.7933 -2.2675 0.8833
-29.3342 7.2303 -2.2152 0.8859
-29.4566 6.0136 -2.2044 0.8864
-34.0683 1.3729 -2.5000 0.8722
-26.0306 0.0000 -2.4991 0.9007
-26.0168 -1.0484 -2.4998 0.9007
-25.9557 -2.0954 -2.5000 0.9006
-25.2835 -6.2318 -2.5000 0.9006
-25.0120 -7.2448 -2.5000 0.9006
-24.7000 -8.2461 -2.5000 0.9006
-23.9564 -10.2069 -2.5000 0.9006
-23.5260 -11.1632 -2.5000 0.9006
-23.0574 -12.1014 -2.5000 0.9006
-22.5515 -13.0201 -2.5000 0.9006
-20.9088 -13.2219 -2.3750 0.9054
-20.1243 -13.8908 -2.3476 0.9064
-12.2662 -16.3234 -1.9603 0.9212
-13.0699 -20.6684 -2.3477 0.9064
-9.2827 -16.0782 -1.7824 0.9281
-8.4531 -16.1061 -1.7463 0.9295
-7.6335 -16.0873 -1.7095 0.9309
-4.6398 -16.0183 -1.6011 0.9352
-3.2514 -15.9264 -1.5605 0.9368
-2.5956 -15.9712 -1.5534 0.9370
-2.9435 -24.2416 -2.3444 0.9065
-1.9649 -24.3398 -2.3443 0.9065
-0.9832 -24.3990 -2.3443 0.9065
0.0000 -24.4191 -2.3444 0.9065
1.9651 -24.3417 -2.3445 0.9065
2.9438 -24.2443 -2.3447 0.9065
3.9180 -24.1080 -2.3449 0.9065
3.2331 -15.8370 -1.5518 0.9371
4.5783 -15.8060 -1.5798 0.9360
9.5816 -22.4888 -2.3468 0.9064
7.5386 -15.8873 -1.6883 0.9318
8.2512 -15.7214 -1.7046 0.9311
9.9173 -15.6830 -1.7814 0.9281
11.7532 -15.6407 -1.8783 0.9244
12.7514 -15.6177 -1.9357 0.9222
15.0008 -15.6175 -2.0790 0.9167
17.6373 -16.9409 -2.3478 0.9064
18.3033 -16.2152 -2.3476 0.9064
20.1242 -13.8907 -2.3476 0.9064
22.5515 -13.0201 -2.5000 0.9006
23.5260 -11.1632 -2.5000 0.9006
23.9564 -10.2068 -2.5000 0.9006
25.0120 -7.2448 -2.5000 0.9006
25.7029 -4.1771 -2.5000 0.9006
25.8503 -3.1388 -2.5000 0.9006
25.9557 -2.0953 -2.5000 0.9006
26.0402 0.0000 -2.5000 0.9006
25.9557 2.0954 -2.5000 0.9006
24.2836 2.9486 -2.3485 0.9064
23.9585 4.8912 -2.3476 0.9064
23.4873 6.8032 -2.3476 0.9064
23.2021 7.7460 -2.3484 0.9064
15.6132 9.0143 -1.7308 0.9301
12.9664 8.1995 -1.4729 0.9402
12.4861 8.6185 -1.4566 0.9409
11.2402 8.4465 -1.3498 0.9451
10.3450 8.4465 -1.2822 0.9477
10.0494 9.6526 -1.3378 0.9455
9.2714 9.6526 -1.2849 0.9476
6.0362 8.7450 -1.0201 0.9582
6.0522 9.5708 -1.0871 0.9555
4.7103 8.1584 -0.9044 0.9629
4.2516 8.1008 -0.8783 0.9639
3.8724 8.1609 -0.8672 0.9644
3.2388 8.5400 -0.8769 0.9640
1.9843 8.0507 -0.7961 0.9672
1.5733 9.6811 -0.9416 0.9614
0.7815 9.6811 -0.9325 0.9617
-0.7816 9.6811 -0.9325 0.9617
-1.9649 9.6246 -0.9431 0.9613
-2.1939 8.9011 -0.8801 0.9638
-2.4731 8.5383 -0.8534 0.9649
-3.4535 8.1057 -0.8459 0.9652
-4.4197 8.4211 -0.9130 0.9625
-10.2485 17.7510 -1.9678 0.9209
-13.7027 21.6692 -2.4614 0.9021
-15.4020 20.4963 -2.4614 0.9021
-17.0013 19.1905 -2.4614 0.9021
-18.4903 17.7602 -2.4614 0.9021
-21.0998 14.5642 -2.4614 0.9021
-21.6692 13.7028 -2.4614 0.9021
-22.7015 11.9147 -2.4614 0.9021
-22.9673 10.8981 -2.4406 0.9029
-22.9322 9.7705 -2.3931 0.9047
-22.8713 7.6356 -2.3149 0.9077
-23.1012 6.6913 -2.3090 0.9079
-26.0190 1.0485 -2.5000 0.9006
-21.0291 -0.8474 -2.5000 0.9187
-20.9779 -1.6935 -2.5000 0.9187
-20.8927 -2.5368 -2.5000 0.9187
-20.6208 -4.2098 -2.5000 0.9187
-20.4346 -5.0367 -2.5000 0.9187
-18.6354 -9.7806 -2.5000 0.9187
-18.2265 -10.5231 -2.5000 0.9187
-14.9232 -13.2208 -2.3683 0.9228
-13.1054 -14.7929 -2.3476 0.9235
-12.4991 -15.3086 -2.3476 0.9235
-10.5674 -16.7110 -2.3486 0.9234
-9.1986 -17.5265 -2.3512 0.9234
-6.0876 -16.0516 -2.0392 0.9332
-5.3532 -16.0347 -2.0080 0.9342
-4.6398 -16.0183 -1.9810 0.9350
-3.9442 -16.0023 -1.9577 0.9358
-1.9522 -16.0775 -1.9238 0.9368
2.5762 -15.8521 -1.9077 0.9374
5.2715 -15.7900 -1.9774 0.9351
7.7587 -18.2103 -2.3513 0.9234
9.1965 -17.5225 -2.3507 0.9234
9.0148 -15.6141 -2.1417 0.9299
10.5644 -16.7062 -2.3479 0.9235
11.2270 -16.2650 -2.3476 0.9235
11.8726 -15.7996 -2.3476 0.9235
12.4991 -15.3086 -2.3476 0.9235
13.6904 -14.2532 -2.3476 0.9235
14.2532 -13.6904 -2.3476 0.9235
16.8252 -12.6433 -2.5000 0.9187
17.3206 -11.9556 -2.5000 0.9187
19.3620 -8.2494 -2.5000 0.9187
19.6785 -7.4630 -2.5000 0.9187
20.2152 -5.8554 -2.5000 0.9187
20.6208 -4.2098 -2.5000 0.9187
20.8927 -2.5368 -2.5000 0.9187
20.9779 -1.6935 -2.5000 0.9187
21.0291 -0.8474 -2.5000 0.9187
21.0461 0.0000 -2.5000 0.9187
20.9779 1.6935 -2.5000 0.9187
19.5072 3.1703 -2.3476 0.9235
19.1889 4.7297 -2.3476 0.9235
18.9829 5.4985 -2.3476 0.9235
17.1296 7.2982 -2.2117 0.9277
15.6142 8.1949 -2.0947 0.9314
15.6132 9.0143 -2.1415 0.9300
12.4861 8.6185 -1.8022 0.9407
10.0494 9.6526 -1.6552 0.9454
7.2759 8.2128 -1.3033 0.9568
6.1715 8.2128 -1.2203 0.9595
4.7436 8.2161 -1.1269 0.9625
4.2645 8.1254 -1.0900 0.9637
3.5616 8.3594 -1.0793 0.9641
3.2589 8.5931 -1.0917 0.9637
2.7878 9.6247 -1.1903 0.9604
1.1578 9.5357 -1.1410 0.9620
0.3238 8.0361 -0.9554 0.9681
-0.3868 9.5979 -1.1410 0.9620
-1.3042 8.0248 -0.9657 0.9678
-2.4896 8.5951 -1.0629 0.9646
-2.7913 8.3609 -1.0470 0.9651
-9.7346 16.8607 -2.3127 0.9246
-10.3974 16.4422 -2.3108 0.9246
-11.0426 15.9980 -2.3091 0.9247
-13.7407 15.5101 -2.4614 0.9199
-14.3541 14.9442 -2.4614 0.9199
-14.9442 14.3541 -2.4614 0.9199
-16.0508 13.1051 -2.4614 0.9199
-17.0533 11.7710 -2.4614 0.9199
-17.5134 11.0748 -2.4614 0.9199
-18.7206 8.8831 -2.4614 0.9199
-19.0632 8.1220 -2.4614 0.9199
-20.2463 4.9903 -2.4770 0.9194
-20.7557 3.3731 -2.4978 0.9188
-20.9690 1.6928 -2.4989 0.9188
-21.0248 0.8473 -2.4995 0.9187
-17.6442 0.0000 -2.5000 0.9312
-17.6298 -0.7105 -2.5000 0.9312
-16.9475 -4.9089 -2.5000 0.9312
-16.7361 -5.5873 -2.5000 0.9312
-16.4976 -6.2567 -2.5000 0.9312
-16.2323 -6.9159 -2.5000 0.9312
-15.9406 -7.5639 -2.5000 0.9312
-15.2803 -8.8221 -2.5000 0.9312
-14.5208 -10.0230 -2.5000 0.9312
-14.1055 -10.5996 -2.5000 0.9312
-13.6672 -11.1589 -2.5000 0.9312
-13.2068 -11.7002 -2.5000 0.9312
-12.2225 -12.7250 -2.5000 0.9312
-10.7858 -13.2102 -2.4164 0.9334
-9.9534 -13.2456 -2.3476 0.9353
-8.2843 -14.3488 -2.3476 0.9353
-6.4943 -15.2427 -2.3476 0.9353
-5.8754 -15.4922 -2.3476 0.9353
-5.2471 -15.7171 -2.3478 0.9352
-3.9658 -16.0899 -2.3480 0.9352
-3.2453 -15.8965 -2.2988 0.9366
-1.9976 -16.4519 -2.3482 0.9352
-1.3336 -16.5191 -2.3482 0.9352
0.6673 -16.5592 -2.3482 0.9352
1.3335 -16.5185 -2.3481 0.9352
1.9975 -16.4510 -2.3480 0.9352
3.3146 -16.2356 -2.3479 0.9352
5.2467 -15.7159 -2.3476 0.9353
7.6998 -14.6707 -2.3476 0.9353
8.8553 -14.0036 -2.3476 0.9353
9.9534 -13.2456 -2.3476 0.9353
10.7790 -13.2019 -2.4149 0.9335
11.6822 -13.1865 -2.4961 0.9313
12.2225 -12.7250 -2.5000 0.9312
13.2068 -11.7002 -2.5000 0.9312
14.1055 -10.5996 -2.5000 0.9312
14.9127 -9.4302 -2.5000 0.9312
15.2801 -8.8221 -2.5000 0.9312
15.6231 -8.1996 -2.5000 0.9312
15.9406 -7.5639 -2.5000 0.9312
16.2322 -6.9159 -2.5000 0.9312
17.1314 -4.2225 -2.5000 0.9312
17.2875 -3.5293 -2.5000 0.9312
17.6441 0.0000 -2.5000 0.9312
17.6298 0.7104 -2.5000 0.9312
17.5155 2.1268 -2.5000 0.9312
16.7275 2.7185 -2.4012 0.9338
16.2337 3.3142 -2.3476 0.9353
15.4918 5.8753 -2.3476 0.9353
15.2427 6.4943 -2.3476 0.9353
14.2995 8.2558 -2.3395 0.9355
11.3792 8.5509 -2.0168 0.9441
9.1638 8.1184 -1.7347 0.9517
8.3652 8.7091 -1.7110 0.9524
6.7055 8.2128 -1.5023 0.9581
6.1715 8.2128 -1.4556 0.9593
6.0362 8.7450 -1.5056 0.9580
6.0522 9.5708 -1.6045 0.9553
4.7103 8.1584 -1.3348 0.9627
2.7878 9.6247 -1.4198 0.9603
1.9306 7.8329 -1.1430 0.9679
1.7880 8.7581 -1.2665 0.9645
1.0750 8.8533 -1.2636 0.9646
0.6346 7.8609 -1.1174 0.9686
0.3168 7.8629 -1.1150 0.9687
0.0000 8.9150 -1.2632 0.9646
-1.0760 8.8617 -1.2648 0.9646
-1.2512 7.6990 -1.1052 0.9690
-1.9649 9.6246 -1.3918 0.9611
-2.2414 9.0938 -1.3271 0.9629
-3.0956 8.1624 -1.2369 0.9653
-3.4535 8.1057 -1.2484 0.9650
-3.8838 8.1850 -1.2837 0.9641
-4.4197 8.4211 -1.3475 0.9623
-8.1669 14.1455 -2.3143 0.9361
-9.2754 13.4378 -2.3135 0.9362
-9.8029 13.0453 -2.3121 0.9362
-10.3139 12.6323 -2.3107 0.9362
-10.8079 12.1996 -2.3093 0.9363
-13.4563 10.9867 -2.4614 0.9322
-14.2967 9.8683 -2.4614 0.9322
-15.0444 8.6859 -2.4614 0.9322
-15.3819 8.0731 -2.4614 0.9322
-16.3305 6.1933 -2.4747 0.9319
-16.8261 4.8737 -2.4821 0.9317
-17.0752 4.2087 -2.4918 0.9314
-17.2770 3.5271 -2.4985 0.9312
-17.4077 2.8290 -2.4988 0.9312
-15.1754 0.0000 -2.5000 0.9403
-15.1631 -0.6111 -2.5000 0.9403
-15.1262 -1.2211 -2.5000 0.9403
-15.0648 -1.8292 -2.5000 0.9403
-14.9789 -2.4343 -2.5000 0.9403
-14.1893 -5.3813 -2.5000 0.9403
-13.9611 -5.9483 -2.5000 0.9403
-13.7102 -6.5056 -2.5000 0.9403
-13.1423 -7.5877 -2.5000 0.9403
-12.1319 -9.1165 -2.5000 0.9403
-11.7550 -9.5976 -2.5000 0.9403
-10.5124 -10.9445 -2.5000 0.9403
-9.5976 -11.7549 -2.5000 0.9403
-9.1165 -12.1319 -2.5000 0.9403
-8.1108 -12.8261 -2.5000 0.9403
-7.5877 -13.1423 -2.5000 0.9403
-5.6314 -13.2173 -2.3668 0.9434
-4.5126 -13.5169 -2.3476 0.9439
-3.9647 -13.6877 -2.3476 0.9439
-3.4103 -13.8362 -2.3476 0.9439
-1.7177 -14.1464 -2.3476 0.9439
-1.1467 -14.2041 -2.3476 0.9439
-0.5738 -14.2387 -2.3476 0.9439
-0.0000 -14.2503 -2.3476 0.9439
0.5738 -14.2387 -2.3476 0.9439
1.1467 -14.2041 -2.3476 0.9439
2.8504 -13.9623 -2.3476 0.9439
3.9647 -13.6877 -2.3476 0.9439
4.5126 -13.5169 -2.3476 0.9439
6.2658 -13.2050 -2.4079 0.9425
6.9258 -13.1959 -2.4551 0.9414
8.1107 -12.8261 -2.5000 0.9403
9.5976 -11.7549 -2.5000 0.9403
10.0632 -11.3589 -2.5000 0.9403
10.5124 -10.9445 -2.5000 0.9403
10.9445 -10.5124 -2.5000 0.9403
11.3589 -10.0632 -2.5000 0.9403
11.7549 -9.5976 -2.5000 0.9403
12.8261 -8.1107 -2.5000 0.9403
13.1423 -7.5877 -2.5000 0.9403
13.4371 -7.0524 -2.5000 0.9403
14.1893 -5.3813 -2.5000 0.9403
14.5763 -4.2221 -2.5000 0.9403
15.0647 -1.8292 -2.5000 0.9403
15.1262 -1.2211 -2.5000 0.9403
15.1631 -0.6110 -2.5000 0.9403
15.1754 0.0000 -2.5000 0.9403
15.1631 0.6111 -2.5000 0.9403
14.9789 2.4343 -2.5000 0.9403
13.9624 2.8504 -2.3476 0.9439
13.6877 3.9647 -2.3476 0.9439
13.3243 5.0532 -2.3476 0.9439
12.8744 6.1090 -2.3476 0.9439
12.6180 6.6225 -2.3476 0.9439
8.4886 8.1534 -1.9390 0.9534
7.2759 8.2128 -1.8076 0.9565
6.7055 8.2128 -1.7467 0.9579
6.1715 8.2128 -1.6924 0.9592
6.0362 8.7450 -1.7505 0.9578
6.0522 9.5708 -1.8655 0.9551
4.7103 8.1584 -1.5519 0.9625
4.3290 8.2482 -1.5346 0.9629
3.8724 8.1609 -1.4881 0.9640
3.5616 8.3594 -1.4969 0.9638
3.2818 8.6534 -1.5246 0.9632
3.0274 9.0681 -1.5749 0.9620
2.7878 9.6247 -1.6507 0.9602
1.8887 7.6626 -1.3001 0.9685
1.3946 8.5811 -1.4322 0.9654
1.0421 8.5826 -1.4243 0.9656
0.6211 7.6936 -1.2716 0.9692
0.3101 7.6959 -1.2688 0.9693
-0.0000 8.5837 -1.4141 0.9658
-0.3459 8.5823 -1.4150 0.9658
-0.6927 8.5809 -1.4182 0.9657
-1.9649 9.6246 -1.6182 0.9610
-2.2281 9.0397 -1.5338 0.9630
-3.5144 8.2485 -1.4771 0.9643
-3.8838 8.1850 -1.4925 0.9639
-7.5084 11.8736 -2.3143 0.9446
-7.9804 11.5616 -2.3143 0.9446
-9.3110 10.5099 -2.3131 0.9447
-9.7219 10.1215 -2.3120 0.9447
-10.4950 9.2978 -2.3098 0.9447
-11.9446 8.9758 -2.4614 0.9412
-12.2963 8.4876 -2.4614 0.9412
-12.6281 7.9855 -2.4614 0.9412
-13.2352 6.9464 -2.4624 0.9412
-13.5389 6.4243 -2.4688 0.9411
-14.0913 5.3441 -2.4827 0.9407
-14.5403 4.2117 -2.4938 0.9405
-14.8641 3.0345 -2.4992 0.9404
-14.9765 2.4339 -2.4996 0.9403
-15.0647 1.8292 -2.5000 0.9403
-15.1262 1.2211 -2.5000 0.9403
-15.1631 0.6110 -2.5000 0.9403
-13.2574 -1.0702 -2.5000 0.9473
-13.2036 -1.6032 -2.5000 0.9473
-12.7754 -3.7004 -2.5000 0.9473
-12.6161 -4.2119 -2.5000 0.9473
-12.0164 -5.7018 -2.5000 0.9473
-11.7771 -6.1811 -2.5000 0.9473
-11.2415 -7.1087 -2.5000 0.9473
-10.9461 -7.5556 -2.5000 0.9473
-9.9556 -8.8199 -2.5000 0.9473
-7.9902 -10.6330 -2.5000 0.9473
-7.5556 -10.9461 -2.5000 0.9473
-6.6503 -11.5186 -2.5000 0.9473
-6.1811 -11.7771 -2.5000 0.9473
-5.7019 -12.0164 -2.5000 0.9473
-5.2129 -12.2362 -2.5000 0.9473
-3.1830 -12.9141 -2.5000 0.9473
0.0000 -13.1941 -2.4800 0.9477
0.5317 -13.1936 -2.4819 0.9477
1.6016 -13.1902 -2.4975 0.9474
2.1335 -13.1283 -2.5000 0.9473
2.6604 -13.0318 -2.5000 0.9473
3.1830 -12.9141 -2.5000 0.9473
5.2148 -12.2362 -2.5000 0.9473
6.1811 -11.7771 -2.5000 0.9473
6.6503 -11.5186 -2.5000 0.9473
7.5556 -10.9461 -2.5000 0.9473
7.9902 -10.6330 -2.5000 0.9473
8.4121 -10.3027 -2.5000 0.9473
8.8199 -9.9556 -2.5000 0.9473
9.5925 -9.2136 -2.5000 0.9473
10.3027 -8.4119 -2.5000 0.9473
10.6330 -7.9902 -2.5000 0.9473
11.2415 -7.1087 -2.5000 0.9473
11.5186 -6.6503 -2.5000 0.9473
11.7771 -6.1811 -2.5000 0.9473
12.0164 -5.7018 -2.5000 0.9473
12.7754 -3.7004 -2.5000 0.9473
12.9141 -3.1830 -2.5000 0.9473
13.1283 -2.1336 -2.5000 0.9473
13.2036 -1.6032 -2.5000 0.9473
13.2574 -1.0703 -2.5000 0.9473
13.2898 -0.5355 -2.5000 0.9473
13.3005 0.0000 -2.5000 0.9473
13.2898 0.5356 -2.5000 0.9473
13.2036 1.6032 -2.5000 0.9473
13.1283 2.1336 -2.5000 0.9473
13.0318 2.6605 -2.5000 0.9473
11.9966 3.4749 -2.3476 0.9504
11.8470 3.9551 -2.3476 0.9504
11.4903 4.8956 -2.3476 0.9504
10.8164 6.2449 -2.3476 0.9504
10.2471 7.0731 -2.3403 0.9506
9.1930 8.1443 -2.3085 0.9512
7.9185 8.2441 -2.1486 0.9545
6.0522 9.5708 -2.1284 0.9550
3.8724 8.1609 -1.6978 0.9639
3.5616 8.3594 -1.7079 0.9637
3.2979 8.6958 -1.7481 0.9629
2.7878 9.6247 -1.8834 0.9600
1.7140 8.3959 -1.6107 0.9657
1.3647 8.3973 -1.5991 0.9660
0.2945 7.3081 -1.3748 0.9707
-1.0194 8.3956 -1.5896 0.9662
-1.9649 9.6246 -1.8464 0.9608
-2.2414 9.0938 -1.7604 0.9626
-2.5221 8.7074 -1.7039 0.9638
-3.8838 8.1850 -1.7029 0.9638
-4.4197 8.4211 -1.7876 0.9620
-6.1590 10.6677 -2.3153 0.9511
-6.9945 10.1333 -2.3143 0.9511
-8.1649 9.2163 -2.3143 0.9511
-8.5294 8.8800 -2.3143 0.9511
-8.8791 8.5284 -2.3141 0.9511
-9.5291 7.7802 -2.3123 0.9512
-9.8310 7.3875 -2.3114 0.9512
-10.4020 6.5778 -2.3133 0.9511
-10.6858 6.1695 -2.3192 0.9510
-12.1687 5.1846 -2.4862 0.9476
-12.5932 4.2043 -2.4955 0.9474
-13.0308 2.6603 -2.4998 0.9473
-13.1283 2.1336 -2.5000 0.9473
-13.2574 1.0703 -2.5000 0.9473
-13.2898 0.5356 -2.5000 0.9473
-11.8174 -0.4762 -2.5000 0.9528
-11.5880 -2.3657 -2.5000 0.9528
-11.0584 -4.1939 -2.5000 0.9528
-10.8806 -4.6358 -2.5000 0.9528
-10.4723 -5.4963 -2.5000 0.9528
-9.9961 -6.3211 -2.5000 0.9528
-9.7334 -6.7185 -2.5000 0.9528
-9.4550 -7.1050 -2.5000 0.9528
-9.1613 -7.4799 -2.5000 0.9528
-8.8526 -7.8427 -2.5000 0.9528
-8.5296 -8.1928 -2.5000 0.9528
-8.1929 -8.5296 -2.5000 0.9528
-5.0702 -10.6851 -2.5000 0.9528
-3.7452 -11.2183 -2.5000 0.9528
-3.2905 -11.3600 -2.5000 0.9528
-2.8304 -11.4833 -2.5000 0.9528
-1.8972 -11.6738 -2.5000 0.9528
-0.9517 -11.7886 -2.5000 0.9528
-0.4762 -11.8174 -2.5000 0.9528
0.0000 -11.8270 -2.5000 0.9528
1.8972 -11.6738 -2.5000 0.9528
2.3657 -11.5879 -2.5000 0.9528
3.2905 -11.3600 -2.5000 0.9528
3.7452 -11.2183 -2.5000 0.9528
4.1939 -11.0584 -2.5000 0.9528
4.6359 -10.8806 -2.5000 0.9528
5.4963 -10.4723 -2.5000 0.9528
5.9134 -10.2425 -2.5000 0.9528
6.3211 -9.9960 -2.5000 0.9528
6.7185 -9.7334 -2.5000 0.9528
7.1050 -9.4550 -2.5000 0.9528
8.5296 -8.1928 -2.5000 0.9528
9.7334 -6.7185 -2.5000 0.9528
9.9960 -6.3211 -2.5000 0.9528
10.2425 -5.9135 -2.5000 0.9528
10.8806 -4.6358 -2.5000 0.9528
11.2183 -3.7452 -2.5000 0.9528
11.4833 -2.8304 -2.5000 0.9528
11.6738 -1.8972 -2.5000 0.9528
11.7886 -0.9517 -2.5000 0.9528
11.7407 1.4256 -2.5000 0.9528
11.5879 2.3657 -2.5000 0.9528
11.0214 2.7165 -2.3994 0.9547
10.6675 3.0899 -2.3476 0.9556
10.5344 3.5169 -2.3476 0.9556
10.3843 3.9382 -2.3476 0.9556
9.8339 5.1612 -2.3476 0.9556
9.6181 5.5530 -2.3476 0.9556
9.3867 5.9358 -2.3476 0.9556
9.1400 6.3089 -2.3476 0.9556
8.8786 6.6719 -2.3476 0.9556
7.6385 7.9526 -2.3308 0.9559
7.3138 8.2555 -2.3314 0.9559
4.7103 8.1584 -1.9913 0.9622
3.8724 8.1609 -1.9094 0.9637
3.2979 8.6958 -1.9659 0.9627
3.0274 9.0681 -2.0208 0.9617
1.6750 8.2048 -1.7701 0.9663
1.3336 8.2062 -1.7574 0.9666
0.5771 7.1482 -1.5159 0.9711
0.0000 8.2085 -1.7351 0.9670
-0.3307 8.2072 -1.7362 0.9670
-0.6624 8.2058 -1.7402 0.9669
-0.9962 8.2045 -1.7470 0.9668
-2.5221 8.7074 -1.9162 0.9636
-3.0956 8.1624 -1.8453 0.9649
-3.8838 8.1850 -1.9150 0.9636
-4.4197 8.4211 -2.0103 0.9619
-6.2217 9.0137 -2.3151 0.9562
-6.9244 8.4809 -2.3143 0.9562
-8.1952 7.2603 -2.3143 0.9562
-9.5775 5.5296 -2.3377 0.9558
-10.0134 4.7514 -2.3428 0.9557
-10.8498 4.6227 -2.4929 0.9529
-11.0445 4.1886 -2.4968 0.9529
-11.2152 3.7442 -2.4993 0.9528
-11.3588 3.2901 -2.4997 0.9528
-11.5880 2.3657 -2.5000 0.9528
-11.6738 1.8972 -2.5000 0.9528
-11.7886 0.9517 -2.5000 0.9528
-10.6286 -0.4283 -2.5000 0.9572
-10.6027 -0.8559 -2.5000 0.9572
-10.5596 -1.2821 -2.5000 0.9572
-10.4222 -2.1277 -2.5000 0.9572
-10.2172 -2.9595 -2.5000 0.9572
-10.0898 -3.3684 -2.5000 0.9572
-9.9459 -3.7720 -2.5000 0.9572
-9.7860 -4.1694 -2.5000 0.9572
-8.5038 -6.3902 -2.5000 0.9572
-7.3686 -7.6716 -2.5000 0.9572
-7.0538 -7.9621 -2.5000 0.9572
-6.7274 -8.2396 -2.5000 0.9572
-5.6852 -8.9904 -2.5000 0.9572
-5.3186 -9.2121 -2.5000 0.9572
-4.5601 -9.6102 -2.5000 0.9572
-4.1694 -9.7860 -2.5000 0.9572
-3.3685 -10.0898 -2.5000 0.9572
-2.9595 -10.2172 -2.5000 0.9572
-2.5457 -10.3281 -2.5000 0.9572
-2.1277 -10.4222 -2.5000 0.9572
-1.2822 -10.5596 -2.5000 0.9572
-0.8560 -10.6027 -2.5000 0.9572
1.2821 -10.5596 -2.5000 0.9572
1.7063 -10.4994 -2.5000 0.9572
2.1277 -10.4222 -2.5000 0.9572
3.3685 -10.0898 -2.5000 0.9572
4.5601 -9.6102 -2.5000 0.9572
5.3186 -9.2121 -2.5000 0.9572
5.6853 -8.9904 -2.5000 0.9572
6.0426 -8.7542 -2.5000 0.9572
6.3902 -8.5038 -2.5000 0.9572
6.7274 -8.2396 -2.5000 0.9572
7.0538 -7.9620 -2.5000 0.9572
7.3686 -7.6716 -2.5000 0.9572
7.6716 -7.3686 -2.5000 0.9572
7.9620 -7.0538 -2.5000 0.9572
8.2396 -6.7274 -2.5000 0.9572
9.2121 -5.3186 -2.5000 0.9572
9.4187 -4.9433 -2.5000 0.9572
9.6102 -4.5601 -2.5000 0.9572
9.9459 -3.7720 -2.5000 0.9572
10.0898 -3.3685 -2.5000 0.9572
10.3281 -2.5456 -2.5000 0.9572
10.4222 -2.1277 -2.5000 0.9572
10.4994 -1.7063 -2.5000 0.9572
10.6027 -0.8559 -2.5000 0.9572
10.6286 -0.4283 -2.5000 0.9572
10.6372 0.0000 -2.5000 0.9572
10.6027 0.8559 -2.5000 0.9572
10.4994 1.7063 -2.5000 0.9572
10.4222 2.1277 -2.5000 0.9572
10.3281 2.5457 -2.5000 0.9572
9.5944 2.7791 -2.3476 0.9598
9.4747 3.1631 -2.3476 0.9598
9.0243 4.2821 -2.3476 0.9598
8.8446 4.6420 -2.3476 0.9598
8.6505 4.9944 -2.3476 0.9598
8.4424 5.3387 -2.3476 0.9598
7.7373 6.3173 -2.3476 0.9598
7.4767 6.6238 -2.3476 0.9598
5.9526 7.9215 -2.3288 0.9601
5.6296 8.1559 -2.3291 0.9601
4.7103 8.1584 -2.2140 0.9620
4.2576 8.1121 -2.1532 0.9631
3.8724 8.1609 -2.1230 0.9636
3.5616 8.3594 -2.1355 0.9634
3.2487 8.5662 -2.1532 0.9631
2.0470 7.0669 -1.7292 0.9702
1.8934 7.6818 -1.8594 0.9680
1.6371 8.0189 -1.9235 0.9669
0.9740 8.0216 -1.8991 0.9673
0.5703 7.0647 -1.6658 0.9713
-0.3233 8.0211 -1.8867 0.9676
-0.6474 8.0198 -1.8910 0.9675
-0.9736 8.0185 -1.8984 0.9674
-1.9649 9.6247 -2.3087 0.9604
-2.1939 8.9011 -2.1546 0.9630
-2.5221 8.7074 -2.1306 0.9634
-2.7913 8.3609 -2.0716 0.9644
-3.0956 8.1624 -2.0517 0.9648
-3.5144 8.2485 -2.1072 0.9638
-3.8838 8.1850 -2.1292 0.9635
-4.4197 8.4211 -2.2352 0.9617
-5.2678 8.3304 -2.3164 0-2.5014 0.9609
8.3666 -4.8305 -2.5014 0.9609
8.8879 -3.7868 -2.5014 0.9609
9.0332 -3.4258 -2.5014 0.9609
9.2795 -2.6879 -2.5014 0.9609
9.3802 -2.3120 -2.5014 0.9609
9.4657 -1.9325 -2.5014 0.9609
9.5359 -1.5497 -2.5014 0.9609
9.5905 -1.1645 -2.5014 0.9609
9.6296 -0.7774 -2.5014 0.9609
9.6531 -0.3890 -2.5014 0.9609
9.6610 -0.0000 -2.5014 0.9609
9.6531 0.3890 -2.5014 0.9609
9.6296 0.7774 -2.5014 0.9609
9.5905 1.1645 -2.5014 0.9609
8.8890 1.8147 -2.3490 0.9632
8.7198 2.5257 -2.3505 0.9632
8.3617 3.5626 -2.3533 0.9631
7.6853 4.8599 -2.3543 0.9631
7.4834 5.1654 -2.3543 0.9631
7.2693 5.4625 -2.3543 0.9631
3.3291 2.7181 -1.1128 0.9824
3.0115 2.8926 -1.0812 0.9829
5.2829 5.5000 -1.9746 0.9690
4.7444 5.3553 -1.8525 0.9709
4.4448 5.4439 -1.8197 0.9714
3.4475 5.4517 -1.6701 0.9737
3.1080 5.3830 -1.6094 0.9746
2.6006 5.4807 -1.5707 0.9752
2.2896 5.3739 -1.5124 0.9762
2.0085 5.2960 -1.4665 0.9769
1.7857 5.3488 -1.4600 0.9770
1.6213 5.5973 -1.5088 0.9762
1.3697 5.5571 -1.4819 0.9766
1.1006 5.3908 -1.4246 0.9775
0.6539 5.3850 -1.4045 0.9778
0.2205 5.4716 -1.4179 0.9776
-0.4352 5.3912 -1.4004 0.9779
-0.6817 5.6147 -1.4644 0.9769
-0.8728 5.3703 -1.4087 0.9778
-1.6175 5.5845 -1.5054 0.9763
-2.0110 5.3025 -1.4683 0.9768
-2.2428 5.2640 -1.4815 0.9766
-2.5235 5.3182 -1.5241 0.9760
-2.8562 5.4421 -1.5913 0.9749
-3.2478 5.1359 -1.5734 0.9752
-3.6438 5.2789 -1.6608 0.9738
-4.6982 5.3032 -1.8344 0.9711
-5.3279 5.5469 -1.9914 0.9687
-5.7507 5.0946 -1.9892 0.9688
-7.1429 5.8320 -2.3876 0.9626
-7.3720 5.5397 -2.3876 0.9626
-7.5891 5.2383 -2.3876 0.9626
-7.7938 4.9285 -2.3876 0.9626
-8.7196 2.9110 -2.3802 0.9627
-9.4125 2.7264 -2.5372 0.9603
-9.5186 2.3461 -2.5383 0.9603
-9.6074 1.9614 -2.5388 0.9603
-9.6802 1.5732 -2.5393 0.9603
-9.7774 0.7893 -2.5398 0.9603
-9.8011 0.3950 -2.5397 0.9603
-8.9243 -0.3595 -2.5285 0.9636
-8.9006 -0.7185 -2.5279 0.9636
-8.8613 -1.0760 -2.5270 0.9636
-8.6513 -2.1324 -2.5224 0.9636
-8.5513 -2.4769 -2.5203 0.9637
-8.1679 -3.4800 -2.5134 0.9638
-7.8467 -4.1183 -2.5087 0.9638
-6.8505 -5.5933 -2.5036 0.9639
-6.6191 -5.8640 -2.5034 0.9639
-6.3770 -6.1252 -2.5031 0.9639
-5.8622 -6.6171 -2.5026 0.9639
-5.5904 -6.8471 -2.5024 0.9639
-5.3097 -7.0659 -2.5021 0.9639
-4.7225 -7.4681 -2.5014 0.9639
-4.4180 -7.6522 -2.5014 0.9639
-4.1063 -7.8238 -2.5014 0.9639
-3.7879 -7.9829 -2.5014 0.9639
-3.4634 -8.1289 -2.5014 0.9639
-2.7981 -8.3812 -2.5014 0.9639
-2.4583 -8.4871 -2.5014 0.9639
-1.7674 -8.6574 -2.5014 0.9639
-1.4174 -8.7215 -2.5014 0.9639
-1.0651 -8.7715 -2.5014 0.9639
-0.7110 -8.8073 -2.5014 0.9639
-0.3558 -8.8288 -2.5014 0.9639
0.0000 -8.8360 -2.5014 0.9639
0.7110 -8.8073 -2.5014 0.9639
2.4583 -8.4871 -2.5014 0.9639
2.7981 -8.3812 -2.5014 0.9639
3.1333 -8.2618 -2.5014 0.9639
4.1063 -7.8239 -2.5014 0.9639
4.4180 -7.6522 -2.5014 0.9639
4.7225 -7.4681 -2.5014 0.9639
5.0194 -7.2719 -2.5014 0.9639
5.5882 -6.8444 -2.5014 0.9639
5.8593 -6.6138 -2.5014 0.9639
6.1209 -6.3725 -2.5014 0.9639
6.3725 -6.1209 -2.5014 0.9639
6.6138 -5.8593 -2.5014 0.9639
6.8444 -5.5883 -2.5014 0.9639
7.0638 -5.3081 -2.5014 0.9639
7.4681 -4.7225 -2.5014 0.9639
7.6522 -4.4180 -2.5014 0.9639
7.9828 -3.7879 -2.5014 0.9639
8.2618 -3.1333 -2.5014 0.9639
8.3812 -2.7981 -2.5014 0.9639
8.4871 -2.4583 -2.5014 0.9639
8.7215 -1.4174 -2.5014 0.9639
8.7715 -1.0651 -2.5014 0.9639
8.8288 0.3558 -2.5014 0.9639
8.6337 1.7626 -2.4946 0.9640
8.0571 1.9859 -2.3492 0.9661
7.7675 2.9458 -2.3517 0.9661
7.5106 3.5638 -2.3534 0.9660
7.3636 3.8647 -2.3542 0.9660
7.0290 4.4449 -2.3543 0.9660
6.8443 4.7243 -2.3543 0.9660
3.0988 2.7453 -1.1720 0.9829
4.8098 5.4291 -2.0533 0.9703
4.4887 5.4976 -2.0092 0.9709
4.1616 5.5380 -1.9611 0.9716
3.9161 5.6733 -1.9515 0.9717
3.4836 5.5089 -1.8452 0.9733
3.0638 5.3065 -1.7346 0.9748
2.5953 5.4694 -1.7138 0.9751
2.2953 5.3873 -1.6578 0.9759
1.8098 5.4210 -1.6179 0.9765
1.6101 5.5586 -1.6383 0.9762
1.3536 5.4917 -1.6012 0.9768
0.0000 5.3556 -1.5161 0.9780
-0.2141 5.3129 -1.5053 0.9781
-0.4305 5.3325 -1.5145 0.9780
-1.2805 5.1952 -1.5147 0.9780
-1.5953 5.5078 -1.6233 0.9764
-1.8186 5.4474 -1.6258 0.9764
-1.9820 5.2262 -1.5823 0.9770
-2.2140 5.1965 -1.5.80 0.9768
-3.0561 5.2933 -1.7303 0.9749
-4.1094 5.4686 -1.9365 0.9720
-4.3427 5.3188 -1.9439 0.9719
-5.3747 5.5956 -2.1964 0.9683
-5.7578 5.1009 -2.1776 0.9685
-6.7231 5.0521 -2.3807 0.9656
-7.2749 4.2002 -2.3781 0.9657
-7.5792 3.5964 -2.3749 0.9657
-7.7081 3.2841 -2.3719 0.9658
-7.8250 2.9677 -2.3692 0.9658
-8.0252 2.3245 -2.3653 0.9659
-8.7395 1.7842 -2.5251 0.9636
-8.8089 1.4316 -2.5265 0.9636
-8.9018 0.7186 -2.5282 0.9636
-8.1739 0.0000 -2.5141 0.9664
-8.0629 -1.3104 -2.5125 0.9664
-8.0000 -1.6332 -2.5114 0.9664
-7.9234 -1.9530 -2.5100 0.9664
-7.7343 -2.5821 -2.5080 0.9665
-7.6191 -2.8895 -2.5063 0.9665
-7.4923 -3.1922 -2.5049 0.9665
-7.2100 -3.7841 -2.5045 0.9665
-6.6997 -4.6245 -2.5039 0.9665
-6.3047 -5.1476 -2.5035 0.9665
-6.0918 -5.3968 -2.5032 0.9665
-5.8690 -5.6372 -2.5030 0.9665
-5.3953 -6.0901 -2.5025 0.9665
-5.1435 -6.2999 -2.5015 0.9665
-4.8856 -6.5015 -2.5014 0.9665
-4.3466 -6.8735 -2.5014 0.9665
-4.0663 -7.0430 -2.5014 0.9665
-3.7794 -7.2010 -2.5014 0.9665
-2.8838 -7.6041 -2.5014 0.9665
-1.3046 -8.0272 -2.5014 0.9665
-0.6544 -8.1062 -2.5014 0.9665
0.0000 -8.1325 -2.5014 0.9665
0.3275 -8.1260 -2.5014 0.9665
0.9803 -8.0732 -2.5014 0.9665
1.3046 -8.0272 -2.5014 0.9665
2.2626 -7.8115 -2.5014 0.9665
2.5753 -7.7140 -2.5014 0.9665
2.8838 -7.6041 -2.5014 0.9665
3.4864 -7.3473 -2.5014 0.9665
4.0663 -7.0430 -2.5014 0.9665
4.3466 -6.8735 -2.5014 0.9665
5.1434 -6.2995 -2.5014 0.9665
5.3929 -6.0873 -2.5014 0.9665
5.8652 -5.6336 -2.5014 0.9665
6.5015 -4.8856 -2.5014 0.9665
7.0430 -4.0663 -2.5014 0.9665
7.2010 -3.7794 -2.5014 0.9665
7.4818 -3.1877 -2.5014 0.9665
8.1062 -0.6544 -2.5014 0.9665
8.1325 -0.0000 -2.5014 0.9665
8.1260 0.3274 -2.5014 0.9665
8.0732 0.9803 -2.5014 0.9665
7.9682 1.6267 -2.5014 0.9665
7.4151 1.8277 -2.3490 0.9685
7.2484 2.4199 -2.3504 0.9685
6.9107 3.2792 -2.3527 0.9685
6.6286 3.8270 -2.3542 0.9685
6.2994 4.3482 -2.3543 0.9685
3.0980 2.7446 -1.2730 0.9828
3.0100 2.8912 -1.2837 0.9827
3.1049 3.2326 -1.3786 0.9814
4.5418 5.5627 -2.2088 0.9704
3.4592 5.4703 -1.9907 0.9733
2.8756 5.4789 -1.9032 0.9744
2.0440 5.3896 -1.7730 0.9762
1.6374 5.6526 -1.8101 0.9757
1.3737 5.5731 -1.7655 0.9763
0.8670 5.3348 -1.6624 0.9776
0.4513 5.5900 -1.7250 0.9768
0.2205 5.4704 -1.6839 0.9773
-0.2175 5.3974 -1.6615 0.9776
-0.4355 5.3952 -1.6649 0.9776
-0.6755 5.5632 -1.7237 0.9768
-0.8669 5.3346 -1.6623 0.9776
-1.3058 5.2981 -1.6783 0.9774
-1.5666 5.4084 -1.7319 0.9767
-1.8152 5.4371 -1.7631 0.9763
-2.0090 5.2973 -1.7426 0.9766
-2.5168 5.3040 -1.8057 0.9757
-3.3040 5.2249 -1.9014 0.9745
-3.8223 5.5375 -2.0696 0.9722
-5.3024 5.5204 -2.3543 0.9685
-2.4178 2.3223 -1.0311 0.9861
-5.9172 4.8312 -2.3496 0.9685
-6.1220 4.6004 -2.3554 0.9685
-6.4761 4.0953 -2.3568 0.9684
-6.7862 3.5617 -2.3573 0.9684
-7.1621 2.7162 -2.3560 0.9685
-7.3511 2.1293 -2.3540 0.9685
-7.9997 1.6332 -2.5113 0.9664
-8.0627 1.3103 -2.5124 0.9664
-8.1469 0.6577 -2.5140 0.9664
-8.1675 0.3292 -2.5142 0.9664
-7.5330 -0.3036 -2.5060 0.9687
-7.4403 -1.2092 -2.5056 0.9687
-7.1482 -2.3864 -2.5050 0.9687
-7.0458 -2.6721 -2.5049 0.9687
-6.8070 -3.2300 -2.5045 0.9687
-6.5240 -3.7667 -2.5041 0.9687
-6.3666 -4.0260 -2.5039 0.9687
-6.1988 -4.2787 -2.5037 0.9687
-6.0210 -4.5245 -2.5035 0.9688
-5.8335 -4.7629 -2.5033 0.9688
-5.6359 -4.9930 -2.5028 0.9688
-5.4275 -5.2133 -2.5016 0.9688
-4.2748 -6.1931 -2.5014 0.9688
-3.7626 -6.5169 -2.5014 0.9688
-3.2260 -6.7986 -2.5014 0.9688
-1.8009 -7.3065 -2.5014 0.9688
-1.5052 -7.3731 -2.5014 0.9688
-0.9071 -7.4703 -2.5014 0.9688
-0.6055 -7.5007 -2.5014 0.9688
-0.3030 -7.5190 -2.5014 0.9688
0.9071 -7.4703 -2.5014 0.9688
1.5052 -7.3731 -2.5014 0.9688
1.8009 -7.3065 -2.5014 0.9688
2.0936 -7.2280 -2.5014 0.9688
2.9496 -6.9230 -2.5014 0.9688
3.2260 -6.7986 -2.5014 0.9688
3.4971 -6.6632 -2.5014 0.9688
4.0219 -6.3602 -2.5014 0.9688
4.5207 -6.0159 -2.5014 0.9688
5.2128 -5.4271 -2.5014 0.9688
5.6326 -4.9901 -2.5014 0.9688
5.8290 -4.7592 -2.5014 0.9688
6.0159 -4.5207 -2.5014 0.9688
6.1931 -4.2748 -2.5014 0.9688
6.3602 -4.0219 -2.5014 0.9688
6.9230 -2.9496 -2.5014 0.9688
7.0361 -2.6685 -2.5014 0.9688
7.2280 -2.0936 -2.5014 0.9688
7.3065 -1.8009 --25014 0.9688
7.3731 -1.5052 -2.5014 0.9688
7.4277 -1.2071 -2.5014 0.9688
7.4703 -0.9071 -2.5014 0.9688
7.5190 -0.3030 -2.5014 0.9688
7.4703 0.9071 -2.5014 0.9688
6.7058 2.2387 -2.3500 0.9706
6.2674 3.2894 -2.3528 0.9706
6.1317 3.5401 -2.3535 0.9706
5.6622 4.2549 -2.3543 0.9706
3.0973 2.7439 -1.3755 0.9827
3.0093 2.8904 -1.3870 0.9826
4.6967 5.3015 -2.3543 0.9706
4.4794 5.4863 -2.3543 0.9706
3.9750 5.7588 -2.3260 0.9709
3.4505 5.4564 -2.1460 0.9732
2.8923 5.5107 -2.0687 0.9741
1.6413 5.6661 -1.9609 0.9754
0.2195 5.4468 -1.8120 0.9773
-0.2175 5.3972 -1.7955 0.9775
-0.8762 5.3918 -1.8158 0.9772
-1.3181 5.3476 -1.8308 0.9771
-1.8125 5.4290 -1.9025 0.9762
-2.0094 5.2983 -1.8836 0.9764
-2.6289 5.5403 -2.0384 0.9745
-3.3506 5.2985 -2.0839 0.9739
-3.9081 5.6619 -2.2869 0.9714
-4.1976 5.5859 -2.3226 0.9710
-4.3805 5.3651 -2.3024 0.9712
-2.4178 2.3223 -1.1144 0.9860
-5.3015 4.6967 -2.3543 0.9706
-5.4863 4.4794 -2.3543 0.9706
-5.6494 4.2452 -2.3490 0.9707
-5.8157 4.0143 -2.3490 0.9707
-6.2572 3.2841 -2.3490 0.9707
-6.5018 2.7702 -2.3492 0.9706
-6.7040 2.2381 -2.3494 0.9706
-6.7888 1.9664 -2.3494 0.9706
-6.8624 1.6915 -2.3494 0.9706
-7.3809 1.5068 -2.5041 0.9687
-7.0001 -0.0000 -2.5033 0.9707
-6.9964 -0.2820 -2.5040 0.9707
-6.8639 -1.4013 -2.5052 0.9707
-6.8015 -1.6764 -2.5051 0.9707
-6.7281 -1.9488 -2.5049 0.9707
-6.6438 -2.2180 -2.5048 0.9707
-6.5487 -2.4836 -2.5046 0.9707
-6.3268 -3.0021 -2.5043 0.9707
-5.9141 -3.7398 -2.5023 0.9707
-5.5920 -4.2021 -2.5014 0.9707
-5.0447 -4.8455 -2.5014 0.9707
-4.8455 -5.0447 -2.5014 0.9707
-3.7385 -5.9119 -2.5014 0.9707
-3.4974 -6.0577 -2.5014 0.9707
-2.9986 -6.3195 -2.5014 0.9707
-2.7417 -6.4351 -2.5014 0.9707
-2.2150 -6.6348 -2.5014 0.9707
-1.9461 -6.7187 -2.5014 0.9707
-1.6740 -6.7916 -2.5014 0.9707
-1.3991 -6.8535 -2.5014 0.9707
-0.8431 -6.9438 -2.5014 0.9707
-0.2817 -6.9891 -2.5014 0.9707
0.0000 -6.9948 -2.5014 0.9707
0.5628 -6.9721 -2.5014 0.9707
0.8431 -6.9438 -2.5014 0.9707
1.3991 -6.8534 -2.5014 0.9707
2.4804 -6.5403 -2.5014 0.9707
2.7417 -6.4351 -2.5014 0.9707
3.2506 -6.1936 -2.5014 0.9707
3.7385 -5.9120 -2.5014 0.9707
3.9735 -5.7566 -2.5014 0.9707
4.2021 -5.5920 -2.5014 0.9707
5.4182 -4.4238 -2.5014 0.9707
5.5919 -4.2021 -2.5014 0.9707
5.9119 -3.7385 -2.5014 0.9707
6.0577 -3.4974 -2.5014 0.9707
6.1936 -3.2507 -2.5014 0.9707
6.3195 -2.9986 -2.5014 0.9707
6.4351 -2.7417 -2.5014 0.9707
6.7186 -1.9461 -2.5014 0.9707
6.9721 -0.5629 -2.5014 0.9707
6.9891 -0.2817 -2.5014 0.9707
6.9042 1.1220 -2.5014 0.9707
6.0481 2.5768 -2.3510 0.9725
5.6981 3.2898 -2.3529 0.9724
5.2632 3.9550 -2.3543 0.9724
3.0965 2.7432 -1.4794 0.9826
3.0085 2.8897 -1.4918 0.9824
3.7399 5.4182 -2.3543 0.9724
2.8979 5.5214 -2.2299 0.9739
2.3612 5.5419 -2.1542 0.9747
2.0515 5.4093 -2.0689 0.9757
1.6489 5.6925 -2.1194 0.9751
1.3792 5.5956 -2.0609 0.9758
1.0990 5.3829 -1.9647 0.9769
