ply
format ascii 1.0
element vertex 1580
property float32 x
property float32 y
property float32 z
property float32 I
end_header
-25.2275 -20.5976 -2.3880 0.8775
-24.3737 -21.5932 -2.3876 0.8776
-23.8760 -24.8576 -2.5272 0.8709
-22.9715 -25.9295 -2.5400 0.8703
-20.8106 -27.6938 -2.5400 0.8703
-19.6786 -28.5094 -2.5400 0.8703
-18.5147 -29.2786 -2.5400 0.8703
-17.3207 -30.0004 -2.5400 0.8703
-14.8505 -31.2968 -2.5400 0.8703
-6.4018 -15.0255 -1.1975 0.9366
-10.9698 -32.8587 -2.5400 0.8703
-9.6378 -33.2738 -2.5400 0.8703
-3.6402 -14.7690 -1.1153 0.9408
-3.0039 -14.7143 -1.1011 0.9415
-1.8171 -11.1808 -0.8306 0.9556
1.1590 -14.3563 -1.0561 0.9439
3.4891 -14.1559 -1.0690 0.9432
4.0855 -14.1046 -1.0767 0.9428
10.2822 -30.7989 -2.3808 0.8779
11.5120 -30.3546 -2.3803 0.8779
12.7223 -29.8604 -2.3799 0.8779
15.0766 -28.7261 -2.3787 0.8780
16.1335 -27.9440 -2.3659 0.8786
15.3168 -20.3829 -1.8695 0.9028
15.3468 -18.7964 -1.7792 0.9073
15.2064 -17.1645 -1.6814 0.9121
12.8257 -13.3529 -1.3575 0.9284
15.9399 -13.0145 -1.5088 0.9208
18.5922 -12.8333 -1.6564 0.9134
25.5923 -14.7757 -2.1668 0.8882
28.8943 -12.3107 -2.3029 0.8816
30.5109 -10.1860 -2.3585 0.8790
30.8611 -8.9390 -2.3558 0.8791
31.1591 -7.6800 -2.3530 0.8792
31.4054 -6.4115 -2.3502 0.8794
34.0875 -1.3737 -2.5014 0.8721
34.0045 2.7451 -2.5014 0.8721
33.6734 5.4725 -2.5014 0.8721
31.1435 7.6762 -2.3518 0.8793
30.8417 8.9334 -2.3543 0.8792
22.8320 8.6590 -1.7904 0.9067
15.1353 7.1817 -1.2283 0.9350
10.8343 6.8512 -0.9399 0.9499
8.2859 6.2264 -0.7600 0.9593
7.3391 6.5019 -0.7189 0.9614
6.3660 6.1147 -0.6472 0.9652
6.1907 6.4452 -0.6553 0.9648
2.4065 3.2024 -0.2937 0.9841
2.1982 3.1846 -0.2837 0.9846
2.0834 3.2946 -0.2858 0.9845
2.0863 3.6135 -0.3059 0.9834
3.0400 6.4066 -0.5199 0.9720
2.7211 6.3866 -0.5090 0.9725
2.2832 6.0202 -0.4721 0.9745
2.0494 6.1386 -0.4745 0.9744
2.9751 10.2711 -0.7841 0.9580
1.5750 6.3897 -0.4825 0.9740
1.2410 6.0785 -0.4549 0.9754
0.7546 6.2142 -0.4590 0.9752
1.3941 17.2690 -1.2703 0.9329
0.2589 6.4242 -0.4714 0.9745
0.0000 6.0591 -0.4443 0.9760
-0.2476 6.1451 -0.4509 0.9756
-1.4900 6.0454 -0.4565 0.9753
-3.4901 5.5191 -0.4788 0.9741
-4.1039 5.9455 -0.5297 0.9714
-4.2342 5.6347 -0.5168 0.9721
-5.8211 5.1570 -0.5702 0.9693
-6.6038 5.3918 -0.6251 0.9664
-30.9277 10.3252 -2.3907 0.8774
-29.7800 7.3401 -2.2489 0.8843
-32.0199 6.5369 -2.3962 0.8772
-29.4854 4.7919 -2.1903 0.8871
-32.4788 3.9436 -2.3989 0.8770
-26.2639 -3.1890 -2.5400 0.8991
-25.9221 -5.2920 -2.5400 0.8991
-25.4122 -7.3607 -2.5400 0.8991
-24.7375 -9.3817 -2.5400 0.8991
-24.3397 -10.3702 -2.5400 0.8991
-22.9123 -13.2284 -2.5400 0.8991
-21.1507 -15.8937 -2.5400 0.8991
-20.4935 -16.7325 -2.5400 0.8991
-19.8032 -17.5441 -2.5400 0.8991
-17.5441 -19.8032 -2.5400 0.8991
-15.8937 -21.1507 -2.5400 0.8991
-15.0292 -21.7735 -2.5400 0.8991
-7.8753 -23.5894 -2.3876 0.9049
-6.9197 -23.8895 -2.3878 0.9049
-0.5846 -14.5062 -1.3938 0.9433
0.0000 -14.4559 -1.3878 0.9436
1.1590 -14.3563 -1.3828 0.9438
1.7371 -14.3065 -1.3836 0.9437
3.4891 -14.1559 -1.3997 0.9431
8.7616 -23.1024 -2.3721 0.9055
9.6797 -22.7190 -2.3709 0.9055
10.5848 -22.3071 -2.3705 0.9055
14.0139 -20.3027 -2.3684 0.9056
14.8161 -19.7167 -2.3678 0.9056
15.2064 -17.1645 -2.2015 0.9120
12.8257 -13.3529 -1.7775 0.9283
13.8135 -13.2680 -1.8388 0.9259
14.8736 -13.1768 -1.9077 0.9233
18.5490 -12.8035 -2.1638 0.9134
21.2835 -12.2880 -2.3594 0.9060
22.1724 -10.5209 -2.3561 0.9061
22.9067 -8.6874 -2.3520 0.9062
24.2427 -7.0220 -2.4231 0.9036
25.7174 -4.1795 -2.5014 0.9006
11.0704 -1.3442 -1.0706 0.9562
11.1649 -0.4499 -1.0728 0.9561
26.0548 0.0000 -2.5014 0.9006
25.8649 3.1406 -2.5014 0.9006
23.2610 7.7657 -2.3543 0.9062
22.9294 8.6960 -2.3543 0.9062
18.2623 7.7808 -1.9058 0.9233
15.0834 7.1571 -1.6028 0.9351
13.1211 6.8865 -1.4226 0.9422
12.0626 6.9643 -1.3372 0.9456
9.2621 6.3932 -1.0805 0.9558
8.7276 6.5584 -1.0481 0.9571
7.7368 6.3169 -0.9589 0.9607
7.3984 6.5544 -0.9489 0.9611
6.3080 6.0589 -0.8397 0.9655
6.0733 6.3229 -0.8417 0.9654
5.0495 6.1844 -0.7665 0.9684
2.1975 3.1837 -0.3714 0.9846
2.0808 3.6040 -0.3995 0.9834
2.9316 6.1781 -0.6565 0.9729
2.6041 6.1119 -0.6378 0.9737
2.2501 5.9329 -0.6092 0.9748
1.9355 5.7973 -0.5868 0.9757
1.7467 6.0301 -0.6027 0.9751
1.5357 6.2306 -0.6161 0.9745
1.1972 5.8641 -0.5746 0.9762
0.9512 5.8530 -0.5693 0.9765
-0.2273 5.6419 -0.5421 0.9776
-0.7321 6.0298 -0.5831 0.9759
-0.9453 5.8169 -0.5658 0.9766
-1.3969 5.6676 -0.5604 0.9768
-2.3595 5.5379 -0.5779 0.9761
-2.6997 5.6895 -0.6046 0.9750
-2.9897 5.6965 -0.6176 0.9745
-3.1189 5.4021 -0.5989 0.9752
-4.7291 5.3380 -0.6847 0.9717
-5.3433 5.5630 -0.7405 0.9695
-5.5208 5.3027 -0.7349 0.9697
-5.9863 5.3033 -0.7678 0.9684
-6.5873 5.3783 -0.8164 0.9664
-3.4028 2.3488 -0.3970 0.9835
-22.9123 13.2284 -2.5400 0.8991
-23.4263 12.2951 -2.5400 0.8991
-23.9024 11.3419 -2.5400 0.8991
-25.0953 8.3780 -2.5400 0.8991
-25.9221 5.2921 -2.5400 0.8991
-26.1142 4.2440 -2.5400 0.8991
-26.2639 3.1890 -2.5400 0.8991
-26.3710 2.1289 -2.5400 0.8991
-26.4353 1.0653 -2.5400 0.8991
-21.3829 0.0000 -2.5400 0.9175
-21.3655 -0.8610 -2.5400 0.9175
-21.3135 -1.7206 -2.5400 0.9175
-20.9507 -4.2771 -2.5400 0.9175
-20.5386 -5.9491 -2.5400 0.9175
-17.5978 -12.1469 -2.5400 0.9175
-16.5633 -13.5235 -2.5400 0.9175
-15.4214 -14.8124 -2.5400 0.9175
-14.8124 -15.4214 -2.5400 0.9175
-13.5235 -16.5633 -2.5400 0.9175
-11.4284 -18.0726 -2.5400 0.9175
-9.9371 -18.9336 -2.5400 0.9175
-7.1283 -18.7959 -2.3879 0.9222
-6.3672 -19.0720 -2.3884 0.9222
-3.6402 -14.7690 -1.8068 0.9406
-3.0039 -14.7143 -1.7839 0.9413
-1.8162 -11.1756 -1.3449 0.9554
-1.3807 -11.3712 -1.3607 0.9549
-1.1752 -14.5570 -1.7348 0.9429
-0.5846 -14.5062 -1.7245 0.9432
0.0000 -14.4559 -1.7172 0.9434
0.5805 -14.4060 -1.7126 0.9436
1.7371 -14.3065 -1.7119 0.9436
2.3169 -14.2567 -1.7157 0.9435
4.0855 -14.1046 -1.7443 0.9426
7.0630 -18.6237 -2.3660 0.9229
9.9528 -17.2388 -2.3645 0.9229
10.6367 -16.8206 -2.3640 0.9230
11.3030 -16.3752 -2.3635 0.9230
12.5779 -15.4052 -2.3624 0.9230
13.1846 -14.8823 -2.3618 0.9230
14.3311 -13.7652 -2.3604 0.9231
14.8692 -13.1729 -2.3597 0.9231
15.8657 -11.9223 -2.3574 0.9232
16.7523 -10.5935 -2.3544 0.9233
18.6225 -7.9343 -2.4045 0.9217
19.9743 -6.6684 -2.5014 0.9187
20.2266 -5.8587 -2.5014 0.9187
20.7853 -3.3779 -2.5014 0.9187
12.7233 0.0000 -1.5113 0.9500
20.9045 2.5383 -2.5014 0.9187
19.0186 5.5088 -2.3520 0.9233
18.5320 7.0283 -2.3543 0.9233
15.0724 7.1519 -1.9817 0.9350
12.0889 6.9796 -1.6581 0.9453
10.6986 6.7654 -1.5036 0.9503
8.5185 6.4012 -1.2657 0.9580
7.7414 6.3207 -1.1872 0.9605
5.2956 5.9773 -0.9486 0.9683
5.0496 6.1846 -0.9484 0.9684
2.0753 3.5946 -0.4930 0.9834
3.1793 6.0575 -0.8126 0.9728
2.6038 6.1111 -0.7891 0.9736
2.2345 5.8918 -0.7485 0.9749
1.9543 5.8538 -0.7331 0.9754
0.6991 5.7577 -0.6890 0.9769
0.4867 6.0287 -0.7185 0.9759
0.2368 5.8739 -0.6983 0.9766
-0.2278 5.6551 -0.6723 0.9775
-0.4428 5.4858 -0.6538 0.9781
-0.7099 5.8467 -0.6996 0.9766
-0.9368 5.7643 -0.6937 0.9768
-2.0768 5.4760 -0.6957 0.9767
-3.7157 5.3831 -0.7770 0.9740
-4.2191 5.1675 -0.7924 0.9735
-4.6858 5.2891 -0.8394 0.9719
-5.3096 5.5278 -0.9105 0.9696
-5.4480 5.2328 -0.8973 0.9700
-5.9599 5.2800 -0.9458 0.9684
-4.9746 3.1457 -0.6991 0.9766
-18.9336 9.9371 -2.5400 0.9175
-21.3655 0.8610 -2.5400 0.9175
-17.9119 -0.7218 -2.5400 0.9301
-17.7957 -2.1608 -2.5400 0.9301
-17.6943 -2.8756 -2.5400 0.9301
-17.2187 -4.9874 -2.5400 0.9301
-17.0039 -5.6767 -2.5400 0.9301
-16.7615 -6.3568 -2.5400 0.9301
-16.1956 -7.6849 -2.5400 0.9301
-14.7532 -10.1834 -2.5400 0.9301
-14.3311 -10.7692 -2.5400 0.9301
-12.4181 -12.9286 -2.5400 0.9301
-10.7692 -14.3312 -2.5400 0.9301
-8.4254 -14.5933 -2.3876 0.9342
-7.2238 -15.2239 -2.3876 0.9342
-6.3336 -14.8655 -2.2895 0.9368
-5.9762 -15.7581 -2.3879 0.9342
-4.6882 -16.1857 -2.3876 0.9342
-2.9946 -14.6685 -2.1212 0.9413
-1.8158 -11.1729 -1.6039 0.9553
-1.3802 -11.3673 -1.6225 0.9548
-0.5846 -14.5062 -2.0570 0.9430
0.5805 -14.4060 -2.0428 0.9434
2.9003 -14.2065 -2.0544 0.9431
3.4891 -14.1559 -2.0658 0.9428
5.2789 -15.8121 -2.3620 0.9349
5.9107 -15.5852 -2.3617 0.9349
6.5327 -15.3328 -2.3615 0.9349
8.3297 -14.4274 -2.3605 0.9349
8.9024 -14.0780 -2.3601 0.9349
10.0025 -13.3109 -2.3592 0.9349
10.5263 -12.8923 -2.3582 0.9350
11.0323 -12.4529 -2.3573 0.9350
11.5198 -11.9934 -2.3563 0.9350
11.9880 -11.5146 -2.3552 0.9351
12.8633 -10.5025 -2.3529 0.9351
13.2690 -9.9710 -2.3517 0.9351
13.6525 -9.4236 -2.3505 0.9352
14.0133 -8.8614 -2.3492 0.9352
15.6319 -8.2043 -2.5014 0.9312
15.9496 -7.5682 -2.5014 0.9312
16.2414 -6.9198 -2.5014 0.9312
16.5069 -6.2602 -2.5014 0.9312
16.9571 -4.9117 -2.5014 0.9312
17.2973 -3.5313 -2.5014 0.9312
9.8910 -1.6075 -1.4198 0.9603
11.5709 -0.0000 -1.6395 0.9543
17.4255 2.8319 -2.5014 0.9312
17.2973 3.5313 -2.5014 0.9312
16.0977 3.9677 -2.3491 0.9352
15.9369 4.6162 -2.3509 0.9352
15.7500 5.2581 -2.3527 0.9351
15.5364 5.8922 -2.3543 0.9351
15.2865 6.5130 -2.3543 0.9351
15.0119 7.1232 -2.3543 0.9351
13.0648 6.8569 -2.0906 0.9421
9.2211 6.3649 -1.5876 0.9557
6.1507 6.4035 -1.2580 0.9648
5.3793 6.0719 -1.1494 0.9678
2.0819 3.2922 -0.5519 0.9844
2.9515 6.2201 -0.9755 0.9726
1.8998 5.6904 -0.8500 0.9761
0.9357 5.7573 -0.8264 0.9767
0.4833 5.9860 -0.8509 0.9760
0.2354 5.8406 -0.8282 0.9767
-0.4567 5.6582 -0.8043 0.9773
-0.6914 5.6945 -0.8128 0.9771
-2.0987 5.5338 -0.8386 0.9764
-2.3368 5.4846 -0.8447 0.9762
-2.9418 5.6052 -0.8969 0.9747
-3.1218 5.4071 -0.8847 0.9751
-3.3529 5.3022 -0.8889 0.9750
-5.2601 5.4763 -1.0759 0.9698
-5.4040 5.1906 -1.0617 0.9702
-6.6077 5.3950 -1.2087 0.9661
-3.4028 2.3488 -0.5858 0.9834
-15.1512 9.5811 -2.5400 0.9301
-16.1956 7.6849 -2.5400 0.9301
-16.4919 7.0266 -2.5400 0.9301
-16.7615 6.3568 -2.5400 0.9301
-17.0039 5.6767 -2.5400 0.9301
-17.2187 4.9875 -2.5400 0.9301
-17.5641 3.5858 -2.5400 0.9301
-17.6943 2.8756 -2.5400 0.9301
-17.8683 1.4425 -2.5400 0.9301
-17.9119 0.7219 -2.5400 0.9301
-15.4057 -0.6208 -2.5400 0.9394
-15.3058 -1.8585 -2.5400 0.9394
-15.2185 -2.4733 -2.5400 0.9394
-15.1066 -3.0840 -2.5400 0.9394
-14.9702 -3.6898 -2.5400 0.9394
-13.6521 -7.1652 -2.5400 0.9394
-13.0313 -8.2405 -2.5400 0.9394
-11.9430 -9.7512 -2.5400 0.9394
-11.1197 -10.6806 -2.5400 0.9394
-9.7512 -11.9430 -2.5400 0.9394
-8.7063 -12.6133 -2.5248 0.9398
-7.6482 -12.0947 -2.3574 0.9436
-5.5898 -13.1198 -2.3493 0.9438
-3.9808 -13.7433 -2.3571 0.9436
-3.4249 -13.8953 -2.3576 0.9436
-1.8153 -11.1703 -1.8643 0.9552
-1.3798 -11.3634 -1.8857 0.9547
0.0000 -14.3219 -2.3594 0.9436
1.1525 -14.2759 -2.3594 0.9436
2.2974 -14.1364 -2.3594 0.9436
2.8646 -14.0316 -2.3592 0.9436
3.4270 -13.9036 -2.3590 0.9436
3.9836 -13.7528 -2.3588 0.9436
4.5335 -13.5795 -2.3584 0.9436
5.0758 -13.3838 -2.3581 0.9436
5.6096 -13.1661 -2.3576 0.9436
7.1508 -12.3856 -2.3560 0.9437
7.6417 -12.0843 -2.3554 0.9437
9.0341 -11.0647 -2.3532 0.9437
9.4690 -10.6882 -2.3524 0.9438
10.2905 -9.8841 -2.3506 0.9438
11.8165 -8.8795 -2.4350 0.9418
12.4962 -8.6255 -2.5014 0.9403
12.8333 -8.1153 -2.5014 0.9403
13.9689 -5.9516 -2.5014 0.9403
14.4025 -4.8083 -2.5014 0.9403
14.8771 -3.0372 -2.5014 0.9403
9.7295 -1.5812 -1.6239 0.9608
9.6540 -0.7793 -1.5956 0.9615
11.1388 -0.0000 -1.8350 0.9558
15.1717 0.6114 -2.5014 0.9403
15.1347 1.2218 -2.5014 0.9403
13.9270 3.4327 -2.3630 0.9435
12.6604 4.2267 -2.1988 0.9473
13.3555 5.0651 -2.3531 0.9437
12.9114 6.1266 -2.3543 0.9437
12.6543 6.6415 -2.3543 0.9437
10.7973 6.8278 -2.1045 0.9495
9.2111 6.3580 -1.8438 0.9556
8.7747 6.5938 -1.8082 0.9565
7.7618 6.3373 -1.6507 0.9602
6.4342 6.1801 -1.4697 0.9645
6.1656 6.4191 -1.4663 0.9646
5.0502 6.1852 -1.3154 0.9681
2.0813 3.2914 -0.6415 0.9843
2.0644 3.5757 -0.6802 0.9834
2.9500 6.2170 -1.1336 0.9725
2.2342 5.8911 -1.0379 0.9748
1.1815 5.7871 -0.9730 0.9763
0.6897 5.6801 -0.9426 0.9771
0.4865 6.0257 -0.9959 0.9758
0.2350 5.8298 -0.9612 0.9766
0.0000 5.7359 -0.9449 0.9770
-0.4414 5.4688 -0.9039 0.9780
-0.7001 5.7662 -0.9569 0.9767
-1.3812 5.6041 -0.9508 0.9769
-1.6075 5.5498 -0.9519 0.9768
-1.9025 5.6987 -0.9897 0.9759
-2.1001 5.5376 -0.9757 0.9763
-3.0909 5.3536 -1.0184 0.9753
-4.6323 5.2288 -1.1508 0.9721
-5.3101 5.5284 -1.2628 0.9694
-5.4626 5.2468 -1.2478 0.9698
-5.7674 5.1094 -1.2693 0.9692
-6.7055 5.0388 -1.3818 0.9666
-3.4028 2.3488 -0.6811 0.9834
-13.3526 7.7091 -2.5400 0.9394
-13.6521 7.1652 -2.5400 0.9394
-14.4163 5.4674 -2.5400 0.9394
-14.9702 3.6898 -2.5400 0.9394
-15.1066 3.0841 -2.5400 0.9394
-15.4057 0.6208 -2.5400 0.9394
-13.4148 -1.6289 -2.5400 0.9465
-13.3384 -2.1677 -2.5400 0.9465
-13.2403 -2.7030 -2.5400 0.9465
-12.9798 -3.7597 -2.5400 0.9465
-12.8179 -4.2792 -2.5400 0.9465
-12.6352 -4.7919 -2.5400 0.9465
-10.8032 -8.1181 -2.5400 0.9465
-9.7459 -9.3610 -2.5400 0.9465
-8.4648 -10.3675 -2.5157 0.9470
-8.0177 -10.6696 -2.5086 0.9471
-7.1152 -11.2517 -2.5023 0.9473
-6.3229 -10.9517 -2.3769 0.9498
-5.8078 -11.0658 -2.3490 0.9504
-4.8985 -11.4972 -2.3490 0.9504
-4.4367 -11.6985 -2.3517 0.9504
-3.4824 -12.0228 -2.3527 0.9503
-2.9961 -12.1555 -2.3531 0.9503
-1.3793 -11.3594 -2.1508 0.9545
-1.0079 -12.4854 -2.3544 0.9503
-0.5044 -12.5168 -2.3546 0.9503
0.0000 -12.5277 -2.3547 0.9503
2.0096 -12.3655 -2.3547 0.9503
3.4847 -12.0305 -2.3542 0.9503
4.9074 -11.5180 -2.3532 0.9503
5.3662 -11.3091 -2.3528 0.9503
6.2562 -10.8361 -2.3518 0.9503
7.1044 -10.2925 -2.3507 0.9504
7.5110 -9.9953 -2.3501 0.9504
9.5294 -9.1531 -2.4836 0.9476
10.3085 -8.4166 -2.5014 0.9473
10.6390 -7.9947 -2.5014 0.9473
10.9523 -7.5598 -2.5014 0.9473
11.5251 -6.6540 -2.5014 0.9473
11.7837 -6.1846 -2.5014 0.9473
12.2431 -5.2163 -2.5014 0.9473
12.7826 -3.7025 -2.5014 0.9473
12.9214 -3.1848 -2.5014 0.9473
9.5471 -0.7707 -1.8003 0.9618
10.1057 0.0000 -1.8995 0.9597
13.0391 2.6620 -2.5014 0.9473
12.0058 3.4775 -2.3494 0.9504
11.8627 3.9604 -2.3507 0.9504
11.3163 5.3696 -2.3543 0.9503
10.8475 6.2628 -2.3543 0.9503
10.5866 6.6945 -2.3543 0.9503
9.3304 6.4403 -2.1310 0.9549
7.7946 6.3641 -1.8914 0.9599
7.4428 6.5937 -1.8690 0.9603
5.3029 5.9856 -1.5031 0.9680
2.4028 3.1975 -0.7518 0.9839
2.1949 3.1799 -0.7262 0.9844
2.0808 3.2905 -0.7318 0.9843
2.9408 6.1976 -1.2894 0.9725
1.7307 5.9750 -1.1692 0.9750
0.4833 5.9862 -1.1288 0.9759
0.0000 5.6716 -1.0660 0.9772
-0.4489 5.5611 -1.0487 0.9775
-0.9265 5.7013 -1.0857 0.9768
-1.3767 5.5857 -1.0813 0.9769
-1.6031 5.5347 -1.0831 0.9768
-1.9125 5.7285 -1.1352 0.9757
-2.3373 5.4858 -1.1208 0.9760
-3.0539 5.2896 -1.1480 0.9754
-3.3662 5.3233 -1.1838 0.9747
-3.8090 5.5183 -1.2603 0.9731
-4.0941 5.4482 -1.2810 0.9726
-5.2435 5.4591 -1.4228 0.9697
-6.5843 5.3759 -1.5977 0.9660
-10.7361 6.7891 -2.3876 0.9496
-11.0007 6.3513 -2.3876 0.9496
-12.2087 5.7931 -2.5400 0.9465
-12.4320 5.2968 -2.5400 0.9465
-12.6352 4.7919 -2.5400 0.9465
-12.8179 4.2793 -2.5400 0.9465
-12.9798 3.7597 -2.5400 0.9465
-13.4696 1.0874 -2.5400 0.9465
-12.0065 -0.4838 -2.5400 0.9521
-11.9772 -0.9669 -2.5400 0.9521
-11.9286 -1.4483 -2.5400 0.9521
-11.7734 -2.4036 -2.5400 0.9521
-11.2353 -4.2610 -2.5400 0.9521
-11.0547 -4.7100 -2.5400 0.9521
-10.6398 -5.5842 -2.5400 0.9521
-10.4063 -6.0081 -2.5400 0.9521
-9.8868 -6.8243 -2.5394 0.9521
-9.2702 -7.5687 -2.5297 0.9522
-8.9328 -7.9139 -2.5226 0.9524
-7.1117 -9.4639 -2.5024 0.9528
-6.7239 -9.7413 -2.5020 0.9528
-6.3247 -10.0017 -2.5014 0.9528
-4.9978 -10.5326 -2.4643 0.9535
-4.4722 -10.4968 -2.4118 0.9544
-2.6602 -10.7928 -2.3497 0.9556
-0.8949 -11.0850 -2.3508 0.9556
-0.4478 -11.1129 -2.3509 0.9555
0.4479 -11.1138 -2.3511 0.9555
1.7842 -10.9786 -2.3511 0.9555
2.2247 -10.8973 -2.3510 0.9555
2.6615 -10.7982 -2.3508 0.9555
3.0939 -10.6814 -2.3506 0.9556
3.5211 -10.5471 -2.3504 0.9556
3.9425 -10.3955 -2.3501 0.9556
4.3573 -10.2269 -2.3498 0.9556
4.7648 -10.0416 -2.3494 0.9556
6.5588 -9.5021 -2.4406 0.9539
7.0882 -9.4327 -2.4941 0.9529
8.5345 -8.1975 -2.5014 0.9528
9.4603 -7.1090 -2.5014 0.9528
10.2482 -5.9168 -2.5014 0.9528
10.4782 -5.4994 -2.5014 0.9528
10.6911 -5.0730 -2.5014 0.9528
11.2246 -3.7473 -2.5014 0.9528
11.3664 -3.2923 -2.5014 0.9528
11.5945 -2.3670 -2.5014 0.9528
9.5931 -1.5590 -2.0544 0.9610
9.5326 -1.1575 -2.0298 0.9615
9.5234 -0.7688 -2.0196 0.9617
9.5811 -0.3861 -2.0269 0.9616
11.5945 2.3671 -2.5014 0.9528
10.6739 3.0917 -2.3490 0.9556
10.2379 4.3620 -2.3523 0.9555
9.1663 6.3271 -2.3543 0.9555
8.8823 6.6747 -2.3486 0.9556
6.1171 6.3686 -1.8666 0.9645
5.4003 6.0955 -1.7214 0.9673
2.4020 3.1965 -0.8452 0.9838
2.0803 3.2897 -0.8228 0.9842
3.2015 6.0998 -1.4562 0.9722
2.9218 6.1575 -1.4407 0.9725
2.5723 6.0372 -1.3872 0.9735
2.1922 5.7802 -1.3067 0.9750
1.9365 5.8005 -1.2926 0.9753
1.4718 5.9712 -1.3000 0.9752
0.4811 5.9586 -1.2636 0.9759
0.0001 5.7296 -1.2111 0.9768
-0.2265 5.6221 -1.1894 0.9773
-0.4522 5.6018 -1.1880 0.9773
-1.3715 5.5646 -1.2114 0.9768
-1.9151 5.7365 -1.2784 0.9756
-2.0710 5.4607 -1.2345 0.9764
-2.9490 5.6188 -1.3413 0.9744
-3.7473 5.4290 -1.3944 0.9734
-4.0087 5.3346 -1.4105 0.9731
-4.2692 5.2288 -1.4269 0.9728
-4.5932 5.1846 -1.4641 0.9721
-6.5411 5.3406 -1.7850 0.9661
-6.7339 5.0601 -1.7805 0.9661
-9.5466 6.0369 -2.3876 0.9549
-9.7819 5.6476 -2.3876 0.9549
-10.0014 5.2492 -2.3876 0.9549
-10.2047 4.8422 -2.3876 0.9549
-10.3914 4.4274 -2.3876 0.9549
-10.5612 4.0053 -2.3876 0.9549
-11.3978 3.8051 -2.5400 0.9521
-11.5418 3.3431 -2.5400 0.9521
-11.6670 2.8757 -2.5400 0.9521
-11.7734 2.4035 -2.5400 0.9521
-11.9286 1.4484 -2.5400 0.9521
-10.8074 0.0000 -2.5400 0.9566
-10.7986 -0.4352 -2.5400 0.9566
-10.7723 -0.8696 -2.5400 0.9566
-10.7286 -1.3027 -2.5400 0.9566
-10.6674 -1.7336 -2.5400 0.9566
-10.4934 -2.5856 -2.5400 0.9566
-10.3807 -3.0068 -2.5400 0.9566
-10.2493 -3.4217 -2.5395 0.9566
-9.9329 -4.2320 -2.5375 0.9566
-9.7442 -4.6237 -2.5349 0.9566
-9.5377 -5.0057 -2.5315 0.9567
-9.3136 -5.3768 -2.5275 0.9568
-8.5512 -6.4258 -2.5139 0.9570
-8.2708 -6.7529 -2.5094 0.9571
-7.9820 -7.0712 -2.5062 0.9571
-7.0617 -7.9711 -2.5028 0.9572
-6.7342 -8.2479 -2.5025 0.9572
-6.3959 -8.5114 -2.5022 0.9572
-6.0472 -8.7609 -2.5019 0.9572
-5.6889 -8.9962 -2.5016 0.9572
-4.9461 -9.4241 -2.5014 0.9572
-4.5627 -9.6156 -2.5014 0.9572
-4.1718 -9.7915 -2.5014 0.9572
-3.3703 -10.0955 -2.5014 0.9572
-2.9611 -10.2230 -2.5014 0.9572
-2.5471 -10.3339 -2.5014 0.9572
-2.1045 -10.3085 -2.4727 0.9577
-0.8248 -10.2166 -2.4089 0.9588
0.0000 -10.1517 -2.3859 0.9591
0.8138 -10.0810 -2.3770 0.9593
1.2196 -10.0447 -2.3781 0.9593
2.0352 -9.9689 -2.3912 0.9591
2.4468 -9.9269 -2.4029 0.9589
2.8629 -9.8838 -2.4184 0.9586
4.1523 -9.7459 -2.4897 0.9574
4.5627 -9.6156 -2.5014 0.9572
4.9461 -9.4241 -2.5014 0.9572
5.3216 -9.2173 -2.5014 0.9572
6.0460 -8.7592 -2.5014 0.9572
6.3938 -8.5086 -2.5014 0.9572
6.7312 -8.2443 -2.5014 0.9572
7.3728 -7.6759 -2.5014 0.9572
7.6759 -7.3728 -2.5014 0.9572
8.5086 -6.3938 -2.5014 0.9572
9.6156 -4.5627 -2.5014 0.9572
9.9516 -3.7741 -2.5014 0.9572
10.2230 -2.9611 -2.5014 0.9572
10.4281 -2.1289 -2.5014 0.9572
10.6087 -0.8564 -2.5014 0.9572
10.4281 2.1289 -2.5014 0.9572
10.3339 2.5471 -2.5014 0.9572
9.9751 2.8893 -2.4407 0.9582
9.3511 3.5464 -2.3505 0.9597
9.2048 3.9218 -2.3515 0.9597
8.4667 5.3540 -2.3543 0.9597
7.7596 6.3355 -2.3543 0.9597
6.2363 6.4927 -2.1158 0.9637
5.3006 5.9831 -1.8786 0.9677
2.4012 3.1955 -0.9394 0.9837
2.1936 3.1779 -0.9075 0.9843
3.1680 6.0361 -1.6021 0.9724
2.9374 6.1904 -1.6104 0.9722
2.1905 5.7756 -1.4518 0.9749
1.1865 5.8118 -1.3941 0.9759
0.9219 5.6726 -1.3507 0.9767
0.6906 5.6877 -1.3466 0.9767
-0.2233 5.5428 -1.3038 0.9775
-0.4481 5.5516 -1.3090 0.9774
-0.7054 5.8099 -1.3755 0.9762
-0.9323 5.7366 -1.3659 0.9764
-2.3432 5.4997 -1.4050 0.9757
-2.9211 5.5657 -1.4773 0.9745
-3.3764 5.3393 -1.4847 0.9744
-3.7986 5.5033 -1.5716 0.9729
-4.5581 5.1451 -1.6155 0.9722
-5.4470 5.2318 -1.7750 0.9694
-6.5527 5.3501 -1.9882 0.9658
-3.4028 2.3488 -0.9718 0.9832
-8.7979 5.0795 -2.3876 0.9591
-9.1781 4.3551 -2.3876 0.9591
-9.3458 3.9819 -2.3875 0.9591
-9.6269 3.2139 -2.3853 0.9592
-9.7397 2.8211 -2.3832 0.9592
-10.4877 2.5850 -2.5386 0.9566
-10.5867 2.1613 -2.5394 0.9566
-10.6670 1.7336 -2.5399 0.9566
-10.7280 1.3026 -2.5398 0.9566
-10.7986 0.4352 -2.5400 0.9566
-9.7726 0.0000 -2.5303 0.9604
-9.7658 -0.3936 -2.5306 0.9604
-9.7011 -1.1779 -2.5302 0.9604
-9.5687 -1.9535 -2.5286 0.9605
-9.2430 -3.0858 -2.5230 0.9605
-9.1026 -3.4522 -2.5206 0.9606
-8.9473 -3.8121 -2.5181 0.9606
-8.5932 -4.5101 -2.5128 0.9607
-8.3961 -4.8475 -2.5102 0.9607
-8.1852 -5.1760 -2.5075 0.9608
-7.9656 -5.4983 -2.5061 0.9608
-7.2373 -6.4116 -2.5034 0.9608
-6.9725 -6.6972 -2.5032 0.9608
-6.6964 -6.9717 -2.5029 0.9608
-5.4890 -7.9521 -2.5018 0.9609
-4.8305 -8.3666 -2.5014 0.9609
-4.4897 -8.5544 -2.5014 0.9609
-4.1416 -8.7282 -2.5014 0.9609
-3.7868 -8.8879 -2.5014 0.9609
-3.4258 -9.0332 -2.5014 0.9609
-1.9324 -9.4657 -2.5014 0.9609
-1.5497 -9.5358 -2.5014 0.9609
-0.3890 -9.6531 -2.5014 0.9609
0.3890 -9.6531 -2.5014 0.9609
3.0593 -9.1638 -2.5014 0.9609
3.7868 -8.8879 -2.5014 0.9609
4.4897 -8.5544 -2.5014 0.9609
4.8305 -8.3666 -2.5014 0.9609
5.4881 -7.9508 -2.5014 0.9609
5.8037 -7.7234 -2.5014 0.9609
6.4064 -7.2313 -2.5014 0.9609
6.9675 -6.6924 -2.5014 0.9609
7.2313 -6.4064 -2.5014 0.9609
7.7234 -5.8037 -2.5014 0.9609
8.1654 -5.1634 -2.5014 0.9609
8.3666 -4.8305 -2.5014 0.9609
8.8879 -3.7868 -2.5014 0.9609
9.0332 -3.4258 -2.5014 0.9609
9.2795 -2.6879 -2.5014 0.9609
9.4657 -1.9324 -2.5014 0.9609
9.6531 -0.3890 -2.5014 0.9609
9.6610 0.0000 -2.5014 0.9609
9.6296 0.7774 -2.5014 0.9609
9.5905 1.1645 -2.5014 0.9609
9.5359 1.5497 -2.5014 0.9609
9.3802 2.3120 -2.5014 0.9609
8.6055 2.8729 -2.3490 0.9632
8.4860 3.2183 -2.3499 0.9632
8.2060 3.8938 -2.3517 0.9632
8.0458 4.2227 -2.3527 0.9632
7.8722 4.5450 -2.3536 0.9631
6.4435 6.1891 -2.3133 0.9638
6.2359 6.4923 -2.3308 0.9635
5.3145 5.9987 -2.0750 0.9674
5.1056 6.2531 -2.0902 0.9672
2.0424 3.5376 -1.0576 0.9833
3.1977 6.0927 -1.7816 0.9720
2.5997 6.1015 -1.7172 0.9730
2.2512 5.9358 -1.6437 0.9741
1.9328 5.7892 -1.5802 0.9751
1.7367 5.9957 -1.6162 0.9745
1.4532 5.8958 -1.5722 0.9752
1.1901 5.8291 -1.5404 0.9757
0.9267 5.7017 -1.4957 0.9764
0.6965 5.7358 -1.4960 0.9764
0.2371 5.8812 -1.5240 0.9760
-0.2258 5.6031 -1.4519 0.9771
-0.4539 5.6233 -1.4607 0.9770
-1.1588 5.6764 -1.5000 0.9763
-2.6221 5.5260 -1.5837 0.9750
-2.9199 5.5635 -1.6268 0.9744
-3.7023 5.3637 -1.6874 0.9734
-4.6202 5.2151 -1.8040 0.9716
-6.6012 5.3897 -2.2065 0.9654
-7.9614 4.5965 -2.3802 0.9627
-8.2973 3.9371 -2.3779 0.9628
-8.4434 3.5974 -2.3763 0.9628
-8.5738 3.2516 -2.3742 0.9628
-8.7851 2.5446 -2.3681 0.9629
-9.5569 1.9511 -2.5255 0.9605
-9.6273 1.5646 -2.5254 0.9605
-9.7618 0.3934 -2.5296 0.9604
-8.8781 -0.0000 -2.5133 0.9638
-8.8721 -0.3575 -2.5137 0.9638
-8.8501 -0.7145 -2.5136 0.9638
-8.8132 -1.0701 -2.5133 0.9638
-8.7616 -1.4239 -2.5129 0.9638
-8.2831 -3.1414 -2.5079 0.9638
-8.1452 -3.4704 -2.5064 0.9639
-7.6613 -4.4233 -2.5044 0.9639
-7.4763 -4.7277 -2.5042 0.9639
-7.0704 -5.3130 -2.5037 0.9639
-6.8500 -5.5929 -2.5035 0.9639
-6.3766 -6.1248 -2.5030 0.9639
-6.1242 -6.3759 -2.5027 0.9639
-5.5901 -6.8467 -2.5022 0.9639
-5.3094 -7.0655 -2.5020 0.9639
-5.0194 -7.2718 -2.5014 0.9639
-4.4180 -7.6522 -2.5014 0.9639
-4.1063 -7.8238 -2.5014 0.9639
-3.7879 -7.9829 -2.5014 0.9639
-3.4634 -8.1289 -2.5014 0.9639
-2.7981 -8.3812 -2.5014 0.9639
-2.1146 -8.5792 -2.5014 0.9639
-1.4174 -8.7215 -2.5014 0.9639
-1.0651 -8.7715 -2.5014 0.9639
-0.7110 -8.8073 -2.5014 0.9639
-0.3558 -8.8288 -2.5014 0.9639
0.0000 -8.8360 -2.5014 0.9639
0.7110 -8.8073 -2.5014 0.9639
1.4174 -8.7215 -2.5014 0.9639
1.7674 -8.6574 -2.5014 0.9639
2.1146 -8.5792 -2.5014 0.9639
3.1333 -8.2618 -2.5014 0.9639
3.4634 -8.1289 -2.5014 0.9639
3.7879 -7.9829 -2.5014 0.9639
4.1063 -7.8239 -2.5014 0.9639
5.0194 -7.2719 -2.5014 0.9639
5.3081 -7.0638 -2.5014 0.9639
5.8593 -6.6138 -2.5014 0.9639
6.3725 -6.1209 -2.5014 0.9639
6.8444 -5.5883 -2.5014 0.9639
7.0638 -5.3081 -2.5014 0.9639
7.2718 -5.0194 -2.5014 0.9639
7.4681 -4.7225 -2.5014 0.9639
7.6522 -4.4180 -2.5014 0.9639
7.8238 -4.1063 -2.5014 0.9639
7.9829 -3.7879 -2.5014 0.9639
8.2618 -3.1333 -2.5014 0.9639
8.7215 -1.4174 -2.5014 0.9639
8.8073 -0.7110 -2.5014 0.9639
8.8360 -0.0000 -2.5014 0.9639
8.7715 1.0650 -2.5014 0.9639
8.6574 1.7674 -2.5014 0.9639
8.4871 2.4583 -2.5014 0.9639
7.6377 3.2541 -2.3502 0.9661
6.2250 5.5148 -2.3543 0.9660
5.9979 5.7610 -2.3543 0.9660
5.4646 6.1681 -2.3328 0.9663
2.0369 3.5279 -1.1532 0.9832
3.2110 6.1180 -1.9560 0.9717
2.9313 6.1775 -1.9357 0.9720
2.5845 6.0659 -1.8666 0.9730
2.2517 5.9371 -1.7976 0.9739
1.9141 5.7334 -1.7111 0.9752
1.7365 5.9951 -1.7669 0.9744
1.4518 5.8902 -1.7174 0.9751
0.9438 5.8075 -1.6656 0.9758
0.7054 5.8093 -1.6567 0.9760
0.4789 5.9316 -1.6847 0.9756
0.0000 5.7388 -1.6246 0.9764
-0.4510 5.5874 -1.5869 0.9770
-1.6193 5.5906 -1.6477 0.9761
-1.8715 5.6059 -1.6731 0.9757
-2.3293 5.4670 -1.6823 0.9756
-2.6331 5.5491 -1.7388 0.9748
-2.8986 5.5228 -1.7657 0.9744
-3.1143 5.3942 -1.7633 0.9744
-3.3426 5.2859 -1.7705 0.9743
-3.7499 5.4326 -1.8687 0.9729
-4.0711 5.4177 -1.9185 0.9722
-4.7017 5.3072 -2.0072 0.9710
-5.2662 5.4827 -2.1521 0.9689
-5.4836 5.2670 -2.1525 0.9689
-6.4420 5.2597 -2.3543 0.9660
-6.6485 4.9961 -2.3543 0.9660
-3.4028 2.3488 -1.1705 0.9830
-7.1901 4.1512 -2.3503 0.9661
-7.3599 3.8628 -2.3531 0.9660
-7.5099 3.5635 -2.3532 0.9660
-7.6480 3.2585 -2.3534 0.9660
-8.0688 1.9888 -2.3526 0.9660
-8.8044 1.0691 -2.5108 0.9638
-8.8687 0.3574 -2.5127 0.9638
-8.1411 -0.3281 -2.5060 0.9665
-8.1209 -0.6556 -2.5059 0.9665
-8.0409 -1.3068 -2.5057 0.9665
-7.9087 -1.9493 -2.5054 0.9665
-7.6146 -2.8878 -2.5049 0.9665
-7.4916 -3.1919 -2.5047 0.9665
-7.2094 -3.7838 -2.5043 0.9665
-7.0506 -4.0707 -2.5041 0.9665
-6.8804 -4.3509 -2.5039 0.9665
-6.6991 -4.6241 -2.5037 0.9665
-6.5069 -4.8896 -2.5035 0.9665
-6.3042 -5.1472 -2.5033 0.9665
-6.0913 -5.3964 -2.5030 0.9665
-5.8686 -5.6368 -2.5028 0.9665
-5.3929 -6.0873 -2.5014 0.9665
-4.8856 -6.5015 -2.5014 0.9665
-4.6198 -6.6930 -2.5014 0.9665
-4.3466 -6.8735 -2.5014 0.9665
-4.0663 -7.0430 -2.5014 0.9665
-2.8838 -7.6041 -2.5014 0.9665
-1.9462 -7.8962 -2.5014 0.9665
-0.9803 -8.0733 -2.5014 0.9665
0.0000 -8.1325 -2.5014 0.9665
0.6544 -8.1062 -2.5014 0.9665
0.9803 -8.0732 -2.5014 0.9665
1.3046 -8.0272 -2.5014 0.9665
1.9462 -7.8962 -2.5014 0.9665
2.5753 -7.7140 -2.5014 0.9665
2.8838 -7.6041 -2.5014 0.9665
3.1877 -7.4818 -2.5014 0.9665
4.0663 -7.0430 -2.5014 0.9665
4.6198 -6.6930 -2.5014 0.9665
4.8856 -6.5015 -2.5014 0.9665
5.1434 -6.2995 -2.5014 0.9665
5.3929 -6.0873 -2.5014 0.9665
5.6336 -5.8652 -2.5014 0.9665
6.6929 -4.6198 -2.5014 0.9665
7.4818 -3.1877 -2.5014 0.9665
7.8115 -2.2626 -2.5014 0.9665
7.8962 -1.9462 -2.5014 0.9665
8.0272 -1.3046 -2.5014 0.9665
8.1062 -0.6544 -2.5014 0.9665
8.1062 0.6544 -2.5014 0.9665
8.0732 0.9803 -2.5014 0.9665
7.8962 1.9462 -2.5014 0.9665
7.7140 2.5753 -2.5014 0.9665
7.1408 2.7081 -2.3490 0.9685
7.0282 2.9944 -2.3497 0.9685
6.9042 3.2761 -2.3505 0.9685
6.7689 3.5526 -2.3513 0.9685
6.2973 4.3467 -2.3535 0.9685
6.1191 4.5982 -2.3543 0.9685
5.7294 5.0758 -2.3543 0.9685
5.5204 5.3024 -2.3543 0.9685
5.3024 5.5204 -2.3543 0.9685
2.3989 3.1924 -1.2282 0.9834
2.1915 3.1750 -1.1866 0.9840
3.2046 6.1058 -2.1210 0.9716
2.9266 6.1677 -2.0998 0.9718
2.6220 6.1540 -2.0575 0.9724
1.7164 5.9257 -1.8975 0.9745
0.7029 5.7890 -1.7937 0.9759
0.4757 5.8928 -1.8184 0.9756
0.0000 5.8198 -1.7901 0.9759
-0.2270 5.6329 -1.7340 0.9767
-0.9283 5.7124 -1.7801 0.9761
-1.1586 5.6753 -1.7816 0.9761
-1.3739 5.5743 -1.7659 0.9763
-1.8595 5.5698 -1.8061 0.9757
-2.0584 5.4275 -1.7854 0.9760
-2.3175 5.4395 -1.8186 0.9756
-2.9090 5.5426 -1.9253 0.9741
-3.8407 5.5643 -2.0796 0.9721
-4.0874 5.4393 -2.0927 0.9719
-4.3288 5.3018 -2.1052 0.9718
-4.7094 5.3158 -2.1844 0.9707
-5.5204 5.3024 -2.3543 0.9685
-5.7294 5.0758 -2.3543 0.9685
-3.4028 2.3488 -1.2717 0.9828
-6.7623 3.5491 -2.3490 0.9685
-7.1408 2.7081 -2.3490 0.9685
-7.2440 2.4184 -2.3490 0.9685
-7.3355 2.1248 -2.3490 0.9685
-7.4827 1.5276 -2.3490 0.9685
-8.0779 0.9808 -2.5028 0.9665
-8.1391 0.3280 -2.5055 0.9665
-7.5206 -0.3031 -2.5019 0.9688
-7.5040 -0.6058 -2.5025 0.9688
-7.3152 -1.8030 -2.5044 0.9687
-7.2375 -2.0964 -2.5047 0.9687
-7.1474 -2.3861 -2.5047 0.9687
-7.0450 -2.6718 -2.5046 0.9687
-6.9313 -2.9531 -2.5044 0.9687
-6.6692 -3.5003 -2.5037 0.9688
-6.5211 -3.7650 -2.5030 0.9688
-6.3625 -4.0234 -2.5023 0.9688
-6.0161 -4.5208 -2.5015 0.9688
-5.8290 -4.7592 -2.5014 0.9688
-5.6327 -4.9898 -2.5014 0.9688
-5.4271 -5.2128 -2.5014 0.9688
-4.7592 -5.8290 -2.5014 0.9688
-4.5207 -6.0159 -2.5014 0.9688
-3.4971 -6.6632 -2.5014 0.9688
-2.9496 -6.9230 -2.5014 0.9688
-2.3830 -7.1379 -2.5014 0.9688
-1.8009 -7.3065 -2.5014 0.9688
-1.5052 -7.3730 -2.5014 0.9688
-1.2071 -7.4277 -2.5014 0.9688
-0.6055 -7.5007 -2.5014 0.9688
0.3030 -7.5190 -2.5014 0.9688
0.6055 -7.5007 -2.5014 0.9688
1.2071 -7.4277 -2.5014 0.9688
1.8009 -7.3065 -2.5014 0.9688
2.9496 -6.9230 -2.5014 0.9688
3.4971 -6.6632 -2.5014 0.9688
3.7626 -6.5170 -2.5014 0.9688
4.5207 -6.0159 -2.5014 0.9688
4.7592 -5.8290 -2.5014 0.9688
4.9901 -5.6326 -2.5014 0.9688
5.6326 -4.9901 -2.5014 0.9688
5.8290 -4.7592 -2.5014 0.9688
6.0159 -4.5207 -2.5014 0.9688
6.1931 -4.2748 -2.5014 0.9688
7.0361 -2.6684 -2.5014 0.9688
7.1379 -2.3830 -2.5014 0.9688
7.3065 -1.8009 -2.5014 0.9688
7.4703 -0.9071 -2.5014 0.9688
7.5007 -0.6055 -2.5014 0.9688
7.5190 -0.3030 -2.5014 0.9688
7.5190 0.3030 -2.5014 0.9688
7.5007 0.6055 -2.5014 0.9688
7.4277 1.2071 -2.5014 0.9688
7.3731 1.5052 -2.5014 0.9688
7.1379 2.3830 -2.5014 0.9688
6.3872 3.0308 -2.3500 0.9706
6.2619 3.2865 -2.3507 0.9706
6.1263 3.5370 -2.3514 0.9706
5.9807 3.7819 -2.3521 0.9706
5.6602 4.2533 -2.3535 0.9706
5.3015 4.6967 -2.3543 0.9706
5.1081 4.9063 -2.3543 0.9706
4.9064 5.1081 -2.3543 0.9706
4.4794 5.4863 -2.3543 0.9706
2.3981 3.1913 -1.3269 0.9833
2.0776 3.2854 -1.2921 0.9837
3.2196 6.1343 -2.3029 0.9712
1.9055 5.7074 -2.0001 0.9750
1.2115 5.9344 -2.0133 0.9748
0.9433 5.8042 -1.9547 0.9755
0.7007 5.7705 -1.9322 0.9758
0.4844 5.9997 -2.0008 0.9749
0.0000 5.8116 -1.9318 0.9758
-1.1570 5.6675 -1.9228 0.9759
-1.3841 5.6156 -1.9225 0.9759
-1.8630 5.5805 -1.9556 0.9755
-2.3624 5.5449 -2.0035 0.9749
-2.9165 5.5570 -2.0861 0.9739
-3.1467 5.4503 -2.0920 0.9738
-4.3372 5.3121 -2.2796 0.9715
-4.6967 5.3015 -2.3543 0.9706
-5.1081 4.9064 -2.3543 0.9706
-5.6622 4.2549 -2.3543 0.9706
-6.1338 3.5414 -2.3543 0.9706
-7.5007 0.6055 -2.5014 0.9688
-7.5194 0.3030 -2.5015 0.9688
-6.9948 -0.0000 -2.5014 0.9707
-6.9891 -0.2817 -2.5014 0.9707
-6.9042 -1.1220 -2.5014 0.9707
-6.7916 -1.6740 -2.5014 0.9707
-6.6348 -2.2150 -2.5014 0.9707
-6.1936 -3.2506 -2.5014 0.9707
-6.0577 -3.4974 -2.5014 0.9707
-5.9119 -3.7385 -2.5014 0.9707
-5.7566 -3.9735 -2.5014 0.9707
-5.5920 -4.2021 -2.5014 0.9707
-5.2357 -4.6384 -2.5014 0.9707
-4.8455 -5.0447 -2.5014 0.9707
-4.6384 -5.2357 -2.5014 0.9707
-4.4238 -5.4182 -2.5014 0.9707
-4.2021 -5.5920 -2.5014 0.9707
-3.7385 -5.9119 -2.5014 0.9707
-3.2506 -6.1936 -2.5014 0.9707
-2.9986 -6.3195 -2.5014 0.9707
-1.9461 -6.7187 -2.5014 0.9707
-1.3991 -6.8535 -2.5014 0.9707
-1.1220 -6.9042 -2.5014 0.9707
-0.2817 -6.9891 -2.5014 0.9707
0.2817 -6.9891 -2.5014 0.9707
0.8431 -6.9438 -2.5014 0.9707
1.1221 -6.9042 -2.5014 0.9707
1.3991 -6.8534 -2.5014 0.9707
1.9461 -6.7186 -2.5014 0.9707
2.2150 -6.6348 -2.5014 0.9707
2.4804 -6.5403 -2.5014 0.9707
2.7417 -6.4351 -2.5014 0.9707
2.9986 -6.3195 -2.5014 0.9707
3.2507 -6.1936 -2.5014 0.9707
3.4974 -6.0577 -2.5014 0.9707
3.9735 -5.7566 -2.5014 0.9707
4.2021 -5.5919 -2.5014 0.9707
4.4238 -5.4182 -2.5014 0.9707
4.6384 -5.2357 -2.5014 0.9707
5.0447 -4.8455 -2.5014 0.9707
5.4182 -4.4238 -2.5014 0.9707
5.5919 -4.2021 -2.5014 0.9707
5.7566 -3.9735 -2.5014 0.9707
6.1936 -3.2507 -2.5014 0.9707
6.3195 -2.9986 -2.5014 0.9707
6.4351 -2.7417 -2.5014 0.9707
6.8535 -1.3992 -2.5014 0.9707
6.9042 -1.1221 -2.5014 0.9707
6.9721 -0.5629 -2.5014 0.9707
6.9891 -0.2817 -2.5014 0.9707
6.9948 0.0000 -2.5014 0.9707
6.9891 0.2817 -2.5014 0.9707
6.9721 0.5629 -2.5014 0.9707
6.9438 0.8431 -2.5014 0.9707
6.9042 1.1221 -2.5014 0.9707
6.8534 1.3992 -2.5014 0.9707
6.7916 1.6740 -2.5014 0.9707
6.7186 1.9461 -2.5014 0.9707
6.6348 2.2150 -2.5014 0.9707
6.0430 2.5747 -2.3490 0.9725
5.6933 3.2870 -2.3509 0.9725
5.4132 3.7365 -2.3522 0.9724
5.0977 4.1621 -2.3534 0.9724
4.9272 4.3651 -2.3540 0.9724
4.7481 4.5606 -2.3543 0.9724
4.5606 4.7481 -2.3543 0.9724
4.3657 4.9279 -2.3543 0.9724
4.1637 5.0997 -2.3543 0.9724
2.0199 3.4985 -1.4446 0.9830
3.0595 5.8295 -2.3543 0.9724
2.5805 6.0567 -2.3543 0.9724
1.2087 5.9206 -2.1609 0.9747
0.9379 5.7709 -2.0908 0.9755
0.4861 6.0215 -2.1603 0.9747
0.0000 5.7523 -2.0571 0.9759
-0.9360 5.7595 -2.0867 0.9755
-1.1576 5.6707 -2.0697 0.9757
-1.3791 5.5954 -2.0609 0.9758
-2.0975 5.5307 -2.1153 0.9752
-2.7836 5.8664 -2.3221 0.9728
-3.1589 5.4714 -2.2593 0.9735
-4.1637 5.0997 -2.3543 0.9724
-4.7481 4.5606 -2.3543 0.9724
-4.9279 4.3657 -2.3543 0.9724
-5.2632 3.9550 -2.3543 0.9724
-3.4028 2.3488 -1.4786 0.9826
-5.5641 3.5186 -2.3542 0.9724
-5.8263 3.0579 -2.3531 0.9724
-6.3117 1.8282 -2.3499 0.9725
-6.3783 1.5721 -2.3492 0.9725
-6.9042 1.1221 -2.5014 0.9707
-6.9891 0.2817 -2.5014 0.9707
-3.5687 -0.2881 -1.3720 0.9848
-3.5921 -0.4362 -1.3867 0.9846
-6.4428 -1.0471 -2.5014 0.9724
-6.3954 -1.3056 -2.5014 0.9724
-6.3377 -1.5621 -2.5014 0.9724
-6.1032 -2.3146 -2.5014 0.9724
-6.0050 -2.5585 -2.5014 0.9724
-5.7797 -3.0334 -2.5014 0.9724
-5.6528 -3.2637 -2.5014 0.9724
-5.5168 -3.4886 -2.5014 0.9724
-4.8858 -4.3284 -2.5014 0.9724
-4.7075 -4.5217 -2.5014 0.9724
-4.3284 -4.8858 -2.5014 0.9724
-4.1282 -5.0561 -2.5014 0.9724
-3.2637 -5.6528 -2.5014 0.9724
-3.0334 -5.7797 -2.5014 0.9724
-2.5585 -6.0050 -2.5014 0.9724
-2.0670 -6.1914 -2.5014 0.9724
-0.5252 -6.5062 -2.5014 0.9724
0.0000 -6.5273 -2.5014 0.9724
0.2628 -6.5221 -2.5014 0.9724
0.7868 -6.4797 -2.5014 0.9724
1.0471 -6.4428 -2.5014 0.9724
1.5621 -6.3377 -2.5014 0.9724
1.8160 -6.2696 -2.5014 0.9724
2.3146 -6.1032 -2.5014 0.9724
2.5585 -6.0050 -2.5014 0.9724
3.2637 -5.6528 -2.5014 0.9724
3.7080 -5.3719 -2.5014 0.9724
4.1282 -5.0561 -2.5014 0.9724
4.3284 -4.8858 -2.5014 0.9724
4.7075 -4.5217 -2.5014 0.9724
4.8858 -4.3284 -2.5014 0.9724
5.0561 -4.1282 -2.5014 0.9724
5.2182 -3.9212 -2.5014 0.9724
5.3719 -3.7080 -2.5014 0.9724
5.7797 -3.0334 -2.5014 0.9724
5.8971 -2.7982 -2.5014 0.9724
6.1032 -2.3146 -2.5014 0.9724
6.1914 -2.0670 -2.5014 0.9724
6.2696 -1.8160 -2.5014 0.9724
6.3377 -1.5621 -2.5014 0.9724
6.3954 -1.3056 -2.5014 0.9724
6.4428 -1.0471 -2.5014 0.9724
6.4798 -0.7868 -2.5014 0.9724
6.5062 -0.5252 -2.5014 0.9724
6.5273 0.0000 -2.5014 0.9724
6.5221 0.2628 -2.5014 0.9724
6.3954 1.3056 -2.5014 0.9724
6.3377 1.5621 -2.5014 0.9724
6.2696 1.8160 -2.5014 0.9724
5.3117 3.0667 -2.3504 0.9741
5.0503 3.4859 -2.3516 0.9741
4.0740 4.5985 -2.3543 0.9740
2.1894 3.1719 -1.4770 0.9836
2.0764 3.2836 -1.4888 0.9835
2.8551 5.4399 -2.3543 0.9740
2.6337 5.5504 -2.3543 0.9740
1.9447 5.8251 -2.3534 0.9740
1.4703 5.9651 -2.3543 0.9740
0.4838 5.9921 -2.3038 0.9746
0.0000 5.7405 -2.1999 0.9757
-0.2252 5.5900 -2.1439 0.9763
-0.4469 5.5369 -2.1288 0.9765
-1.3849 5.6189 -2.2177 0.9755
-1.6147 5.5747 -2.2242 0.9754
-1.9254 5.7673 -2.3301 0.9743
-2.0840 5.4952 -2.2522 0.9751
-2.3593 5.5375 -2.3067 0.9745
-2.8551 5.4399 -2.3543 0.9740
-3.4899 5.0561 -2.3543 0.9740
-3.6907 4.9114 -2.3543 0.9740
-4.4308 4.2558 -2.3543 0.9740
-3.4028 2.3488 -1.5845 0.9824
-5.1907 3.2824 -2.3535 0.9740
-5.3175 3.0700 -2.3530 0.9740
-5.4355 2.8528 -2.3524 0.9740
-5.5446 2.6310 -2.3519 0.9741
-5.6447 2.4050 -2.3513 0.9741
-5.7355 2.1752 -2.3507 0.9741
-5.8169 1.9420 -2.3501 0.9741
-5.8888 1.7057 -2.3495 0.9741
-6.4428 1.0471 -2.5014 0.9724
-3.5921 0.4362 -1.3867 0.9846
-3.5687 0.2881 -1.3720 0.9848
-2.8160 0.0000 -1.1525 0.9879
-2.8096 -0.2268 -1.1537 0.9879
-3.0070 -0.6139 -1.2561 0.9868
-5.9342 -1.4627 -2.5014 0.9739
-5.8705 -1.7004 -2.5014 0.9739
-5.7972 -1.9354 -2.5014 0.9739
-5.7146 -2.1673 -2.5014 0.9739
-5.6227 -2.3956 -2.5014 0.9739
-5.2929 -3.0559 -2.5014 0.9739
-4.8860 -3.6716 -2.5014 0.9739
-4.7342 -3.8654 -2.5014 0.9739
-4.4078 -4.2338 -2.5014 0.9739
-4.2338 -4.4078 -2.5014 0.9739
-4.0529 -4.5747 -2.5014 0.9739
-3.8654 -4.7342 -2.5014 0.9739
-3.6716 -4.8860 -2.5014 0.9739
-3.4719 -5.0299 -2.5014 0.9739
-3.2665 -5.1656 -2.5014 0.9739
-2.8403 -5.4117 -2.5014 0.9739
-1.9354 -5.7972 -2.5014 0.9739
-1.7004 -5.8705 -2.5014 0.9739
-1.4626 -5.9342 -2.5014 0.9739
-0.7367 -6.0672 -2.5014 0.9739
-0.4918 -6.0920 -2.5014 0.9739
0.0000 -6.1118 -2.5014 0.9739
0.2461 -6.1068 -2.5014 0.9739
0.9804 -6.0326 -2.5014 0.9739
1.4626 -5.9342 -2.5014 0.9739
1.7004 -5.8705 -2.5014 0.9739
1.9354 -5.7972 -2.5014 0.9739
2.1673 -5.7146 -2.5014 0.9739
2.6201 -5.5217 -2.5014 0.9739
2.8403 -5.4117 -2.5014 0.9739
3.0559 -5.2930 -2.5014 0.9739
3.2665 -5.1656 -2.5014 0.9739
3.8654 -4.7342 -2.5014 0.9739
4.2338 -4.4078 -2.5014 0.9739
4.8860 -3.6716 -2.5014 0.9739
5.1656 -3.2665 -2.5014 0.9739
5.2929 -3.0559 -2.5014 0.9739
5.4117 -2.8403 -2.5014 0.9739
5.5217 -2.6201 -2.5014 0.9739
5.6227 -2.3956 -2.5014 0.9739
5.7146 -2.1673 -2.5014 0.9739
5.7972 -1.9354 -2.5014 0.9739
5.9883 -1.2225 -2.5014 0.9739
6.1118 0.0000 -2.5014 0.9739
6.1068 0.2461 -2.5014 0.9739
6.0672 0.7367 -2.5014 0.9739
5.9883 1.2225 -2.5014 0.9739
5.9342 1.4626 -2.5014 0.9739
5.7972 1.9354 -2.5014 0.9739
5.7146 2.1673 -2.5014 0.9739
5.0830 2.6677 -2.3495 0.9755
4.4518 3.6348 -2.3522 0.9755
3.9838 4.1475 -2.3537 0.9755
3.8143 4.3054 -2.3541 0.9754
3.6381 4.4559 -2.3543 0.9754
2.1886 3.1708 -1.5769 0.9835
2.0759 3.2827 -1.5896 0.9834
2.0082 3.4784 -1.6438 0.9828
2.6733 5.0935 -2.3543 0.9754
2.0399 5.3786 -2.3543 0.9754
1.8216 5.4564 -2.3543 0.9754
1.6004 5.5253 -2.3543 0.9754
1.3767 5.5853 -2.3543 0.9754
1.1506 5.6362 -2.3543 0.9754
0.9228 5.6779 -2.3543 0.9754
0.4629 5.7338 -2.3543 0.9754
0.0000 5.7524 -2.3543 0.9754
-0.2280 5.6587 -2.3178 0.9758
-0.6934 5.7105 -2.3543 0.9754
-0.9227 5.6779 -2.3543 0.9754
-1.1506 5.6362 -2.3543 0.9754
-1.3766 5.5853 -2.3543 0.9754
-1.6004 5.5253 -2.3543 0.9754
-2.6733 5.0935 -2.3543 0.9754
-2.8762 4.9817 -2.3543 0.9754
-3.0745 4.8619 -2.3543 0.9754
-3.2678 4.7342 -2.3543 0.9754
-4.1487 3.9849 -2.3543 0.9754
-4.3058 3.8146 -2.3543 0.9754
-4.4559 3.6381 -2.3543 0.9754
-5.2842 2.2514 -2.3508 0.9755
-5.3693 2.0363 -2.3503 0.9755
-3.0070 0.6139 -1.2561 0.9868
-2.8203 0.1137 -1.1552 0.9879
-2.3670 -0.0954 -1.0324 0.9897
-2.3649 -0.1909 -1.0340 0.9897
-2.3794 -0.2889 -1.0446 0.9896
-2.4021 -0.3904 -1.0606 0.9894
-2.4207 -0.4942 -1.0767 0.9893
-5.5728 -1.3736 -2.5014 0.9753
-5.1854 -2.4605 -2.5014 0.9753
-4.8510 -3.0676 -2.5014 0.9753
-4.7236 -3.2604 -2.5014 0.9753
-4.5884 -3.4480 -2.5014 0.9753
-4.4459 -3.6300 -2.5014 0.9753
-3.6300 -4.4459 -2.5014 0.9753
-3.2604 -4.7236 -2.5014 0.9753
-2.8698 -4.9706 -2.5014 0.9753
-2.6673 -5.0821 -2.5014 0.9753
-2.2497 -5.2803 -2.5014 0.9753
-2.0353 -5.3666 -2.5014 0.9753
-1.8175 -5.4442 -2.5014 0.9753
-1.5968 -5.5129 -2.5014 0.9753
-0.9207 -5.6652 -2.5014 0.9753
-0.4618 -5.7209 -2.5014 0.9753
-0.2311 -5.7349 -2.5014 0.9753
0.0000 -5.7396 -2.5014 0.9753
0.2311 -5.7349 -2.5014 0.9753
0.6918 -5.6977 -2.5014 0.9753
1.1481 -5.6236 -2.5014 0.9753
1.3736 -5.5728 -2.5014 0.9753
1.5969 -5.5129 -2.5014 0.9753
1.8175 -5.4442 -2.5014 0.9753
2.0353 -5.3666 -2.5014 0.9753
2.2497 -5.2803 -2.5014 0.9753
2.8698 -4.9706 -2.5014 0.9753
3.2604 -4.7236 -2.5014 0.9753
3.8060 -4.2961 -2.5014 0.9753
3.9759 -4.1394 -2.5014 0.9753
4.2961 -3.8060 -2.5014 0.9753
4.4459 -3.6300 -2.5014 0.9753
4.5884 -3.4480 -2.5014 0.9753
4.7236 -3.2604 -2.5014 0.9753
5.0821 -2.6673 -2.5014 0.9753
5.4442 -1.8175 -2.5014 0.9753
5.5728 -1.3736 -2.5014 0.9753
5.6652 -0.9207 -2.5014 0.9753
5.6977 -0.6918 -2.5014 0.9753
5.7209 -0.4618 -2.5014 0.9753
5.7349 -0.2311 -2.5014 0.9753
5.7396 0.0000 -2.5014 0.9753
5.7349 0.2311 -2.5014 0.9753
5.7209 0.4618 -2.5014 0.9753
5.6977 0.6918 -2.5014 0.9753
5.6236 1.1481 -2.5014 0.9753
5.5129 1.5968 -2.5014 0.9753
5.4442 1.8175 -2.5014 0.9753
5.2803 2.2497 -2.5014 0.9753
4.8812 2.3161 -2.3546 0.9767
4.7727 2.5049 -2.3491 0.9768
4.3129 3.2409 -2.3512 0.9767
4.1798 3.4127 -2.3517 0.9767
3.8932 3.7395 -2.3526 0.9767
3.5810 4.0421 -2.3535 0.9767
3.4160 4.1838 -2.3539 0.9767
2.3948 3.1869 -1.7374 0.9828
2.1879 3.1697 -1.6785 0.9833
2.0753 3.2818 -1.6922 0.9832
1.9156 5.0511 -2.3543 0.9767
1.2928 5.2451 -2.3543 0.9767
1.0806 5.2929 -2.3543 0.9767
0.6512 5.3627 -2.3543 0.9767
0.2175 5.3977 -2.3543 0.9767
-0.2175 5.3977 -2.3543 0.9767
-0.4347 5.3846 -2.3543 0.9767
-0.6511 5.3627 -2.3543 0.9767
-1.2928 5.2451 -2.3543 0.9767
-1.7107 5.1241 -2.3543 0.9767
-2.1174 4.9698 -2.3543 0.9767
-2.3158 4.8805 -2.3543 0.9767
-2.5105 4.7833 -2.3543 0.9767
-3.4165 4.1845 -2.3543 0.9767
-3.5823 4.0435 -2.3543 0.9767
-4.1834 3.4156 -2.3537 0.9767
-3.4028 2.3488 -1.8020 0.9821
-4.6735 2.6983 -2.3519 0.9767
-5.1771 1.4996 -2.3490 0.9768
-5.5264 1.3621 -2.4806 0.9755
-2.4021 0.3904 -1.0606 0.9894
-2.3649 0.1909 -1.0340 0.9897
-2.2030 0.0000 -1.0198 0.9903
-2.2008 -0.1777 -1.0220 0.9903
-2.2080 -0.2681 -1.0295 0.9902
-2.2302 -0.3624 -1.0459 0.9901
-2.2466 -0.4586 -1.0614 0.9899
-5.0528 -1.9163 -2.5014 0.9765
-4.8822 -2.3166 -2.5014 0.9765
-4.7849 -2.5113 -2.5014 0.9765
-4.5673 -2.8882 -2.5014 0.9765
-4.3201 -3.2464 -2.5014 0.9765
-4.0449 -3.5835 -2.5014 0.9765
-3.8973 -3.7434 -2.5014 0.9765
-3.5835 -4.0449 -2.5014 0.9765
-2.8882 -4.5673 -2.5014 0.9765
-2.3166 -4.8822 -2.5014 0.9765
-1.7112 -5.1258 -2.5014 0.9765
-1.5035 -5.1906 -2.5014 0.9765
-1.2932 -5.2469 -2.5014 0.9765
-0.8669 -5.3339 -2.5014 0.9765
0.0000 -5.4039 -2.5014 0.9765
0.2176 -5.3995 -2.5014 0.9765
0.4348 -5.3864 -2.5014 0.9765
1.5035 -5.1906 -2.5014 0.9765
1.7113 -5.1258 -2.5014 0.9765
2.1182 -4.9715 -2.5014 0.9765
2.7020 -4.6799 -2.5014 0.9765
2.8882 -4.5673 -2.5014 0.9765
3.4177 -4.1859 -2.5014 0.9765
3.5835 -4.0449 -2.5014 0.9765
3.7434 -3.8973 -2.5014 0.9765
3.8973 -3.7434 -2.5014 0.9765
4.0449 -3.5835 -2.5014 0.9765
4.3201 -3.2464 -2.5014 0.9765
4.6799 -2.7020 -2.5014 0.9765
4.7849 -2.5113 -2.5014 0.9765
4.8822 -2.3166 -2.5014 0.9765
5.1258 -1.7113 -2.5014 0.9765
5.2947 -1.0809 -2.5014 0.9765
5.3339 -0.8669 -2.5014 0.9765
5.3645 -0.6514 -2.5014 0.9765
5.3864 -0.4348 -2.5014 0.9765
5.3996 -0.2176 -2.5014 0.9765
5.3995 0.2176 -2.5014 0.9765
5.2469 1.2932 -2.5014 0.9765
5.1906 1.5035 -2.5014 0.9765
4.8058 2.2804 -2.4623 0.9768
4.3954 2.5377 -2.3493 0.9779
4.1787 2.8843 -2.3503 0.9779
4.0600 3.0508 -2.3508 0.9779
3.9346 3.2125 -2.3512 0.9779
3.8028 3.3690 -2.3517 0.9779
3.6647 3.5200 -2.3521 0.9779
3.2154 3.9381 -2.3533 0.9778
2.3940 3.1858 -1.8446 0.9826
2.0747 3.2808 -1.7968 0.9830
1.9963 3.4578 -1.8481 0.9826
2.3637 4.5036 -2.3543 0.9778
2.1804 4.5951 -2.3543 0.9778
1.6106 4.8244 -2.3543 0.9778
1.4151 4.8854 -2.3543 0.9778
0.4093 5.0697 -2.3543 0.9778
0.2048 5.0821 -2.3543 0.9778
0.0000 5.0862 -2.3543 0.9778
-0.2048 5.0821 -2.3543 0.9778
-0.8159 5.0203 -2.3543 0.9778
-1.0174 4.9834 -2.3543 0.9778
-1.4151 4.8854 -2.3543 0.9778
-1.6106 4.8245 -2.3543 0.9778
-1.9936 4.6792 -2.3543 0.9778
-2.1804 4.5951 -2.3543 0.9778
-2.5431 4.4048 -2.3543 0.9778
-3.3728 3.8071 -2.3543 0.9778
-3.5232 3.6680 -2.3542 0.9778
-3.8057 3.3716 -2.3535 0.9778
-3.9378 3.2151 -2.3531 0.9778
-3.4028 2.3488 -1.9139 0.9819
-4.4971 2.3603 -2.3509 0.9779
-4.6706 1.9900 -2.3500 0.9779
-4.7459 1.7999 -2.3495 0.9779
-2.3851 0.5879 -1.1370 0.9892
-2.2302 0.3625 -1.0459 0.9901
-2.2080 0.2681 -1.0295 0.9902
-2.2008 0.1777 -1.0220 0.9903
-2.0595 -0.0830 -1.0111 0.9909
-2.0571 -0.1661 -1.0123 0.9908
-2.0575 -0.2498 -1.0167 0.9908
-2.0750 -0.3372 -1.0312 0.9907
-2.0898 -0.4266 -1.0462 0.9905
-4.8370 -1.6148 -2.5014 0.9775
-4.7681 -1.8083 -2.5014 0.9775
-4.6071 -2.1861 -2.5014 0.9775
-4.5153 -2.3698 -2.5014 0.9775
-4.1968 -2.8968 -2.5014 0.9775
-3.9500 -3.2251 -2.5014 0.9775
-3.8170 -3.3816 -2.5014 0.9775
-3.6777 -3.5325 -2.5014 0.9775
-3.5325 -3.6777 -2.5014 0.9775
-3.3816 -3.8170 -2.5014 0.9775
-3.2251 -3.9500 -2.5014 0.9775
-2.7255 -4.3100 -2.5014 0.9775
-2.5497 -4.4162 -2.5014 0.9775
-2.3698 -4.5153 -2.5014 0.9775
-1.8083 -4.7681 -2.5014 0.9775
-1.6148 -4.8370 -2.5014 0.9775
-1.4187 -4.8981 -2.5014 0.9775
-1.2204 -4.9513 -2.5014 0.9775
-0.8180 -5.0334 -2.5014 0.9775
-0.2053 -5.0953 -2.5014 0.9775
0.0000 -5.0995 -2.5014 0.9775
0.2053 -5.0953 -2.5014 0.9775
0.6147 -5.0623 -2.5014 0.9775
1.2204 -4.9513 -2.5014 0.9775
1.4188 -4.8981 -2.5014 0.9775
1.6148 -4.8370 -2.5014 0.9775
1.9988 -4.6914 -2.5014 0.9775
2.1861 -4.6071 -2.5014 0.9775
2.3698 -4.5153 -2.5014 0.9775
2.5497 -4.4162 -2.5014 0.9775
2.8968 -4.1967 -2.5014 0.9775
3.0635 -4.0767 -2.5014 0.9775
3.3816 -3.8170 -2.5014 0.9775
3.5325 -3.6777 -2.5014 0.9775
3.6777 -3.5325 -2.5014 0.9775
3.9501 -3.2251 -2.5014 0.9775
4.1968 -2.8968 -2.5014 0.9775
4.6071 -2.1861 -2.5014 0.9775
4.9513 -1.2204 -2.5014 0.9775
4.9964 -1.0200 -2.5014 0.9775
5.0829 0.4103 -2.5014 0.9775
5.0623 0.6147 -2.5014 0.9775
5.0334 0.8180 -2.5014 0.9775
4.9964 1.0200 -2.5014 0.9775
4.8981 1.4188 -2.5014 0.9775
4.7681 1.8083 -2.5014 0.9775
4.1472 2.3944 -2.3490 0.9789
3.9426 2.7214 -2.3499 0.9789
3.8306 2.8785 -2.3504 0.9789
3.7122 3.0309 -2.3508 0.9789
3.5878 3.1785 -2.3512 0.9789
3.3216 3.4581 -2.3520 0.9789
3.1802 3.5897 -2.3524 0.9789
2.2305 4.2499 -2.3543 0.9788
2.0576 4.3362 -2.3543 0.9788
0.7699 4.7375 -2.3543 0.9788
0.5785 4.7646 -2.3543 0.9788
0.1933 4.7958 -2.3543 0.9788
0.0000 4.7996 -2.3543 0.9788
-0.1933 4.7957 -2.3543 0.9788
-1.1486 4.6602 -2.3543 0.9788
-1.5199 4.5526 -2.3543 0.9788
-1.7020 4.4877 -2.3543 0.9788
-1.8813 4.4156 -2.3543 0.9788
-2.0576 4.3362 -2.3543 0.9788
-2.5652 4.0566 -2.3543 0.9788
-2.7265 3.9500 -2.3543 0.9788
-2.8833 3.8370 -2.3543 0.9788
-3.0354 3.7177 -2.3543 0.9788
-3.1822 3.5920 -2.3540 0.9788
-3.7151 3.0333 -2.3526 0.9789
-3.3456 2.3093 -1.9941 0.9821
-4.0515 2.5620 -2.3514 0.9789
-4.1507 2.3964 -2.3510 0.9789
-4.2430 2.2269 -2.3505 0.9789
-4.3284 2.0539 -2.3501 0.9789
-2.0898 0.4266 -1.0462 0.9905
-2.0750 0.3372 -1.0312 0.9907
-2.0571 0.1661 -1.0123 0.9908
-2.3249 -0.6734 -1.2557 0.9892
-4.5735 -1.5269 -2.5014 0.9785
-4.5084 -1.7098 -2.5014 0.9785
-4.4359 -1.8899 -2.5014 0.9785
-4.2694 -2.2408 -2.5014 0.9785
-4.1757 -2.4108 -2.5014 0.9785
-3.8547 -2.8966 -2.5014 0.9785
-3.7349 -3.0495 -2.5014 0.9785
-3.6091 -3.1974 -2.5014 0.9785
-3.4774 -3.3401 -2.5014 0.9785
-3.3401 -3.4774 -2.5014 0.9785
-3.1974 -3.6091 -2.5014 0.9785
-3.0495 -3.7349 -2.5014 0.9785
-2.8966 -3.8547 -2.5014 0.9785
-2.7390 -3.9682 -2.5014 0.9785
-2.5770 -4.0753 -2.5014 0.9785
-2.4108 -4.1757 -2.5014 0.9785
-2.2408 -4.2694 -2.5014 0.9785
-1.8899 -4.4359 -2.5014 0.9785
-1.5269 -4.5736 -2.5014 0.9785
-1.3415 -4.6313 -2.5014 0.9785
-1.1539 -4.6816 -2.5014 0.9785
-0.9645 -4.7242 -2.5014 0.9785
0.1942 -4.8178 -2.5014 0.9785
0.3880 -4.8061 -2.5014 0.9785
0.7735 -4.7593 -2.5014 0.9785
0.9645 -4.7243 -2.5014 0.9785
1.1539 -4.6816 -2.5014 0.9785
1.3415 -4.6313 -2.5014 0.9785
1.7098 -4.5083 -2.5014 0.9785
2.0670 -4.3562 -2.5014 0.9785
2.2408 -4.2694 -2.5014 0.9785
2.4108 -4.1757 -2.5014 0.9785
2.5770 -4.0752 -2.5014 0.9785
2.7390 -3.9682 -2.5014 0.9785
3.0495 -3.7349 -2.5014 0.9785
3.3401 -3.4774 -2.5014 0.9785
4.2694 -2.2408 -2.5014 0.9785
4.4359 -1.8900 -2.5014 0.9785
4.5084 -1.7098 -2.5014 0.9785
4.7243 -0.9645 -2.5014 0.9785
4.7865 -0.5812 -2.5014 0.9785
4.8061 -0.3880 -2.5014 0.9785
4.8178 0.1941 -2.5014 0.9785
4.8061 0.3880 -2.5014 0.9785
4.7593 0.7735 -2.5014 0.9785
4.6313 1.3415 -2.5014 0.9785
4.5736 1.5269 -2.5014 0.9785
4.5084 1.7098 -2.5014 0.9785
4.4359 1.8899 -2.5014 0.9785
4.3562 2.0670 -2.5014 0.9785
4.2247 2.2173 -2.4752 0.9787
3.9213 2.2640 -2.3490 0.9798
3.8272 2.4202 -2.3491 0.9798
3.7273 2.5728 -2.3496 0.9798
3.6214 2.7213 -2.3500 0.9798
3.3918 3.0049 -2.3508 0.9798
2.3922 3.1834 -2.0658 0.9822
2.1856 3.1663 -1.9959 0.9828
2.0734 3.2788 -2.0126 0.9827
1.9841 3.4365 -2.0586 0.9823
1.9453 4.0997 -2.3541 0.9798
1.7788 4.1751 -2.3543 0.9798
1.6093 4.2433 -2.3543 0.9798
1.0861 4.4063 -2.3543 0.9798
0.9078 4.4465 -2.3543 0.9798
0.7280 4.4794 -2.3543 0.9798
0.5470 4.5051 -2.3543 0.9798
-0.3652 4.5235 -2.3543 0.9798
-0.9078 4.4465 -2.3543 0.9798
-1.0861 4.4063 -2.3543 0.9798
-1.2626 4.3590 -2.3543 0.9798
-1.4371 4.3047 -2.3543 0.9798
-2.2691 3.9302 -2.3543 0.9798
-2.5779 3.7347 -2.3542 0.9798
-3.2708 3.1417 -2.3528 0.9798
-3.2791 2.4641 -2.1279 0.9817
-3.3223 2.2932 -2.0943 0.9820
-3.9239 2.2655 -2.3506 0.9798
-4.0113 2.1053 -2.3502 0.9798
-4.2337 1.6056 -2.3490 0.9798
-4.3796 1.4621 -2.3953 0.9794
-1.9607 0.4003 -1.0382 0.9910
-1.9445 0.2361 -1.0162 0.9912
