ply
format ascii 1.0
element vertex 1577
property float32 x
property float32 y
property float32 z
property float32 I
end_header
15.3770 -32.4063 -1.8191 0.8662
17.0548 -24.7082 -1.5226 0.8867
16.4293 -20.1223 -1.3174 0.9012
15.6475 -15.0296 -1.1003 0.9168
13.6996 -12.1368 -0.9282 0.9293
14.6805 -11.9862 -0.9611 0.9269
15.7353 -11.8243 -0.9982 0.9242
16.8766 -11.6491 -1.0400 0.9212
19.4836 -11.2488 -1.1410 0.9138
26.4221 -11.2574 -1.4565 0.8913
29.3591 -11.1344 -1.5924 0.8818
29.0197 -9.6882 -1.5516 0.8847
38.8436 -7.9300 -2.0106 0.8532
40.3874 -6.5636 -2.0751 0.8488
43.3681 -5.2659 -2.2155 0.8395
48.6870 1.9620 -2.4711 0.8227
48.6846 7.9120 -2.5014 0.8207
47.3759 13.7226 -2.5014 0.8207
43.4066 16.4620 -2.3543 0.8303
27.6356 11.7744 -1.5234 0.8866
17.9010 9.3952 -1.0253 0.9222
14.3940 8.3104 -0.8429 0.9356
12.5895 7.9611 -0.7554 0.9421
8.2092 7.2727 -0.5562 0.9570
7.8111 7.5026 -0.5493 0.9575
7.1425 7.4362 -0.5229 0.9595
6.4953 7.3317 -0.4967 0.9615
5.9127 7.2418 -0.4741 0.9632
14.1972 20.5682 -1.2675 0.9047
4.5777 7.2389 -0.4344 0.9663
3.0627 10.5737 -0.5583 0.9569
2.7090 10.9906 -0.5741 0.9557
2.2863 11.1988 -0.5797 0.9553
1.8102 11.1384 -0.5723 0.9558
0.8478 10.5012 -0.5343 0.9587
-1.5178 18.8014 -0.9566 0.9272
-1.0656 8.7762 -0.4483 0.9652
-1.6669 8.1654 -0.4226 0.9672
-1.9794 8.0311 -0.4195 0.9674
-3.1511 8.3088 -0.4507 0.9650
-3.5931 8.4334 -0.4649 0.9640
-4.6805 8.9181 -0.5108 0.9605
-8.4867 14.6994 -0.8608 0.9343
-8.6252 13.6396 -0.8184 0.9374
-8.0200 9.8228 -0.6431 0.9505
-7.7727 8.7736 -0.5944 0.9541
-7.8609 7.5505 -0.5528 0.9573
-7.7865 6.8982 -0.5276 0.9592
-6.9605 5.6830 -0.4557 0.9647
-7.6664 5.7609 -0.4863 0.9623
-34.0266 23.4869 -2.0969 0.8474
-5.6304 3.2507 -0.3297 0.9743
-26.2892 12.4744 -1.4757 0.8900
-26.1004 11.1203 -1.4388 0.8926
-31.9249 12.1075 -1.7316 0.8722
-31.6413 10.5634 -1.6917 0.8749
-46.0343 13.3340 -2.4306 0.8253
-31.1220 7.6709 -1.6256 0.8795
-47.0939 9.6143 -2.4376 0.8249
-47.8570 5.8109 -2.4449 0.8244
-32.7110 0.0000 -2.3984 0.8770
-29.5222 -1.1897 -2.1664 0.8883
-28.9352 -4.7024 -2.1494 0.8891
-31.7773 -7.8324 -2.3997 0.8770
-27.3245 -14.3410 -2.2627 0.8836
-27.1652 -15.6838 -2.3000 0.8818
-26.0391 -19.5671 -2.3882 0.8775
-22.7861 -25.7202 -2.5195 0.8713
-21.9088 -26.8335 -2.5400 0.8703
-20.8106 -27.6939 -2.5400 0.8703
-19.6786 -28.5094 -2.5400 0.8703
-18.5147 -29.2786 -2.5400 0.8703
-17.3207 -30.0004 -2.5400 0.8703
-16.0987 -30.6735 -2.5400 0.8703
-14.8505 -31.2968 -2.5400 0.8703
-5.7972 -15.2858 -1.1987 0.9365
-10.9698 -32.8587 -2.5400 0.8703
-9.6378 -33.2737 -2.5400 0.8703
-3.6335 -14.7415 -1.1132 0.9409
-3.0012 -14.7007 -1.1001 0.9416
-2.3734 -14.6044 -1.0849 0.9424
-1.1640 -14.4187 -1.0606 0.9436
2.8188 -13.8073 -1.0333 0.9450
3.9491 -13.6337 -1.0407 0.9447
12.7286 -29.8750 -2.3810 0.8779
13.9186 -29.3328 -2.3806 0.8779
15.0852 -28.7425 -2.3801 0.8779
17.3405 -27.4218 -2.3789 0.8780
17.0548 -24.7082 -2.2013 0.8866
16.4293 -20.1223 -1.9047 0.9011
15.8779 -16.5307 -1.6806 0.9122
15.6475 -15.0296 -1.5908 0.9167
13.6996 -12.1368 -1.3420 0.9292
14.6805 -11.9862 -1.3896 0.9268
15.7353 -11.8243 -1.4432 0.9241
16.8766 -11.6491 -1.5036 0.9210
18.1197 -11.4582 -1.5719 0.9176
20.9917 -11.0173 -1.7383 0.9093
25.9258 -12.3019 -2.1041 0.8913
29.3590 -11.1344 -2.3023 0.8817
29.0066 -9.6838 -2.2422 0.8846
30.7687 -8.9123 -2.3487 0.8794
31.2309 -7.6977 -2.3585 0.8790
31.4793 -6.4266 -2.3557 0.8791
33.4972 -2.7042 -2.4641 0.8739
13.8584 0.5585 -1.0170 0.9459
33.8664 4.1121 -2.5014 0.8721
33.6734 5.4725 -2.5014 0.8721
33.1238 8.1643 -2.5014 0.8721
30.8671 8.9408 -2.3563 0.8791
30.4270 10.1581 -2.3520 0.8793
30.0228 11.3861 -2.3543 0.8792
21.8283 10.3576 -1.7715 0.9076
11.5013 7.9388 -1.0247 0.9455
9.0844 7.4172 -0.8599 0.9541
7.3146 7.0258 -0.7437 0.9601
6.8110 7.0910 -0.7209 0.9613
5.5894 6.8458 -0.6480 0.9652
4.6958 6.8030 -0.6061 0.9674
3.1689 6.6782 -0.5420 0.9708
1.5276 3.5855 -0.2858 0.9845
1.2546 3.7581 -0.2905 0.9842
1.7300 7.0187 -0.5300 0.9714
1.3094 6.4136 -0.4800 0.9741
0.2583 6.4078 -0.4702 0.9746
-0.7964 6.5592 -0.4845 0.9738
-1.2756 6.2484 -0.4676 0.9747
-2.0173 6.0426 -0.4671 0.9748
-2.6048 6.1138 -0.4873 0.9737
-3.0867 5.8813 -0.4870 0.9737
-3.2753 5.6729 -0.4803 0.9741
-3.7140 5.8733 -0.5095 0.9725
-4.1281 5.4935 -0.5038 0.9728
-4.6295 5.6701 -0.5367 0.9711
-5.0161 5.6621 -0.5546 0.9701
-5.1053 5.3152 -0.5404 0.9709
-6.2307 5.5198 -0.6103 0.9672
-6.3985 5.2242 -0.6057 0.9674
-7.6823 4.8579 -0.6665 0.9642
-5.6301 3.2506 -0.4767 0.9743
-25.9003 11.0351 -2.0643 0.8932
-30.4469 11.5470 -2.3876 0.8776
-31.1096 7.6678 -2.3493 0.8794
-32.2183 5.2360 -2.3933 0.8773
-32.4243 3.9370 -2.3949 0.8772
-32.6709 1.3166 -2.3974 0.8771
-26.4568 -0.0001 -2.5400 0.8991
-26.1142 -4.2440 -2.5400 0.8991
-25.9221 -5.2920 -2.5400 0.8991
-25.6880 -6.3315 -2.5400 0.8991
-25.4122 -7.3607 -2.5400 0.8991
-25.0952 -8.3780 -2.5400 0.8991
-24.7373 -9.3831 -2.5400 0.8991
-23.4263 -12.2951 -2.5400 0.8991
-22.9123 -13.2284 -2.5400 0.8991
-22.3610 -14.1402 -2.5400 0.8991
-21.7735 -15.0292 -2.5400 0.8991
-21.1507 -15.8937 -2.5400 0.8991
-18.3273 -19.0807 -2.5400 0.8991
-17.5441 -19.8032 -2.5400 0.8991
-16.7325 -20.4935 -2.5400 0.8991
-15.8937 -21.1507 -2.5400 0.8991
-14.1403 -22.3610 -2.5400 0.8991
-11.3418 -23.9024 -2.5400 0.8991
-10.3702 -24.3397 -2.5400 0.8991
-5.7965 -15.2841 -1.5693 0.9364
-8.3780 -25.0952 -2.5400 0.8991
-3.6335 -14.7415 -1.4576 0.9408
-1.3337 -10.9836 -1.0622 0.9565
-1.1640 -14.4187 -1.3888 0.9435
-0.5774 -14.3286 -1.3767 0.9440
1.1355 -14.0657 -1.3548 0.9449
1.6974 -13.9794 -1.3519 0.9450
2.2579 -13.8934 -1.3513 0.9450
2.8188 -13.8073 -1.3529 0.9449
3.9491 -13.6337 -1.3627 0.9446
4.5222 -13.5457 -1.3710 0.9442
8.7662 -23.1146 -2.3733 0.9054
9.6854 -22.7325 -2.3723 0.9055
14.0219 -20.3142 -2.3698 0.9056
14.8250 -19.7285 -2.3692 0.9056
15.6034 -19.1106 -2.3686 0.9056
15.8779 -16.5307 -2.2005 0.9120
15.6475 -15.0296 -2.0830 0.9165
15.7353 -11.8243 -1.8896 0.9240
16.8766 -11.6491 -1.9687 0.9209
18.1197 -11.4582 -2.0582 0.9175
21.7704 -11.4260 -2.3604 0.9059
22.5991 -9.6286 -2.3583 0.9060
22.9488 -8.7034 -2.3563 0.9061
23.3451 -6.7620 -2.3334 0.9070
25.9703 -2.0966 -2.5014 0.9006
26.0337 -1.0491 -2.5014 0.9006
13.0638 0.0000 -1.2542 0.9489
12.9416 0.5215 -1.2435 0.9493
12.9514 1.0455 -1.2474 0.9491
25.7174 4.1795 -2.5014 0.9006
22.0608 10.4679 -2.3443 0.9065
17.9264 9.4084 -1.9437 0.9219
14.6754 8.4728 -1.6269 0.9342
12.7418 8.0574 -1.4473 0.9412
10.2422 7.6966 -1.2300 0.9498
9.2471 7.5500 -1.1461 0.9532
7.3445 7.0545 -0.9777 0.9599
4.5903 6.6501 -0.7758 0.9681
4.2265 6.6836 -0.7592 0.9687
3.5187 6.7043 -0.7269 0.9700
3.1791 6.6997 -0.7119 0.9706
1.5272 3.5846 -0.3741 0.9845
1.3701 3.6128 -0.3710 0.9846
1.2543 3.7571 -0.3803 0.9842
1.9273 6.6539 -0.6651 0.9725
1.6084 6.5255 -0.6452 0.9734
1.2905 6.3213 -0.6194 0.9744
1.0049 6.1829 -0.6014 0.9751
0.7762 6.3919 -0.6182 0.9745
0.5065 6.2736 -0.6043 0.9750
0.0000 6.1429 -0.5898 0.9756
-1.1950 5.8535 -0.5736 0.9763
-1.4495 5.8810 -0.5815 0.9760
-1.7765 6.1331 -0.6130 0.9747
-2.2370 5.8985 -0.6056 0.9750
-2.8166 5.9359 -0.6308 0.9739
-3.6322 5.7439 -0.6524 0.9731
-3.9348 5.7006 -0.6650 0.9725
-4.0717 5.4184 -0.6507 0.9731
-5.0427 5.2500 -0.6989 0.9712
-5.3226 5.1125 -0.7085 0.9708
-6.3406 5.1769 -0.7859 0.9676
-6.8062 5.1145 -0.8174 0.9664
-5.7010 2.9921 -0.6181 0.9745
-23.9024 11.3419 -2.5400 0.8991
-24.3397 10.3702 -2.5400 0.8991
-24.7375 9.3817 -2.5400 0.8991
-25.4122 7.3607 -2.5400 0.8991
-25.6880 6.3315 -2.5400 0.8991
-25.9221 5.2921 -2.5400 0.8991
-26.2639 3.1890 -2.5400 0.8991
-26.3710 2.1289 -2.5400 0.8991
-26.4353 1.0654 -2.5400 0.8991
-21.3655 -0.8610 -2.5400 0.9175
-21.1060 -3.4300 -2.5400 0.9175
-19.6718 -8.3814 -2.5400 0.9175
-19.3184 -9.1667 -2.5400 0.9175
-17.5978 -12.1469 -2.5400 0.9175
-16.5633 -13.5235 -2.5400 0.9175
-16.0053 -14.1795 -2.5400 0.9175
-14.8125 -15.4214 -2.5400 0.9175
-14.1795 -16.0053 -2.5400 0.9175
-11.4284 -18.0726 -2.5400 0.9175
-9.9371 -18.9336 -2.5400 0.9175
-5.7402 -15.1355 -1.9228 0.9369
-3.6335 -14.7416 -1.8035 0.9407
-3.0012 -14.7007 -1.7823 0.9414
-1.3333 -10.9810 -1.3140 0.9564
-0.0000 -14.2400 -1.6915 0.9443
1.6974 -13.9794 -1.6728 0.9449
2.2579 -13.8934 -1.6720 0.9449
3.9491 -13.6337 -1.6861 0.9444
7.0657 -18.6306 -2.3669 0.9229
7.8093 -18.3292 -2.3666 0.9229
8.5400 -17.9977 -2.3663 0.9229
9.2565 -17.6369 -2.3660 0.9229
10.6422 -16.8294 -2.3653 0.9229
13.1928 -14.8916 -2.3632 0.9230
14.3409 -13.7745 -2.3620 0.9230
13.6442 -12.0877 -2.1653 0.9292
15.3746 -12.5530 -2.3577 0.9232
16.3447 -11.2819 -2.3591 0.9231
16.7762 -10.6087 -2.3578 0.9232
17.8977 -8.4926 -2.3532 0.9233
18.2126 -7.7597 -2.3516 0.9234
18.9940 -6.3411 -2.3786 0.9225
20.2266 -5.8587 -2.5014 0.9187
20.4461 -5.0395 -2.5014 0.9187
20.6324 -4.2121 -2.5014 0.9187
20.7853 -3.3780 -2.5014 0.9187
20.9045 -2.5383 -2.5014 0.9187
20.9897 -1.6945 -2.5014 0.9187
21.0409 -0.8479 -2.5014 0.9187
12.2225 0.4925 -1.4530 0.9519
15.4487 1.8758 -1.8486 0.9392
20.4461 5.0395 -2.5014 0.9187
20.2266 5.8587 -2.5014 0.9187
18.5118 7.0206 -2.3518 0.9233
17.5497 9.2108 -2.3543 0.9233
12.7830 8.0834 -1.7966 0.9409
11.4254 7.8864 -1.6491 0.9456
10.1210 7.6055 -1.5038 0.9503
9.0762 7.4105 -1.3918 0.9539
8.1800 7.2468 -1.2981 0.9569
7.3556 7.0652 -1.2115 0.9597
6.7993 7.0788 -1.1659 0.9612
5.6134 6.8752 -1.0543 0.9649
1.5268 3.5836 -0.4627 0.9844
1.2540 3.7561 -0.4704 0.9842
1.0116 6.2245 -0.7491 0.9749
0.7607 6.2644 -0.7496 0.9749
0.0000 5.9997 -0.7127 0.9761
-0.2423 6.0121 -0.7147 0.9761
-0.5111 6.3313 -0.7545 0.9747
-0.7350 6.0534 -0.7243 0.9757
-0.9604 5.9100 -0.7112 0.9762
-1.1869 5.8141 -0.7049 0.9764
-1.4662 5.9486 -0.7278 0.9756
-1.7403 6.0083 -0.7430 0.9751
-1.9615 5.8754 -0.7358 0.9754
-2.4259 5.6938 -0.7352 0.9754
-2.9911 5.6990 -0.7645 0.9744
-3.5932 5.6822 -0.7986 0.9733
-4.9014 5.5325 -0.8780 0.9707
-5.0313 5.2382 -0.8628 0.9712
-5.3042 5.0947 -0.8736 0.9708
-6.7674 5.0853 -1.0055 0.9665
-7.4238 5.1242 -1.0715 0.9643
-7.5704 4.7872 -1.0640 0.9646
-18.9336 9.9371 -2.5400 0.9175
-19.3184 9.1667 -2.5400 0.9175
-19.6718 8.3814 -2.5400 0.9175
-19.9933 7.5825 -2.5400 0.9175
-20.2824 6.7713 -2.5400 0.9175
-20.5387 5.9491 -2.5400 0.9175
-20.7615 5.1173 -2.5400 0.9175
-20.9508 4.2771 -2.5400 0.9175
-21.2270 2.5774 -2.5400 0.9175
-17.9119 -0.7218 -2.5400 0.9301
-17.4055 -4.2901 -2.5400 0.9301
-17.2187 -4.9874 -2.5400 0.9301
-17.0039 -5.6767 -2.5400 0.9301
-16.7615 -6.3568 -2.5400 0.9301
-15.8731 -8.3308 -2.5400 0.9301
-15.5248 -8.9632 -2.5400 0.9301
-15.1513 -9.5811 -2.5400 0.9301
-13.8859 -11.3375 -2.5400 0.9301
-13.4181 -11.8874 -2.5400 0.9301
-11.8874 -13.4181 -2.5400 0.9301
-11.3375 -13.8859 -2.5400 0.9301
-10.7692 -14.3311 -2.5400 0.9301
-10.1834 -14.7532 -2.5400 0.9301
-8.9632 -15.5248 -2.5400 0.9301
-5.7120 -15.0612 -2.2823 0.9370
-5.3369 -15.9859 -2.3879 0.9342
-3.5935 -14.5792 -2.1275 0.9411
-2.3734 -14.6044 -2.0964 0.9420
-1.1640 -14.4187 -2.0496 0.9432
0.5703 -14.1524 -2.0069 0.9444
2.2579 -13.8934 -1.9944 0.9447
2.8188 -13.8073 -1.9967 0.9447
3.3819 -13.7208 -2.0023 0.9445
4.5222 -13.5457 -2.0234 0.9439
7.1467 -15.0613 -2.3621 0.9349
8.9065 -14.0845 -2.3612 0.9349
9.4649 -13.7123 -2.3608 0.9349
11.0425 -12.4644 -2.3595 0.9349
11.5322 -12.0063 -2.3588 0.9350
12.0013 -11.5274 -2.3578 0.9350
12.4503 -11.0300 -2.3568 0.9350
14.3692 -8.2961 -2.3509 0.9352
15.1239 -7.1764 -2.3719 0.9346
16.7455 -5.5905 -2.5014 0.9312
16.9571 -4.9117 -2.5014 0.9312
17.2973 -3.5313 -2.5014 0.9312
17.4255 -2.8319 -2.5014 0.9312
17.5968 -1.4206 -2.5014 0.9312
12.4301 -0.5009 -1.7626 0.9510
12.1226 0.9786 -1.7232 0.9521
17.1411 4.2249 -2.5014 0.9312
15.7253 5.2499 -2.3490 0.9352
15.2735 6.5074 -2.3523 0.9351
14.7129 7.7219 -2.3543 0.9351
12.9384 8.1817 -2.1690 0.9400
10.2664 7.7147 -1.8196 0.9494
9.0862 7.4187 -1.6620 0.9537
7.7179 7.4132 -1.5163 0.9577
6.4238 7.2509 -1.3726 0.9616
5.5754 6.8287 -1.2491 0.9650
3.9253 6.7987 -1.1123 0.9688
3.4940 6.6573 -1.0653 0.9701
1.5264 3.5826 -0.5518 0.9844
1.3694 3.6109 -0.5472 0.9845
1.2536 3.7551 -0.5609 0.9841
1.9323 6.6709 -0.9840 0.9723
1.6177 6.5632 -0.9578 0.9731
0.5001 6.1945 -0.8806 0.9752
0.2454 6.0888 -0.8634 0.9757
-0.2392 5.9361 -0.8418 0.9763
-0.7368 6.0681 -0.8661 0.9756
-1.1905 5.8318 -0.8434 0.9762
-1.4535 5.8973 -0.8606 0.9758
-1.7338 5.9860 -0.8830 0.9751
-2.6423 5.5685 -0.8733 0.9754
-2.9864 5.6902 -0.9105 0.9744
-3.5814 5.6635 -0.9494 0.9733
-4.4006 5.3897 -0.9859 0.9723
-5.0471 5.2546 -1.0323 0.9710
-5.2843 5.0756 -1.0382 0.9708
-6.1684 5.4647 -1.1676 0.9673
-6.3001 5.1438 -1.1524 0.9677
-6.7484 5.0711 -1.1961 0.9665
-7.6356 4.8284 -1.2800 0.9642
-5.6296 3.2503 -0.9211 0.9741
-16.7615 6.3568 -2.5400 0.9301
-17.0039 5.6767 -2.5400 0.9301
-17.2187 4.9874 -2.5400 0.9301
-17.5641 3.5858 -2.5400 0.9301
-17.6943 2.8756 -2.5400 0.9301
-17.7957 2.1608 -2.5400 0.9301
-17.8683 1.4425 -2.5400 0.9301
-15.1066 -3.0840 -2.5400 0.9394
-14.8095 -4.2896 -2.5400 0.9394
-14.6248 -4.8825 -2.5400 0.9394
-12.3260 -9.2624 -2.5400 0.9394
-10.6806 -11.1197 -2.5400 0.9394
-10.2242 -11.5407 -2.5400 0.9394
-9.2624 -12.3260 -2.5400 0.9394
-8.7356 -12.6557 -2.5333 0.9396
-8.1887 -12.9494 -2.5240 0.9398
-7.1521 -12.3878 -2.3565 0.9437
-6.6435 -12.6582 -2.3551 0.9437
-5.0565 -13.3328 -2.3491 0.9438
-4.5153 -13.5251 -2.3490 0.9438
-3.9806 -13.7427 -2.3570 0.9436
-1.3327 -10.9758 -1.8214 0.9562
-1.1525 -14.2756 -2.3594 0.9436
1.1527 -14.2783 -2.3598 0.9436
1.7267 -14.2205 -2.3599 0.9436
2.2979 -14.1394 -2.3599 0.9436
2.8653 -14.0352 -2.3598 0.9436
3.9851 -13.7583 -2.3597 0.9436
5.0787 -13.3914 -2.3594 0.9436
6.1382 -12.9359 -2.3588 0.9436
6.6528 -12.6759 -2.3583 0.9436
7.1563 -12.3951 -2.3578 0.9436
8.1265 -11.7733 -2.3567 0.9437
9.0423 -11.0748 -2.3553 0.9437
10.3008 -9.8941 -2.3530 0.9437
12.2590 -7.7521 -2.3894 0.9429
13.1046 -7.5660 -2.4928 0.9405
13.4447 -7.0563 -2.5014 0.9403
13.9689 -5.9516 -2.5014 0.9403
14.1973 -5.3843 -2.5014 0.9403
14.5845 -4.2244 -2.5014 0.9403
14.8771 -3.0372 -2.5014 0.9403
12.3201 -0.4965 -2.0312 0.9512
12.1041 0.0000 -1.9940 0.9521
14.9873 2.4357 -2.5014 0.9403
14.8771 3.0372 -2.5014 0.9403
13.3359 5.0576 -2.3496 0.9438
11.8903 5.0660 -2.1292 0.9490
12.6533 6.6410 -2.3541 0.9437
12.3766 7.1456 -2.3543 0.9437
11.4253 7.8864 -2.2871 0.9453
9.1879 7.5017 -1.9540 0.9531
8.1362 7.2081 -1.7907 0.9569
6.8160 7.0962 -1.6209 0.9609
6.4682 7.3010 -1.6069 0.9612
4.5268 6.5581 -1.3128 0.9682
3.9429 6.8292 -1.2991 0.9685
1.5260 3.5817 -0.6414 0.9843
1.3691 3.6099 -0.6360 0.9845
1.2533 3.7541 -0.6520 0.9841
1.9334 6.6749 -1.1448 0.9722
1.5917 6.4576 -1.0957 0.9734
0.5042 6.2459 -1.0323 0.9749
0.2451 6.0806 -1.0025 0.9756
-0.9668 5.9491 -0.9929 0.9759
-1.4419 5.8500 -0.9926 0.9759
-2.1806 5.7500 -1.0131 0.9754
-3.5502 5.6142 -1.0943 0.9734
-4.8742 5.5018 -1.2109 0.9706
-5.0645 5.2727 -1.2044 0.9708
-5.3625 5.1507 -1.2249 0.9703
-7.6417 4.8323 -1.4895 0.9640
-13.6522 7.1652 -2.5400 0.9394
-13.9296 6.6097 -2.5400 0.9394
-14.6247 4.8825 -2.5400 0.9394
-14.8095 4.2896 -2.5400 0.9394
-14.9702 3.6898 -2.5400 0.9394
-15.2186 2.4733 -2.5400 0.9394
-15.3058 1.8585 -2.5400 0.9394
-15.4057 0.6208 -2.5400 0.9394
-13.4149 -1.6288 -2.5400 0.9465
-13.3384 -2.1677 -2.5400 0.9465
-13.2403 -2.7030 -2.5400 0.9465
-13.1207 -3.2340 -2.5400 0.9465
-12.2087 -5.7931 -2.5400 0.9465
-11.9655 -6.2800 -2.5400 0.9465
-11.4214 -7.2224 -2.5400 0.9465
-11.1213 -7.6765 -2.5400 0.9465
-10.1149 -8.9610 -2.5400 0.9465
-8.4751 -10.3801 -2.5188 0.9469
-6.5698 -11.3792 -2.4697 0.9479
-5.3575 -11.2907 -2.3490 0.9504
-4.4316 -11.6852 -2.3490 0.9504
-2.9962 -12.1561 -2.3532 0.9503
-2.5048 -12.2693 -2.3537 0.9503
-2.0091 -12.3624 -2.3541 0.9503
-1.3324 -10.9731 -2.0777 0.9560
-1.0081 -12.4877 -2.3548 0.9503
0.5046 -12.5217 -2.3555 0.9503
2.0104 -12.3706 -2.3557 0.9503
2.5068 -12.2794 -2.3556 0.9503
5.3697 -11.3164 -2.3544 0.9503
5.8201 -11.0892 -2.3540 0.9503
6.2607 -10.8439 -2.3535 0.9503
6.6909 -10.5808 -2.3531 0.9503
7.1099 -10.3005 -2.3525 0.9503
8.2932 -9.3611 -2.3507 0.9504
9.0141 -8.6581 -2.3493 0.9504
11.5251 -6.6540 -2.5014 0.9473
11.7837 -6.1845 -2.5014 0.9473
12.0232 -5.7051 -2.5014 0.9473
12.2431 -5.2163 -2.5014 0.9473
13.0391 -2.6620 -2.5014 0.9473
13.2649 -1.0709 -2.5014 0.9473
12.8066 -0.5161 -2.4091 0.9492
13.2973 0.5359 -2.5014 0.9473
13.2649 1.0709 -2.5014 0.9473
13.2110 1.6041 -2.5014 0.9473
11.5032 4.9011 -2.3502 0.9504
11.3028 5.3633 -2.3515 0.9504
11.0838 5.8173 -2.3528 0.9503
10.0135 7.5247 -2.3543 0.9503
7.7006 7.3966 -2.0069 0.9575
5.2849 7.0329 -1.6535 0.9648
3.1627 6.6652 -1.3867 0.9704
1.3687 3.6090 -0.7255 0.9844
1.5859 6.4342 -1.2456 0.9734
1.0031 6.1720 -1.1753 0.9749
0.7678 6.3228 -1.1972 0.9744
0.2470 6.1289 -1.1529 0.9753
0.0000 6.0411 -1.1355 0.9757
-1.1899 5.8285 -1.1181 0.9761
-1.4471 5.8712 -1.1366 0.9757
-1.7307 5.9751 -1.1693 0.9750
-1.9589 5.8677 -1.1627 0.9751
-2.1917 5.7792 -1.1618 0.9752
-2.9556 5.6315 -1.1954 0.9744
-3.1931 5.5305 -1.2003 0.9743
-3.5450 5.6060 -1.2467 0.9734
-3.8278 5.5455 -1.2665 0.9729
-4.0450 5.3829 -1.2656 0.9730
-4.4100 5.4013 -1.3106 0.9720
-6.2194 5.0779 -1.5092 0.9678
-7.5067 5.1815 -1.7144 0.9636
-7.6366 4.8291 -1.6983 0.9639
-11.6861 4.9790 -2.3876 0.9496
-12.8179 4.2793 -2.5400 0.9465
-13.2403 2.7030 -2.5400 0.9465
-13.4148 1.6289 -2.5400 0.9465
-13.5024 0.5441 -2.5400 0.9465
-12.0065 -0.4838 -2.5400 0.9521
-11.9772 -0.9669 -2.5400 0.9521
-11.9286 -1.4484 -2.5400 0.9521
-11.8606 -1.9275 -2.5400 0.9521
-11.7734 -2.4035 -2.5400 0.9521
-11.5418 -3.3431 -2.5400 0.9521
-11.3978 -3.8051 -2.5400 0.9521
-11.2354 -4.2610 -2.5400 0.9521
-10.8561 -5.1512 -2.5400 0.9521
-10.1560 -6.4222 -2.5400 0.9521
-9.8812 -6.8205 -2.5379 0.9521
-9.2635 -7.5633 -2.5279 0.9523
-8.9297 -7.9112 -2.5218 0.9524
-8.5827 -8.2438 -2.5155 0.9525
-7.8632 -8.8757 -2.5065 0.9527
-6.7243 -9.7418 -2.5021 0.9528
-6.3257 -10.0033 -2.5018 0.9528
-5.4994 -10.4782 -2.5014 0.9528
-5.0485 -10.6395 -2.4893 0.9530
-3.5190 -10.5408 -2.3490 0.9556
-3.0922 -10.6756 -2.3494 0.9556
-1.7838 -10.9764 -2.3506 0.9556
-1.3321 -10.9705 -2.3360 0.9558
-0.4479 -11.1155 -2.3515 0.9555
-0.0000 -11.1254 -2.3517 0.9555
0.4480 -11.1172 -2.3519 0.9555
1.3412 -11.0458 -2.3520 0.9555
3.0954 -10.6867 -2.3518 0.9555
3.9447 -10.4013 -2.3514 0.9555
5.1677 -9.8462 -2.3505 0.9556
5.5591 -9.6286 -2.3502 0.9556
5.9412 -9.3953 -2.3497 0.9556
6.3134 -9.1466 -2.3493 0.9556
6.6758 -8.8839 -2.3490 0.9556
7.1201 -8.7205 -2.3797 0.9550
7.6346 -8.6177 -2.4336 0.9540
8.8576 -7.8472 -2.5014 0.9528
9.1664 -7.4841 -2.5014 0.9528
10.2482 -5.9168 -2.5014 0.9528
10.6911 -5.0730 -2.5014 0.9528
11.2246 -3.7473 -2.5014 0.9528
11.3664 -3.2923 -2.5014 0.9528
11.6804 -1.8983 -2.5014 0.9528
11.7474 -1.4264 -2.5014 0.9528
11.8240 0.4765 -2.5014 0.9528
11.7474 1.4264 -2.5014 0.9528
11.6804 1.8983 -2.5014 0.9528
11.4898 2.8320 -2.5014 0.9528
10.8438 4.1125 -2.4515 0.9537
10.2255 4.3567 -2.3495 0.9556
10.0468 4.7672 -2.3506 0.9556
9.8515 5.1705 -2.3518 0.9555
9.6400 5.5657 -2.3529 0.9555
9.4126 5.9521 -2.3541 0.9555
8.9041 6.6910 -2.3543 0.9555
7.8417 7.5321 -2.2984 0.9565
6.8803 7.1631 -2.0995 0.9602
6.4688 7.3017 -2.0620 0.9609
4.6627 6.7550 -1.7350 0.9670
4.2107 6.6586 -1.6653 0.9683
3.5071 6.6822 -1.5952 0.9696
1.9193 6.6263 -1.4582 0.9722
1.5819 6.4179 -1.3972 0.9733
0.9932 6.1112 -1.3087 0.9750
0.7718 6.3560 -1.3534 0.9742
0.2481 6.1556 -1.3022 0.9751
-0.2442 6.0603 -1.2821 0.9755
-0.7335 6.0414 -1.2864 0.9754
-1.7303 5.9737 -1.3146 0.9749
-2.7178 5.7278 -1.3401 0.9744
-3.5550 5.6217 -1.4060 0.9732
-5.0269 5.2335 -1.5339 0.9708
-6.1238 5.4251 -1.7294 0.9671
-6.2897 5.1353 -1.7164 0.9673
-7.4188 5.1208 -1.9055 0.9638
-10.2047 4.8422 -2.3876 0.9549
-10.3914 4.4274 -2.3876 0.9549
-10.8493 3.1425 -2.3876 0.9549
-10.9657 2.7028 -2.3873 0.9549
-11.7734 2.4036 -2.5400 0.9521
-11.9286 1.4484 -2.5400 0.9521
-10.7964 0.0000 -2.5374 0.9566
-10.7887 -0.4348 -2.5377 0.9566
-10.5818 -2.1603 -2.5383 0.9566
-10.4838 -2.5840 -2.5377 0.9566
-10.3662 -3.0025 -2.5364 0.9566
-10.0805 -3.8230 -2.5338 0.9567
-9.7231 -4.6137 -2.5294 0.9567
-9.2956 -5.3668 -2.5227 0.9569
-8.8077 -6.0795 -2.5153 0.9570
-8.5432 -6.4197 -2.5115 0.9570
-8.2677 -6.7504 -2.5085 0.9571
-7.9803 -7.0700 -2.5057 0.9571
-7.3780 -7.6813 -2.5032 0.9572
-7.0619 -7.9713 -2.5029 0.9572
-6.7344 -8.2481 -2.5026 0.9572
-6.0474 -8.7612 -2.5020 0.9572
-5.3216 -9.2173 -2.5014 0.9572
-4.9461 -9.4241 -2.5014 0.9572
-4.1718 -9.7915 -2.5014 0.9572
-3.7741 -9.9516 -2.5014 0.9572
-2.0825 -10.2009 -2.4469 0.9581
-0.8095 -10.0272 -2.3643 0.9595
-0.0000 -9.9947 -2.3490 0.9598
0.4025 -9.9866 -2.3490 0.9598
1.6033 -9.8658 -2.3491 0.9598
2.3919 -9.7044 -2.3490 0.9598
3.1650 -9.4804 -2.3490 0.9598
3.5469 -9.3525 -2.3508 0.9597
3.9503 -9.2718 -2.3686 0.9594
4.3646 -9.1983 -2.3928 0.9590
5.2191 -9.0397 -2.4532 0.9580
6.0460 -8.7592 -2.5014 0.9572
6.3938 -8.5086 -2.5014 0.9572
7.6759 -7.3728 -2.5014 0.9572
8.5086 -6.3938 -2.5014 0.9572
8.7592 -6.0460 -2.5014 0.9572
8.9955 -5.6884 -2.5014 0.9572
9.6156 -4.5627 -2.5014 0.9572
9.9516 -3.7741 -2.5014 0.9572
10.2230 -2.9611 -2.5014 0.9572
10.3339 -2.5471 -2.5014 0.9572
10.4281 -2.1289 -2.5014 0.9572
10.5054 -1.7073 -2.5014 0.9572
10.5656 -1.2829 -2.5014 0.9572
10.6346 -0.4285 -2.5014 0.9572
10.6346 0.4286 -2.5014 0.9572
10.6087 0.8564 -2.5014 0.9572
10.5054 1.7073 -2.5014 0.9572
10.3339 2.5471 -2.5014 0.9572
9.1950 3.9176 -2.3490 0.9598
9.0332 4.2863 -2.3499 0.9597
8.4618 5.3509 -2.3530 0.9597
8.2430 5.6897 -2.3540 0.9597
7.7596 6.3355 -2.3543 0.9597
7.4982 6.6428 -2.3543 0.9597
5.2562 6.9948 -2.0563 0.9647
4.6810 6.7815 -1.9366 0.9667
4.2067 6.6522 -1.8498 0.9682
3.9226 6.7941 -1.8438 0.9683
3.4940 6.6573 -1.7670 0.9696
3.1417 6.6210 -1.7224 0.9703
1.5247 3.5787 -0.9142 0.9841
1.2522 3.7509 -0.9294 0.9839
1.2577 6.1602 -1.4777 0.9745
0.2459 6.1016 -1.4352 0.9752
-0.2441 6.0570 -1.4247 0.9754
-0.7403 6.0970 -1.4435 0.9751
-1.4491 5.8792 -1.4231 0.9754
-1.7250 5.9555 -1.4572 0.9748
-1.9621 5.8772 -1.4562 0.9749
-2.1914 5.7783 -1.4524 0.9749
-2.4330 5.7105 -1.4589 0.9748
-3.1436 5.4449 -1.4777 0.9745
-3.5282 5.5794 -1.5515 0.9732
-4.9140 5.5468 -1.7416 0.9700
-5.0679 5.2762 -1.7194 0.9704
-6.1214 5.4230 -1.9220 0.9670
-6.3124 5.1539 -1.9152 0.9671
-6.7952 5.1062 -1.9977 0.9657
-7.4750 5.1596 -2.1346 0.9634
-9.1754 4.3538 -2.3869 0.9591
-9.3362 3.9778 -2.3851 0.9592
-9.4779 3.5945 -2.3823 0.9592
-9.8166 2.4196 -2.3762 0.9593
-9.8935 2.0198 -2.3732 0.9594
-10.6351 1.7284 -2.5323 0.9567
-10.7027 1.2996 -2.5339 0.9567
-9.7260 0.0000 -2.5182 0.9606
-9.7216 -0.3918 -2.5191 0.9606
-9.7001 -0.7831 -2.5197 0.9606
-9.6616 -1.1731 -2.5199 0.9606
-9.3395 -2.7052 -2.5176 0.9606
-9.2178 -3.0774 -2.5162 0.9606
-8.9272 -3.8035 -2.5125 0.9607
-8.5805 -4.5034 -2.5090 0.9608
-7.7313 -5.8097 -2.5039 0.9608
-7.4903 -6.1157 -2.5037 0.9608
-7.2373 -6.4116 -2.5034 0.9608
-6.9725 -6.6972 -2.5032 0.9608
-6.6965 -6.9718 -2.5029 0.9608
-6.1125 -7.4864 -2.5024 0.9609
-5.8054 -7.7256 -2.5021 0.9609
-5.4890 -7.9522 -2.5018 0.9609
-5.1638 -8.1659 -2.5016 0.9609
-4.8305 -8.3666 -2.5014 0.9609
-3.0593 -9.1638 -2.5014 0.9609
-2.6879 -9.2795 -2.5014 0.9609
-2.3120 -9.3802 -2.5014 0.9609
-1.9324 -9.4657 -2.5014 0.9609
-1.5497 -9.5358 -2.5014 0.9609
-1.1645 -9.5905 -2.5014 0.9609
0.3890 -9.6531 -2.5014 0.9609
1.1645 -9.5905 -2.5014 0.9609
2.3120 -9.3802 -2.5014 0.9609
3.0593 -9.1638 -2.5014 0.9609
3.7868 -8.8879 -2.5014 0.9609
4.1416 -8.7282 -2.5014 0.9609
5.1634 -8.1654 -2.5014 0.9609
5.8037 -7.7234 -2.5014 0.9609
6.6924 -6.9675 -2.5014 0.9609
6.9675 -6.6924 -2.5014 0.9609
7.4834 -6.1100 -2.5014 0.9609
7.7234 -5.8038 -2.5014 0.9609
7.9508 -5.4881 -2.5014 0.9609
8.1653 -5.1635 -2.5014 0.9609
8.3666 -4.8305 -2.5014 0.9609
8.5544 -4.4897 -2.5014 0.9609
8.7282 -4.1416 -2.5014 0.9609
8.8879 -3.7868 -2.5014 0.9609
9.1638 -3.0593 -2.5014 0.9609
9.3802 -2.3120 -2.5014 0.9609
9.4657 -1.9325 -2.5014 0.9609
9.5905 -1.1645 -2.5014 0.9609
9.6296 -0.7774 -2.5014 0.9609
9.6531 -0.3890 -2.5014 0.9609
9.6296 0.7774 -2.5014 0.9609
9.3802 2.3120 -2.5014 0.9609
7.8641 4.5403 -2.3511 0.9632
7.6779 4.8552 -2.3521 0.9632
7.2678 5.4614 -2.3539 0.9631
6.8062 6.0298 -2.3543 0.9631
5.6634 6.9364 -2.3186 0.9637
5.2983 7.0508 -2.2836 0.9642
4.6600 6.7512 -2.1240 0.9667
3.9193 6.7883 -2.0295 0.9681
3.4744 6.6198 -1.9357 0.9696
3.1406 6.6186 -1.8968 0.9702
1.5243 3.5777 -1.0069 0.9841
1.3676 3.6060 -0.9985 0.9842
1.2519 3.7499 -1.0236 0.9838
1.9301 6.6635 -1.7962 0.9717
1.0050 6.1839 -1.6221 0.9744
0.2450 6.0797 -1.5754 0.9752
0.0000 6.0972 -1.5787 0.9751
-0.2405 5.9689 -1.5467 0.9756
-0.5042 6.2458 -1.6224 0.9744
-0.7381 6.0789 -1.5855 0.9750
-0.9536 5.8680 -1.5393 0.9757
-1.1821 5.7908 -1.5303 0.9759
-1.9497 5.8402 -1.5942 0.9749
-2.9433 5.6080 -1.6398 0.9742
-3.5437 5.6040 -1.7167 0.9730
-4.3617 5.3421 -1.7857 0.9719
-4.9202 5.5538 -1.9211 0.9698
-5.0756 5.2842 -1.8971 0.9702
-5.3496 5.1384 -1.9206 0.9698
-6.1134 5.4159 -2.1147 0.9668
-6.3218 5.1615 -2.1131 0.9668
-7.0428 5.2923 -2.2810 0.9643
-7.4834 5.1654 -2.3543 0.9631
-5.6302 3.2506 -1.6833 0.9735
-8.0614 4.2309 -2.3572 0.9631
-8.5170 3.2301 -2.3584 0.9631
-8.6391 2.8842 -2.3582 0.9631
-8.7463 2.5334 -2.3576 0.9631
-8.8383 2.1784 -2.3569 0.9631
-8.9151 1.8200 -2.3559 0.9631
-8.9765 1.4588 -2.3547 0.9631
-9.6421 1.1708 -2.5149 0.9607
-9.6845 0.7818 -2.5156 0.9606
-8.8535 0.0000 -2.5064 0.9639
-8.8460 -0.3565 -2.5063 0.9639
-8.7877 -1.0671 -2.5060 0.9639
-8.5008 -2.4623 -2.5054 0.9639
-8.3942 -2.8024 -2.5053 0.9639
-8.2739 -3.1379 -2.5051 0.9639
-8.1403 -3.4682 -2.5049 0.9639
-7.8336 -4.1114 -2.5045 0.9639
-7.2791 -5.0244 -2.5039 0.9639
-7.0702 -5.3129 -2.5037 0.9639
-6.1241 -6.3758 -2.5027 0.9639
-5.8618 -6.6167 -2.5025 0.9639
-5.0194 -7.2718 -2.5014 0.9639
-4.7225 -7.4680 -2.5014 0.9639
-4.4180 -7.6522 -2.5014 0.9639
-3.4634 -8.1289 -2.5014 0.9639
-3.1333 -8.2617 -2.5014 0.9639
-2.7981 -8.3812 -2.5014 0.9639
-2.1146 -8.5792 -2.5014 0.9639
-1.7674 -8.6574 -2.5014 0.9639
-1.4174 -8.7215 -2.5014 0.9639
-0.7110 -8.8073 -2.5014 0.9639
-0.0000 -8.8359 -2.5014 0.9639
0.3558 -8.8288 -2.5014 0.9639
0.7110 -8.8073 -2.5014 0.9639
1.4174 -8.7215 -2.5014 0.9639
1.7674 -8.6574 -2.5014 0.9639
2.1146 -8.5792 -2.5014 0.9639
2.4583 -8.4871 -2.5014 0.9639
3.1333 -8.2618 -2.5014 0.9639
3.4634 -8.1289 -2.5014 0.9639
3.7879 -7.9828 -2.5014 0.9639
4.4180 -7.6521 -2.5014 0.9639
4.7225 -7.4681 -2.5014 0.9639
5.3081 -7.0639 -2.5014 0.9639
5.8593 -6.6138 -2.5014 0.9639
6.3725 -6.1209 -2.5014 0.9639
6.8444 -5.5883 -2.5014 0.9639
7.4681 -4.7225 -2.5014 0.9639
7.6522 -4.4180 -2.5014 0.9639
7.8238 -4.1063 -2.5014 0.9639
7.9828 -3.7879 -2.5014 0.9639
8.2617 -3.1333 -2.5014 0.9639
8.3812 -2.7981 -2.5014 0.9639
8.4871 -2.4583 -2.5014 0.9639
8.5792 -2.1146 -2.5014 0.9639
8.7715 -1.0650 -2.5014 0.9639
8.8288 -0.3558 -2.5014 0.9639
8.8288 0.3558 -2.5014 0.9639
8.8073 0.7110 -2.5014 0.9639
8.7215 1.4174 -2.5014 0.9639
8.5792 2.1146 -2.5014 0.9639
8.3812 2.7981 -2.5014 0.9639
8.2618 3.1333 -2.5014 0.9639
8.1289 3.4634 -2.5014 0.9639
7.4965 3.5571 -2.3490 0.9661
7.3491 3.8571 -2.3496 0.9661
7.1904 4.1514 -2.3505 0.9661
7.0199 4.4391 -2.3513 0.9661
6.6446 4.9931 -2.3529 0.9660
5.7610 5.9978 -2.3543 0.9660
5.5148 6.2250 -2.3543 0.9660
5.2597 6.4420 -2.3543 0.9660
4.2580 6.7334 -2.2553 0.9674
4.0151 6.9542 -2.2733 0.9672
3.4850 6.6401 -2.1230 0.9693
3.0709 6.4718 -2.0279 0.9707
1.5239 3.5767 -1.1006 0.9840
1.3672 3.6050 -1.0915 0.9841
1.2515 3.7488 -1.1188 0.9837
1.9301 6.6634 -1.9639 0.9716
1.5821 6.4187 -1.8715 0.9729
1.2930 6.3333 -1.8299 0.9735
0.9987 6.1452 -1.7625 0.9745
-0.2453 6.0878 -1.7248 0.9750
-0.5049 6.2543 -1.7763 0.9743
-0.7410 6.1028 -1.7404 0.9748
-1.4571 5.9120 -1.7237 0.9750
-1.7217 5.9439 -1.7518 0.9746
-2.1727 5.7289 -1.7345 0.9749
-2.4350 5.7153 -1.7587 0.9745
-3.1484 5.4532 -1.7826 0.9742
-3.5412 5.5999 -1.8757 0.9728
-3.8533 5.5824 -1.9203 0.9722
-4.4269 5.4219 -1.9815 0.9713
-4.9429 5.5794 -2.1102 0.9695
-5.1210 5.3315 -2.0928 0.9697
-5.4825 5.2660 -2.1520 0.9689
-6.2056 5.4976 -2.3470 0.9661
-6.2891 5.1348 -2.2985 0.9668
-6.6485 4.9961 -2.3543 0.9660
-6.8443 4.7243 -2.3543 0.9660
-7.0290 4.4449 -2.3543 0.9660
-5.6303 3.2507 -1.8405 0.9733
-7.4965 3.5571 -2.3490 0.9661
-8.1301 1.6598 -2.3490 0.9661
-8.1905 1.3311 -2.3491 0.9661
-8.7801 1.0661 -2.5038 0.9639
-8.8157 0.7117 -2.5038 0.9639
-8.1106 -0.6547 -2.5028 0.9665
-8.0373 -1.3062 -2.5045 0.9665
-7.9082 -1.9492 -2.5052 0.9665
-7.8228 -2.2659 -2.5050 0.9665
-7.3561 -3.4905 -2.5044 0.9665
-6.3040 -5.1470 -2.5032 0.9665
-6.0888 -5.3941 -2.5020 0.9665
-5.8653 -5.6337 -2.5014 0.9665
-4.8856 -6.5015 -2.5014 0.9665
-4.6198 -6.6930 -2.5014 0.9665
-4.3466 -6.8735 -2.5014 0.9665
-2.2626 -7.8115 -2.5014 0.9665
-1.9462 -7.8962 -2.5014 0.9665
-0.3275 -8.1259 -2.5014 0.9665
0.3275 -8.1260 -2.5014 0.9665
0.6544 -8.1062 -2.5014 0.9665
0.9803 -8.0733 -2.5014 0.9665
1.3045 -8.0272 -2.5014 0.9665
2.2626 -7.8114 -2.5014 0.9665
2.8838 -7.6041 -2.5014 0.9665
3.1877 -7.4818 -2.5014 0.9665
4.3466 -6.8735 -2.5014 0.9665
4.6198 -6.6929 -2.5014 0.9665
5.1434 -6.2995 -2.5014 0.9665
5.3929 -6.0873 -2.5014 0.9665
5.6336 -5.8652 -2.5014 0.9665
5.8652 -5.6336 -2.5014 0.9665
6.0873 -5.3929 -2.5014 0.9665
6.5015 -4.8856 -2.5014 0.9665
7.0430 -4.0663 -2.5014 0.9665
7.2010 -3.7794 -2.5014 0.9665
7.4818 -3.1877 -2.5014 0.9665
7.7140 -2.5753 -2.5014 0.9665
7.8115 -2.2626 -2.5014 0.9665
7.8962 -1.9462 -2.5014 0.9665
8.0732 -0.9803 -2.5014 0.9665
8.1062 0.6544 -2.5014 0.9665
8.0732 0.9803 -2.5014 0.9665
8.0272 1.3046 -2.5014 0.9665
7.8115 2.2626 -2.5014 0.9665
7.6041 2.8838 -2.5014 0.9665
6.7626 3.5493 -2.3491 0.9685
6.2916 4.3428 -2.3514 0.9685
5.9255 4.8380 -2.3529 0.9685
5.7276 5.0742 -2.3536 0.9685
5.3024 5.5204 -2.3543 0.9685
4.5983 6.1192 -2.3543 0.9685
1.5234 3.5757 -1.1955 0.9839
1.6123 6.5410 -2.0721 0.9722
1.2831 6.2849 -1.9730 0.9735
0.9948 6.1212 -1.9074 0.9744
0.2481 6.1570 -1.8953 0.9745
-0.2440 6.0562 -1.8643 0.9750
-0.7323 6.0317 -1.8688 0.9749
-0.9736 5.9908 -1.8668 0.9749
-1.4438 5.8577 -1.8556 0.9751
-1.9580 5.8650 -1.9018 0.9745
-2.1838 5.7583 -1.8942 0.9746
-2.4075 5.6506 -1.8892 0.9746
-3.2401 5.6121 -1.9932 0.9732
-3.8525 5.5813 -2.0859 0.9720
-4.0836 5.4342 -2.0908 0.9720
-4.8972 5.5278 -2.2715 0.9696
-5.1512 5.3629 -2.2872 0.9694
-5.7294 5.0758 -2.3543 0.9685
-5.9291 4.8410 -2.3543 0.9685
-6.1193 4.5983 -2.3543 0.9685
-6.2994 4.3482 -2.3543 0.9685
-6.4694 4.0910 -2.3543 0.9685
-5.6304 3.2507 -1.9997 0.9732
-6.7776 3.5572 -2.3543 0.9685
-6.9149 3.2812 -2.3542 0.9685
-7.1522 2.7125 -2.3527 0.9685
-7.3355 2.1248 -2.3490 0.9685
-7.4151 1.8277 -2.3490 0.9685
-7.4827 1.5276 -2.3490 0.9685
-8.0732 0.9803 -2.5014 0.9665
-8.1261 0.3275 -2.5014 0.9665
-7.5251 0.0000 -2.5014 0.9688
-7.5190 -0.3030 -2.5014 0.9688
-7.5007 -0.6055 -2.5014 0.9688
-7.3065 -1.8009 -2.5014 0.9688
-7.2283 -2.0937 -2.5015 0.9688
-7.1382 -2.3831 -2.5015 0.9688
-7.0365 -2.6686 -2.5015 0.9688
-6.7988 -3.2261 -2.5015 0.9688
-6.6632 -3.4971 -2.5014 0.9688
-6.5170 -3.7626 -2.5014 0.9688
-6.3602 -4.0219 -2.5014 0.9688
-6.1931 -4.2748 -2.5014 0.9688
-5.8290 -4.7592 -2.5014 0.9688
-5.2129 -5.4271 -2.5014 0.9688
-4.9901 -5.6326 -2.5014 0.9688
-4.7592 -5.8290 -2.5014 0.9688
-4.2748 -6.1931 -2.5014 0.9688
-4.0219 -6.3602 -2.5014 0.9688
-3.4971 -6.6632 -2.5014 0.9688
-1.5052 -7.3730 -2.5014 0.9688
-1.2071 -7.4277 -2.5014 0.9688
-0.9071 -7.4703 -2.5014 0.9688
-0.6055 -7.5007 -2.5014 0.9688
-0.3030 -7.5190 -2.5014 0.9688
0.0000 -7.5251 -2.5014 0.9688
0.3030 -7.5190 -2.5014 0.9688
0.9070 -7.4703 -2.5014 0.9688
2.6684 -7.0361 -2.5014 0.9688
3.2260 -6.7986 -2.5014 0.9688
3.4971 -6.6632 -2.5014 0.9688
4.2748 -6.1931 -2.5014 0.9688
4.5207 -6.0159 -2.5014 0.9688
4.7592 -5.8290 -2.5014 0.9688
4.9901 -5.6326 -2.5014 0.9688
5.2128 -5.4271 -2.5014 0.9688
5.8290 -4.7592 -2.5014 0.9688
6.3602 -4.0219 -2.5014 0.9688
6.9230 -2.9496 -2.5014 0.9688
7.0361 -2.6684 -2.5014 0.9688
7.3065 -1.8009 -2.5014 0.9688
7.4277 -1.2071 -2.5014 0.9688
7.4703 -0.9071 -2.5014 0.9688
7.5190 -0.3030 -2.5014 0.9688
7.4277 1.2071 -2.5014 0.9688
7.3730 1.5052 -2.5014 0.9688
6.7986 3.2260 -2.5014 0.9688
6.2572 3.2840 -2.3490 0.9707
5.9754 3.7786 -2.3501 0.9706
5.8202 4.0174 -2.3508 0.9706
5.2980 4.6936 -2.3528 0.9706
4.9058 5.1075 -2.3541 0.9706
4.6967 5.3015 -2.3543 0.9706
4.4794 5.4863 -2.3543 0.9706
3.5413 6.1338 -2.3543 0.9706
3.0363 6.3989 -2.3543 0.9706
1.3664 3.6029 -1.2809 0.9839
1.2508 3.7466 -1.3130 0.9835
1.6471 6.6825 -2.2878 0.9714
0.7627 6.2810 -2.1032 0.9737
0.5141 6.3674 -2.1235 0.9734
0.0000 6.0903 -2.0245 0.9747
-0.5196 6.4374 -2.1468 0.9731
-1.1898 5.8282 -1.9773 0.9752
-1.7538 6.0550 -2.0954 0.9738
-1.9781 5.9252 -2.0764 0.9740
-2.1985 5.7969 -2.0609 0.9742
-2.6744 5.6361 -2.0737 0.9740
-3.7490 5.9286 -2.3317 0.9709
-4.0890 5.4415 -2.2626 0.9717
-4.4022 5.3918 -2.3138 0.9711
-4.6967 5.3015 -2.3543 0.9706
-5.1081 4.9063 -2.3543 0.9706
-5.6622 4.2549 -2.3543 0.9706
-5.6306 3.2508 -2.1612 0.9730
-6.2704 3.2910 -2.3540 0.9706
-6.6159 2.5091 -2.3520 0.9706
-6.7097 2.2400 -2.3513 0.9706
-6.8641 1.6919 -2.3499 0.9706
-7.5190 0.3030 -2.5014 0.9688
-6.9891 -0.2817 -2.5014 0.9707
-6.9438 -0.8431 -2.5014 0.9707
-6.9042 -1.1220 -2.5014 0.9707
-6.8535 -1.3991 -2.5014 0.9707
-6.7916 -1.6740 -2.5014 0.9707
-6.6348 -2.2150 -2.5014 0.9707
-6.4351 -2.7417 -2.5014 0.9707
-5.0447 -4.8455 -2.5014 0.9707
-4.8455 -5.0447 -2.5014 0.9707
-4.6384 -5.2357 -2.5014 0.9707
-4.4238 -5.4182 -2.5014 0.9707
-3.7385 -5.9119 -2.5014 0.9707
-3.2507 -6.1936 -2.5014 0.9707
-2.9986 -6.3195 -2.5014 0.9707
-2.7417 -6.4351 -2.5014 0.9707
-2.4804 -6.5403 -2.5014 0.9707
-2.2150 -6.6348 -2.5014 0.9707
-1.6740 -6.7916 -2.5014 0.9707
-1.3992 -6.8534 -2.5014 0.9707
-1.1221 -6.9042 -2.5014 0.9707
-0.5629 -6.9721 -2.5014 0.9707
-0.2817 -6.9891 -2.5014 0.9707
0.2817 -6.9891 -2.5014 0.9707
0.8431 -6.9438 -2.5014 0.9707
1.1220 -6.9042 -2.5014 0.9707
1.3991 -6.8535 -2.5014 0.9707
2.2150 -6.6348 -2.5014 0.9707
3.4974 -6.0577 -2.5014 0.9707
3.7385 -5.9119 -2.5014 0.9707
4.6384 -5.2357 -2.5014 0.9707
4.8455 -5.0447 -2.5014 0.9707
5.5919 -4.2021 -2.5014 0.9707
5.7566 -3.9735 -2.5014 0.9707
6.0577 -3.4974 -2.5014 0.9707
6.1936 -3.2507 -2.5014 0.9707
6.3195 -2.9986 -2.5014 0.9707
6.4351 -2.7417 -2.5014 0.9707
6.5403 -2.4804 -2.5014 0.9707
6.6348 -2.2150 -2.5014 0.9707
6.7916 -1.6740 -2.5014 0.9707
6.9438 -0.8431 -2.5014 0.9707
6.9891 -0.2817 -2.5014 0.9707
6.9891 0.2817 -2.5014 0.9707
6.9721 0.5628 -2.5014 0.9707
6.9438 0.8431 -2.5014 0.9707
6.9042 1.1220 -2.5014 0.9707
6.7916 1.6739 -2.5014 0.9707
6.5403 2.4804 -2.5014 0.9707
4.9232 4.3616 -2.3521 0.9724
4.5586 4.7460 -2.3533 0.9724
4.1637 5.0996 -2.3543 0.9724
3.9550 5.2632 -2.3543 0.9724
3.7399 5.4182 -2.3543 0.9724
3.2918 5.7015 -2.3543 0.9724
1.2504 3.7455 -1.4121 0.9834
1.0025 6.1680 -2.2347 0.9738
0.7602 6.2608 -2.2553 0.9736
0.2532 6.2830 -2.2487 0.9736
-0.2424 6.0157 -2.1530 0.9747
-0.9663 5.9463 -2.1544 0.9747
-1.1848 5.8038 -2.1183 0.9752
-1.7590 6.0727 -2.2609 0.9735
-2.2021 5.8065 -2.2208 0.9740
-2.8117 5.9255 -2.3455 0.9725
-2.9683 5.6557 -2.2842 0.9732
-3.7399 5.4182 -2.3543 0.9724
-3.9550 5.2632 -2.3543 0.9724
-4.1637 5.0997 -2.3543 0.9724
-5.0997 4.1637 -2.3543 0.9724
-5.2632 3.9550 -2.3543 0.9724
-5.5643 3.5186 -2.3543 0.9724
-5.8266 3.0580 -2.3532 0.9724
-6.0507 2.5780 -2.3520 0.9724
-6.1480 2.3316 -2.3514 0.9725
-6.2352 2.0816 -2.3507 0.9725
-6.3123 1.8284 -2.3501 0.9725
-6.3790 1.5723 -2.3495 0.9725
-6.9042 1.1221 -2.5014 0.9707
-6.9438 0.8431 -2.5014 0.9707
-6.9721 0.5629 -2.5014 0.9707
-3.5589 -0.1434 -1.3649 0.9849
-3.5687 -0.2881 -1.3720 0.9848
-6.0050 -2.5585 -2.5014 0.9724
-5.8971 -2.7982 -2.5014 0.9724
-5.5169 -3.4886 -2.5014 0.9724
-5.2182 -3.9212 -2.5014 0.9724
-5.0561 -4.1282 -2.5014 0.9724
-4.7075 -4.5217 -2.5014 0.9724
-4.5217 -4.7075 -2.5014 0.9724
-4.1282 -5.0561 -2.5014 0.9724
-3.9213 -5.2182 -2.5014 0.9724
-3.7080 -5.3719 -2.5014 0.9724
-3.4886 -5.5169 -2.5014 0.9724
-3.2637 -5.6528 -2.5014 0.9724
-3.0334 -5.7797 -2.5014 0.9724
-2.7982 -5.8971 -2.5014 0.9724
-2.3146 -6.1032 -2.5014 0.9724
-1.8160 -6.2696 -2.5014 0.9724
-1.3056 -6.3954 -2.5014 0.9724
-0.7868 -6.4797 -2.5014 0.9724
-0.2628 -6.5220 -2.5014 0.9724
0.5252 -6.5062 -2.5014 0.9724
0.7868 -6.4798 -2.5014 0.9724
1.0471 -6.4428 -2.5014 0.9724
1.3056 -6.3954 -2.5014 0.9724
1.5621 -6.3377 -2.5014 0.9724
2.3146 -6.1032 -2.5014 0.9724
3.4886 -5.5168 -2.5014 0.9724
3.7079 -5.3719 -2.5014 0.9724
3.9212 -5.2182 -2.5014 0.9724
4.1282 -5.0561 -2.5014 0.9724
4.3284 -4.8858 -2.5014 0.9724
4.5216 -4.7075 -2.5014 0.9724
4.8858 -4.3284 -2.5014 0.9724
5.0561 -4.1282 -2.5014 0.9724
5.2182 -3.9213 -2.5014 0.9724
5.8971 -2.7982 -2.5014 0.9724
6.1914 -2.0670 -2.5014 0.9724
6.3377 -1.5621 -2.5014 0.9724
6.3954 -1.3056 -2.5014 0.9724
6.4797 -0.7868 -2.5014 0.9724
6.5221 -0.2628 -2.5014 0.9724
6.5273 0.0000 -2.5014 0.9724
6.5220 0.2628 -2.5014 0.9724
6.5062 0.5252 -2.5014 0.9724
6.4428 1.0471 -2.5014 0.9724
6.3377 1.5621 -2.5014 0.9724
6.1914 2.0670 -2.5014 0.9724
5.8971 2.7982 -2.5014 0.9724
5.3410 3.0836 -2.3634 0.9739
5.0462 3.4831 -2.3497 0.9741
4.9031 3.6844 -2.3503 0.9741
4.7520 3.8798 -2.3509 0.9741
4.5930 4.0690 -2.3515 0.9741
4.4265 4.2517 -2.3521 0.9741
4.0719 4.5962 -2.3531 0.9740
3.8843 4.7574 -2.3536 0.9740
3.0718 5.3205 -2.3543 0.9740
2.6337 5.5504 -2.3543 0.9740
1.3656 3.6008 -1.4758 0.9836
1.7092 5.9010 -2.3543 0.9740
0.0000 6.1436 -2.3543 0.9740
-0.2440 6.0559 -2.3226 0.9744
-0.7405 6.0988 -2.3543 0.9740
-1.1926 5.8418 -2.2849 0.9748
-1.9455 5.8274 -2.3543 0.9740
-2.6337 5.5504 -2.3543 0.9740
-3.0718 5.3205 -2.3543 0.9740
-3.8855 4.7588 -2.3543 0.9740
-4.0739 4.5985 -2.3543 0.9740
-4.2558 4.4308 -2.3543 0.9740
-4.7588 3.8855 -2.3543 0.9740
-4.9114 3.6907 -2.3543 0.9740
-5.0554 3.4895 -2.3540 0.9740
-5.1907 3.2824 -2.3535 0.9740
-5.4356 2.8528 -2.3525 0.9740
-5.5448 2.6311 -2.3519 0.9741
-5.6449 2.4051 -2.3514 0.9741
-5.7358 2.1753 -2.3508 0.9741
-5.8892 1.7058 -2.3496 0.9741
-5.9516 1.4669 -2.3490 0.9741
-3.5687 0.2881 -1.3720 0.9848
-2.8203 -0.1137 -1.1552 0.9879
-2.9322 -0.3560 -1.2089 0.9873
-3.0246 -0.4915 -1.2541 0.9868
-5.8705 -1.7004 -2.5014 0.9739
-5.7146 -2.1673 -2.5014 0.9739
-5.5217 -2.6201 -2.5014 0.9739
-5.1656 -3.2665 -2.5014 0.9739
-5.0299 -3.4719 -2.5014 0.9739
-4.7342 -3.8654 -2.5014 0.9739
-4.5747 -4.0529 -2.5014 0.9739
-3.8654 -4.7342 -2.5014 0.9739
-2.8403 -5.4117 -2.5014 0.9739
-2.6201 -5.5217 -2.5014 0.9739
-2.1673 -5.7146 -2.5014 0.9739
-1.9354 -5.7972 -2.5014 0.9739
-1.7004 -5.8705 -2.5014 0.9739
-1.2225 -5.9883 -2.5014 0.9739
-0.9804 -6.0326 -2.5014 0.9739
0.2461 -6.1068 -2.5014 0.9739
0.9804 -6.0326 -2.5014 0.9739
1.2225 -5.9883 -2.5014 0.9739
1.7004 -5.8704 -2.5014 0.9739
2.1673 -5.7146 -2.5014 0.9739
2.3956 -5.6227 -2.5014 0.9739
2.6201 -5.5217 -2.5014 0.9739
2.8403 -5.4117 -2.5014 0.9739
3.0559 -5.2929 -2.5014 0.9739
3.4719 -5.0299 -2.5014 0.9739
3.8654 -4.7342 -2.5014 0.9739
4.4078 -4.2338 -2.5014 0.9739
4.5747 -4.0529 -2.5014 0.9739
4.7342 -3.8654 -2.5014 0.9739
4.8860 -3.6716 -2.5014 0.9739
5.1656 -3.2665 -2.5014 0.9739
5.4117 -2.8403 -2.5014 0.9739
5.7146 -2.1673 -2.5014 0.9739
5.7972 -1.9354 -2.5014 0.9739
5.8705 -1.7004 -2.5014 0.9739
5.9342 -1.4626 -2.5014 0.9739
6.0326 -0.9804 -2.5014 0.9739
6.0672 -0.7367 -2.5014 0.9739
6.0919 -0.4918 -2.5014 0.9739
6.1068 -0.2461 -2.5014 0.9739
6.0920 0.4918 -2.5014 0.9739
6.0672 0.7367 -2.5014 0.9739
5.9882 1.2225 -2.5014 0.9739
5.7972 1.9354 -2.5014 0.9739
5.5217 2.6201 -2.5014 0.9739
5.4117 2.8403 -2.5014 0.9739
4.8509 3.0675 -2.3490 0.9755
4.5900 3.4492 -2.3499 0.9755
4.4485 3.6321 -2.3504 0.9755
3.4544 4.5969 -2.3534 0.9755
2.4660 5.1970 -2.3543 0.9754
1.5216 3.5714 -1.5888 0.9834
1.3652 3.5997 -1.5757 0.9835
1.2497 3.7432 -1.6151 0.9831
1.6004 5.5253 -2.3543 0.9754
1.3766 5.5853 -2.3543 0.9754
0.6934 5.7105 -2.3543 0.9754
0.4629 5.7338 -2.3543 0.9754
0.0000 5.7524 -2.3543 0.9754
-0.2316 5.7478 -2.3543 0.9754
-0.4629 5.7338 -2.3543 0.9754
-0.9228 5.6779 -2.3543 0.9754
-1.3766 5.5853 -2.3543 0.9754
-2.0398 5.3786 -2.3543 0.9754
-2.2548 5.2921 -2.3543 0.9754
-2.4660 5.1970 -2.3543 0.9754
-3.0745 4.8619 -2.3543 0.9754
-3.2678 4.7342 -2.3543 0.9754
-3.4557 4.5987 -2.3543 0.9754
-3.9849 4.1487 -2.3543 0.9754
-4.1487 3.9849 -2.3543 0.9754
-4.3058 3.8146 -2.3543 0.9754
-4.5976 3.4549 -2.3538 0.9754
-4.7321 3.2664 -2.3533 0.9755
-4.8589 3.0725 -2.3529 0.9755
-5.0882 2.6705 -2.3519 0.9755
-5.1905 2.4629 -2.3514 0.9755
-5.3694 2.0364 -2.3503 0.9755
-5.4458 1.8181 -2.3498 0.9755
-5.5726 1.3735 -2.3490 0.9755
-3.0070 0.6139 -1.2561 0.9868
-3.0246 0.4916 -1.2541 0.9868
-2.9322 0.3560 -1.2089 0.9873
-2.8203 0.1137 -1.1552 0.9879
-2.3650 0.0000 -1.0307 0.9897
-2.4021 -0.3904 -1.0606 0.9894
-5.5728 -1.3736 -2.5014 0.9753
-5.5130 -1.5968 -2.5014 0.9753
-5.4442 -1.8175 -2.5014 0.9753
-5.3666 -2.0353 -2.5014 0.9753
-5.2803 -2.2497 -2.5014 0.9753
-5.0821 -2.6673 -2.5014 0.9753
-4.9706 -2.8698 -2.5014 0.9753
-4.8510 -3.0676 -2.5014 0.9753
-4.2961 -3.8060 -2.5014 0.9753
-4.1394 -3.9759 -2.5014 0.9753
-3.9759 -4.1394 -2.5014 0.9753
-3.8060 -4.2961 -2.5014 0.9753
-3.6300 -4.4459 -2.5014 0.9753
-3.0676 -4.8510 -2.5014 0.9753
-2.2497 -5.2803 -2.5014 0.9753
-2.0353 -5.3666 -2.5014 0.9753
-1.5968 -5.5129 -2.5014 0.9753
-1.3736 -5.5728 -2.5014 0.9753
-0.6918 -5.6977 -2.5014 0.9753
-0.2311 -5.7349 -2.5014 0.9753
-0.0000 -5.7396 -2.5014 0.9753
0.4618 -5.7209 -2.5014 0.9753
0.6918 -5.6977 -2.5014 0.9753
1.1481 -5.6236 -2.5014 0.9753
1.8175 -5.4442 -2.5014 0.9753
2.2497 -5.2803 -2.5014 0.9753
2.4605 -5.1854 -2.5014 0.9753
2.6673 -5.0821 -2.5014 0.9753
3.2604 -4.7236 -2.5014 0.9753
3.4480 -4.5885 -2.5014 0.9753
3.8060 -4.2961 -2.5014 0.9753
4.2961 -3.8060 -2.5014 0.9753
4.5884 -3.4480 -2.5014 0.9753
5.1854 -2.4605 -2.5014 0.9753
5.3666 -2.0353 -2.5014 0.9753
5.4442 -1.8175 -2.5014 0.9753
5.5728 -1.3736 -2.5014 0.9753
5.6236 -1.1481 -2.5014 0.9753
5.6652 -0.9207 -2.5014 0.9753
5.6977 -0.6918 -2.5014 0.9753
5.7396 -0.0000 -2.5014 0.9753
5.7349 0.2311 -2.5014 0.9753
5.7209 0.4618 -2.5014 0.9753
5.6652 0.9207 -2.5014 0.9753
5.6236 1.1480 -2.5014 0.9753
5.5129 1.5968 -2.5014 0.9753
5.4442 1.8175 -2.5014 0.9753
5.3666 2.0353 -2.5014 0.9753
4.4358 3.0618 -2.3490 0.9768
4.1767 3.4102 -2.3500 0.9767
3.5785 4.0393 -2.3519 0.9767
3.4136 4.1809 -2.3523 0.9767
3.2431 4.3158 -2.3528 0.9767
3.0672 4.4437 -2.3532 0.9767
2.7006 4.6776 -2.3540 0.9767
1.2493 3.7420 -1.7193 0.9829
1.5030 5.1888 -2.3543 0.9767
0.4347 5.3846 -2.3543 0.9767
0.2175 5.3977 -2.3543 0.9767
-0.4347 5.3846 -2.3543 0.9767
-0.6512 5.3627 -2.3543 0.9767
-1.0806 5.2929 -2.3543 0.9767
-2.1175 4.9698 -2.3543 0.9767
-2.3158 4.8805 -2.3543 0.9767
-3.2453 4.3187 -2.3543 0.9767
-3.4165 4.1845 -2.3543 0.9767
-3.5823 4.0435 -2.3543 0.9767
-3.7422 3.8960 -2.3543 0.9767
-4.0428 3.5816 -2.3539 0.9767
-4.4427 3.0666 -2.3527 0.9767
-4.5618 2.8847 -2.3522 0.9767
-4.0265 2.3247 -2.0263 0.9799
-4.8733 2.3124 -2.3508 0.9767
-4.9615 2.1139 -2.3504 0.9767
-5.0415 1.9120 -2.3499 0.9767
-5.1132 1.7071 -2.3493 0.9768
-5.4525 1.3439 -2.4474 0.9758
-2.4021 0.3904 -1.0606 0.9894
-2.2030 0.0000 -1.0198 0.9903
-2.2080 -0.2681 -1.0295 0.9902
-2.2302 -0.3624 -1.0459 0.9901
-2.2466 -0.4587 -1.0614 0.9899
-5.1258 -1.7112 -2.5014 0.9765
-4.9715 -2.1182 -2.5014 0.9765
-4.8822 -2.3166 -2.5014 0.9765
-4.6799 -2.7020 -2.5014 0.9765
-4.5673 -2.8882 -2.5014 0.9765
-4.3201 -3.2464 -2.5014 0.9765
-4.1859 -3.4177 -2.5014 0.9765
-3.8973 -3.7434 -2.5014 0.9765
-3.5835 -4.0449 -2.5014 0.9765
-3.2464 -4.3201 -2.5014 0.9765
-3.0698 -4.4474 -2.5014 0.9765
-2.8882 -4.5673 -2.5014 0.9765
-2.7020 -4.6799 -2.5014 0.9765
-2.1182 -4.9715 -2.5014 0.9765
-1.7112 -5.1258 -2.5014 0.9765
-0.6514 -5.3645 -2.5014 0.9765
-0.4348 -5.3864 -2.5014 0.9765
-0.0000 -5.4039 -2.5014 0.9765
0.2176 -5.3995 -2.5014 0.9765
0.4348 -5.3864 -2.5014 0.9765
0.6514 -5.3645 -2.5014 0.9765
1.0809 -5.2947 -2.5014 0.9765
1.2932 -5.2469 -2.5014 0.9765
1.5035 -5.1906 -2.5014 0.9765
1.7113 -5.1258 -2.5014 0.9765
1.9163 -5.0528 -2.5014 0.9765
2.1181 -4.9715 -2.5014 0.9765
2.3166 -4.8822 -2.5014 0.9765
2.8882 -4.5673 -2.5014 0.9765
3.0698 -4.4474 -2.5014 0.9765
3.4177 -4.1859 -2.5014 0.9765
4.1859 -3.4177 -2.5014 0.9765
4.4473 -3.0698 -2.5014 0.9765
4.7849 -2.5113 -2.5014 0.9765
4.8822 -2.3166 -2.5014 0.9765
5.1258 -1.7112 -2.5014 0.9765
5.1906 -1.5035 -2.5014 0.9765
5.3339 -0.8668 -2.5014 0.9765
5.3864 -0.4348 -2.5014 0.9765
5.3995 -0.2176 -2.5014 0.9765
5.4039 0.0000 -2.5014 0.9765
5.3864 0.4348 -2.5014 0.9765
5.3339 0.8669 -2.5014 0.9765
5.2469 1.2932 -2.5014 0.9765
5.1906 1.5035 -2.5014 0.9765
5.1258 1.7113 -2.5014 0.9765
4.9715 2.1182 -2.5014 0.9765
4.7849 2.5113 -2.5014 0.9765
4.6799 2.7020 -2.5014 0.9765
4.5674 2.8882 -2.5014 0.9765
4.1830 2.8873 -2.3527 0.9778
4.0570 3.0487 -2.3491 0.9779
3.9318 3.2102 -2.3495 0.9779
3.8001 3.3666 -2.3500 0.9779
3.6622 3.5176 -2.3505 0.9779
3.5182 3.6629 -2.3509 0.9779
3.3685 3.8023 -2.3514 0.9779
3.2133 3.9355 -2.3518 0.9779
2.7168 4.2963 -2.3529 0.9778
2.5420 4.4029 -2.3533 0.9778
2.3630 4.5023 -2.3536 0.9778
2.1801 4.5944 -2.3540 0.9778
1.5207 3.5692 -1.7958 0.9830
1.2172 4.9384 -2.3543 0.9778
1.0174 4.9834 -2.3543 0.9778
0.8159 5.0203 -2.3543 0.9778
-0.2048 5.0821 -2.3543 0.9778
-0.4093 5.0697 -2.3543 0.9778
-0.6131 5.0491 -2.3543 0.9778
-1.0174 4.9834 -2.3543 0.9778
-1.2172 4.9384 -2.3543 0.9778
-1.4151 4.8854 -2.3543 0.9778
-1.6106 4.8245 -2.3543 0.9778
-1.8036 4.7557 -2.3543 0.9778
-1.9936 4.6792 -2.3543 0.9778
-2.7184 4.2988 -2.3543 0.9778
-3.5227 3.6675 -2.3539 0.9778
-3.9963 2.3073 -2.1360 0.9799
-4.4969 2.3602 -2.3508 0.9779
-4.5874 2.1768 -2.3504 0.9779
-4.7458 1.7999 -2.3494 0.9779
-2.3850 0.5879 -1.1370 0.9892
-2.2466 0.4586 -1.0614 0.9899
-2.2037 0.0888 -1.0209 0.9903
-2.0590 -0.0000 -1.0100 0.9909
-2.0571 -0.1661 -1.0123 0.9908
-2.0750 -0.3372 -1.0312 0.9907
-2.0898 -0.4266 -1.0462 0.9905
-2.1007 -0.5178 -1.0613 0.9904
-2.9436 -0.8526 -1.5032 0.9864
-4.8370 -1.6148 -2.5014 0.9775
-4.6914 -1.9988 -2.5014 0.9775
-4.3100 -2.7255 -2.5014 0.9775
-4.1968 -2.8968 -2.5014 0.9775
-4.0767 -3.0634 -2.5014 0.9775
-3.9501 -3.2251 -2.5014 0.9775
-3.6777 -3.5325 -2.5014 0.9775
-3.5325 -3.6777 -2.5014 0.9775
-3.3816 -3.8170 -2.5014 0.9775
-2.7255 -4.3100 -2.5014 0.9775
-2.5497 -4.4163 -2.5014 0.9775
-2.3698 -4.5153 -2.5014 0.9775
-2.1861 -4.6071 -2.5014 0.9775
-1.9988 -4.6914 -2.5014 0.9775
-1.6148 -4.8370 -2.5014 0.9775
-1.2204 -4.9513 -2.5014 0.9775
-1.0200 -4.9964 -2.5014 0.9775
-0.8180 -5.0334 -2.5014 0.9775
0.0000 -5.0995 -2.5014 0.9775
0.2053 -5.0953 -2.5014 0.9775
0.4103 -5.0829 -2.5014 0.9775
0.8180 -5.0334 -2.5014 0.9775
1.6148 -4.8370 -2.5014 0.9775
1.9988 -4.6914 -2.5014 0.9775
2.1861 -4.6071 -2.5014 0.9775
2.7255 -4.3100 -2.5014 5
-4.6773 -2.7004 -2.5000 0.9765
-4.4448 -3.0680 -2.5000 0.9765
-4.1835 -3.4158 -2.5000 0.9765
-4.0426 -3.5814 -2.5000 0.9765
-3.5814 -4.0426 -2.5000 0.9765
-3.0680 -4.4448 -2.5000 0.9765
-2.5099 -4.7822 -2.5000 0.9765
-2.3153 -4.8794 -2.5000 0.9765
-1.9151 -5.0499 -2.5000 0.9765
-1.0803 -5.2917 -2.5000 0.9765
-0.8663 -5.3309 -2.5000 0.9765
-0.6510 -5.3615 -2.5000 0.9765
-0.4346 -5.3834 -2.5000 0.9765
-0.2175 -5.3965 -2.5000 0.9765
0.0000 -5.4009 -2.5000 0.9765
0.2175 -5.3965 -2.5000 0.9765
0.8664 -5.3309 -2.5000 0.9765
1.5026 -5.1876 -2.5000 0.9765
1.7103 -5.1229 -2.5000 0.9765
1.9152 -5.0499 -2.5000 0.9765
2.1170 -4.9687 -2.5000 0.9765
3.0681 -4.4448 -2.5000 0.9765
3.2446 -4.3177 -2.5000 0.9765
3.4158 -4.1835 -2.5000 0.9765
3.7413 -3.8951 -2.5000 0.9765
4.3177 -3.2445 -2.5000 0.9765
4.7823 -2.5099 -2.5000 0.9765
4.9687 -2.1170 -2.5000 0.9765
5.0499 -1.9152 -2.5000 0.9765
5.1229 -1.7103 -2.5000 0.9765
5.2440 -1.2925 -2.5000 0.9765
5.2917 -1.0803 -2.5000 0.9765
5.3833 -0.4346 -2.5000 0.9765
5.3965 -0.2175 -2.5000 0.9765
5.3834 0.4346 -2.5000 0.9765
5.3615 0.6510 -2.5000 0.9765
5.3308 0.8663 -2.5000 0.9765
5.2917 1.0803 -2.5000 0.9765
5.1229 1.7103 -2.5000 0.9765
5.0499 1.9152 -2.5000 0.9765
4.9687 2.1170 -2.5000 0.9765
4.8794 2.3153 -2.5000 0.9765
4.6773 2.7004 -2.5000 0.9765
3.7963 3.3631 -2.3476 0.9779
3.6577 3.5133 -2.3476 0.9779
3.2075 3.9285 -2.3476 0.9779
2.7106 4.2865 -2.3476 0.9779
2.1742 4.5820 -2.3476 0.9779
1.9879 4.6658 -2.3476 0.9779
1.6060 4.8106 -2.3476 0.9779
1.0145 4.9692 -2.3476 0.9779
0.4081 5.0552 -2.3476 0.9779
0.2042 5.0675 -2.3476 0.9779
-0.2042 5.0675 -2.3476 0.9779
-0.4081 5.0552 -2.3476 0.9779
-2.1742 4.5820 -2.3476 0.9779
-2.3569 4.4907 -2.3476 0.9779
-2.5358 4.3922 -2.3476 0.9779
-2.8810 4.1739 -2.3476 0.9779
-3.0467 4.0545 -2.3476 0.9779
