ply
format ascii 1.0
element vertex 1571
property float32 x
property float32 y
property float32 z
property float32 I
end_header
-3.2014 8.4413 -0.0508 0.9645
-3.5373 8.3024 -0.0508 0.9645
-3.9265 8.2749 -0.0516 0.9640
-4.3430 8.2749 -0.0526 0.9633
-4.7954 8.3058 -0.0540 0.9624
-2.5687 3.4183 -0.0241 0.9830
-31.9581 30.6962 -0.2495 0.8376
-30.6536 27.1567 -0.2306 0.8489
-32.3759 26.4341 -0.2353 0.8460
-30.2253 22.7128 -0.2129 0.8596
-11.1530 7.6984 -0.0763 0.9472
-31.6316 18.2625 -0.2056 0.8641
-29.9655 10.0040 -0.1779 0.8813
-30.0793 6.1408 -0.1728 0.8844
-44.6272 -16.9249 -1.3440 0.8261
-39.3271 -16.7557 -1.2037 0.8428
-31.5262 -16.5462 -1.0025 0.8672
-23.8446 -16.4588 -0.8158 0.8905
-19.9388 -17.6642 -0.7501 0.8989
-18.9546 -18.2061 -0.7400 0.9002
-18.8353 -21.2607 -0.7998 0.8926
-18.6783 -22.8768 -0.8316 0.8885
-16.5480 -23.9738 -0.8202 0.8900
-19.5008 -37.1556 -1.1816 0.8454
-10.3389 -24.2664 -0.7427 0.8998
-7.4899 -22.4350 -0.6660 0.9097
-6.5317 -22.5499 -0.6611 0.9103
-5.0044 -24.5132 -0.7045 0.9047
-4.3918 -27.0241 -0.7709 0.8962
-3.6477 -30.0419 -0.8521 0.8859
-2.1906 -27.1352 -0.7666 0.8968
-1.0700 -26.5524 -0.7483 0.8991
8.0624 -39.4919 -1.1349 0.8510
5.6789 -19.6058 -0.5747 0.9216
6.3423 -18.9974 -0.5639 0.9230
9.9863 -26.3315 -0.7930 0.8934
11.3070 -26.5384 -0.8123 0.8910
12.6331 -26.6236 -0.8298 0.8888
8.2661 -15.7497 -0.5008 0.9313
8.9522 -15.5056 -0.5041 0.9309
25.3985 -36.7960 -1.2589 0.8362
15.6725 -20.8563 -0.7346 0.9009
15.8712 -19.4386 -0.7066 0.9045
19.7741 -20.5870 -0.8038 0.8921
20.6005 -15.4803 -0.7256 0.9020
25.4271 7.3651 -0.7454 0.8995
18.3138 8.6900 -0.5708 0.9221
16.5578 8.6902 -0.5265 0.9279
12.7368 8.0542 -0.4243 0.9415
11.9964 8.2805 -0.4104 0.9433
10.8032 9.5708 -0.4064 0.9439
10.0494 9.6526 -0.3924 0.9458
9.2715 9.6526 -0.3769 0.9479
8.5515 9.6526 -0.3631 0.9497
7.2535 9.6526 -0.3400 0.9528
6.6627 9.6526 -0.3303 0.9542
5.5257 9.5708 -0.3112 0.9567
4.3808 8.3470 -0.2654 0.9630
2.8111 8.4201 -0.2500 0.9651
2.5475 8.7949 -0.2578 0.9640
2.2383 9.0810 -0.2634 0.9633
1.9649 9.6248 -0.2766 0.9615
1.5642 9.6247 -0.2746 0.9617
0.7821 9.6875 -0.2737 0.9619
0.3904 9.6873 -0.2730 0.9619
0.0000 9.5880 -0.2700 0.9624
-0.3469 8.6073 -0.2426 0.9661
-0.7815 9.6811 -0.2735 0.9619
-1.1755 9.6811 -0.2746 0.9617
-1.5733 9.6811 -0.2762 0.9615
-3.9265 8.2749 -0.2579 0.9640
-2.5687 3.4183 -0.1204 0.9830
-30.8631 34.8373 -1.3105 0.8301
-32.3760 26.4342 -1.1769 0.8460
-11.1530 7.6984 -0.3816 0.9472
-29.9662 17.3010 -0.9743 0.8707
-30.2904 14.3729 -0.9441 0.8744
-31.8697 13.5784 -0.9754 0.8706
-29.9655 11.3645 -0.9024 0.8796
-29.9655 10.0040 -0.8895 0.8812
-30.0793 6.1408 -0.8644 0.8844
-49.2555 -1.9849 -2.5000 0.8208
-48.6571 -7.9075 -2.5000 0.8208
-48.2992 -9.8604 -2.5000 0.8208
-45.6578 -13.2249 -2.4107 0.8266
-43.3177 -16.4282 -2.3495 0.8306
-35.2113 -16.7080 -1.9766 0.8555
-28.6836 -16.5605 -1.6797 0.8758
-21.7533 -16.3465 -1.3800 0.8967
-15.5391 -16.1780 -1.1376 0.9141
-14.3073 -16.1496 -1.0942 0.9172
-13.4188 -16.4350 -1.0760 0.9185
-15.9645 -21.2449 -1.3477 0.8990
-24.5357 -38.8002 -2.3281 0.8320
-22.9434 -39.7399 -2.3271 0.8321
-21.3169 -40.6160 -2.3263 0.8322
-11.8329 -24.9375 -1.3998 0.8953
-10.0987 -23.7025 -1.3066 0.9020
-7.3994 -22.1639 -1.1850 0.9107
-3.9258 -15.9274 -0.8319 0.9364
-7.3448 -45.1943 -2.3221 0.8324
-3.6839 -45.6329 -2.3218 0.8325
1.0119 -25.1079 -1.2744 0.9043
3.2328 -19.8923 -1.0221 0.9225
9.1629 -44.8828 -2.3231 0.8324
10.9651 -44.4870 -2.3236 0.8323
8.4858 -29.2962 -1.5468 0.8850
9.1645 -27.4510 -1.4677 0.8906
10.0534 -26.5085 -1.4378 0.8927
8.2620 -15.7419 -0.9016 0.9313
23.0416 -39.9091 -2.3371 0.8315
10.7489 -15.5724 -0.9596 0.9270
11.6857 -15.5509 -0.9865 0.9250
12.6782 -15.5280 -1.0166 0.9229
13.8018 -15.5790 -1.0555 0.9200
14.9387 -15.5528 -1.0937 0.9173
16.1628 -15.5246 -1.1366 0.9142
17.4891 -15.4940 -1.1849 0.9107
19.1334 -15.6220 -1.2527 0.9058
20.5258 -15.4241 -1.3021 0.9023
40.5697 -28.0032 -2.5000 0.8208
43.6493 -22.9089 -2.5000 0.8208
43.8399 -20.8022 -2.4609 0.8234
43.9823 -16.6803 -2.3856 0.8283
46.6940 -13.5251 -2.4654 0.8231
48.6571 -7.9076 -2.5000 0.8208
49.2555 -1.9850 -2.5000 0.8208
49.2955 0.0000 -2.5000 0.8208
49.2555 1.9849 -2.5000 0.8208
46.2234 3.7316 -2.3518 0.8305
45.3552 9.2594 -2.3476 0.8308
44.9924 11.0896 -2.3500 0.8306
25.4271 7.3651 -1.3425 0.8994
18.3159 7.8037 -1.0097 0.9234
16.6189 7.8857 -0.9329 0.9290
14.9824 8.6501 -0.8774 0.9331
13.0857 8.2749 -0.7852 0.9399
12.0902 8.3452 -0.7450 0.9429
11.7186 8.8060 -0.7434 0.9430
10.3071 9.1313 -0.6983 0.9463
9.2714 9.6526 -0.6788 0.9478
8.5515 9.6526 -0.6540 0.9497
6.1039 9.6526 -0.5792 0.9553
4.3808 8.3470 -0.4781 0.9629
3.4621 8.1258 -0.4479 0.9652
2.8111 8.4201 -0.4502 0.9651
2.5037 8.6438 -0.4564 0.9646
2.2383 9.0810 -0.4743 0.9632
1.1638 9.5844 -0.4896 0.9621
0.0000 8.6908 -0.4407 0.9658
-0.3469 8.6073 -0.4369 0.9661
-0.7815 9.6811 -0.4926 0.9618
-1.1755 9.6811 -0.4946 0.9617
-1.5733 9.6811 -0.4974 0.9615
-1.7742 8.6905 -0.4498 0.9651
-2.3721 9.6240 -0.5027 0.9611
-2.7126 9.3651 -0.4945 0.9617
-2.9141 8.7287 -0.4667 0.9638
-3.2014 8.4413 -0.4578 0.9645
-24.3340 38.4810 -2.3090 0.8333
-29.5471 33.3518 -2.2597 0.8366
-29.9312 31.1617 -2.1913 0.8411
-31.3478 30.1100 -2.2043 0.8402
-30.6536 27.1567 -2.0769 0.8487
-30.2253 22.7128 -1.9174 0.8595
-11.1530 7.6984 -0.6873 0.9472
-29.6855 18.7720 -1.7812 0.8688
-29.8879 17.2558 -1.7502 0.8709
-30.2904 14.3729 -1.7003 0.8743
-29.9655 11.3645 -1.6253 0.8795
-29.9655 10.0040 -1.6021 0.8811
-29.9655 7.3859 -1.5652 0.8837
-30.0793 6.1408 -1.5569 0.8843
-34.0959 0.0000 -2.5000 0.8722
-33.6544 -5.4694 -2.5000 0.8722
-33.1051 -8.1597 -2.5000 0.8722
-32.3412 -10.7971 -2.5000 0.8722
-31.8802 -12.0905 -2.5000 0.8722
-21.7553 -16.3481 -1.9954 0.8966
-20.0808 -16.3954 -1.9008 0.9012
-18.4229 -16.3213 -1.8046 0.9060
-15.6146 -16.2566 -1.6528 0.9136
-14.3768 -16.2281 -1.5897 0.9167
-13.2282 -16.2016 -1.5336 0.9195
-12.2933 -16.3595 -1.5004 0.9212
-11.1501 -16.1537 -1.4392 0.9243
-17.0634 -26.9836 -2.3409 0.8798
-9.3079 -16.1217 -1.3650 0.9281
-6.0820 -16.0370 -1.2576 0.9335
-5.3483 -16.0201 -1.2384 0.9345
-3.9184 -15.8975 -1.2005 0.9364
-3.2607 -15.9720 -1.1953 0.9367
0.0000 -15.8969 -1.1656 0.9382
1.2810 -15.8674 -1.1672 0.9381
3.2302 -15.8225 -1.1841 0.9373
3.8961 -15.8071 -1.1937 0.9368
4.5741 -15.7915 -1.2055 0.9362
5.2667 -15.7756 -1.2195 0.9355
11.3341 -26.6021 -2.1202 0.8905
8.2437 -15.7070 -1.3007 0.9313
9.0710 -15.7114 -1.3302 0.9298
9.9083 -15.6687 -1.3593 0.9283
18.1542 -26.3008 -2.3432 0.8797
13.8018 -15.5790 -1.5261 0.9199
14.9911 -15.6074 -1.5868 0.9169
16.1628 -15.5246 -1.6432 0.9140
17.4892 -15.4941 -1.7132 0.9105
18.9359 -15.4607 -1.7924 0.9066
27.0610 -17.1123 -2.3476 0.8795
30.1905 -15.8452 -2.5000 0.8722
30.8041 -14.6167 -2.5000 0.8722
31.8803 -12.0906 -2.5000 0.8722
32.3413 -10.7971 -2.5000 0.8722
32.7498 -9.4861 -2.5000 0.8722
33.1052 -8.1597 -2.5000 0.8722
33.9854 -2.7436 -2.5000 0.8722
34.0683 -1.3729 -2.5000 0.8722
34.0683 1.3729 -2.5000 0.8722
33.9854 2.7436 -2.5000 0.8722
33.4070 6.8201 -2.5000 0.8722
25.4271 7.3651 -1.9410 0.8993
32.3414 10.7972 -2.5000 0.8722
14.9823 8.6501 -1.2685 0.9330
12.9087 8.1630 -1.1199 0.9406
11.6205 8.7323 -1.0658 0.9434
10.3517 8.4519 -0.9799 0.9478
9.2714 9.6526 -0.9813 0.9477
8.5515 9.6526 -0.9455 0.9496
6.9665 8.5325 -0.8077 0.9568
6.4600 8.5967 -0.7885 0.9578
5.5061 8.7072 -0.7554 0.9595
5.5257 9.5708 -0.8103 0.9566
3.9265 8.2749 -0.6716 0.9639
3.5256 8.2749 -0.6595 0.9646
3.1314 8.2569 -0.6475 0.9652
2.8111 8.4201 -0.6509 0.9650
2.5475 8.7949 -0.6714 0.9639
2.2383 9.0810 -0.6858 0.9632
0.3901 9.6811 -0.7104 0.9619
0.0000 8.6904 -0.6372 0.9657
-0.3339 8.2855 -0.6080 0.9673
-0.7815 9.6811 -0.7122 0.9618
-1.7741 8.6902 -0.6503 0.9651
-2.3721 9.6240 -0.7268 0.9610
-2.9846 8.9398 -0.6911 0.9629
-3.5373 8.3024 -0.6617 0.9645
-3.9265 8.2749 -0.6716 0.9639
-17.9418 28.3727 -2.4614 0.8740
-2.5687 3.4183 -0.3135 0.9830
-22.2608 25.1272 -2.4614 0.8740
-24.0730 23.1225 -2.4474 0.8747
-24.4002 19.9221 -2.3097 0.8813
-26.6957 16.8814 -2.3159 0.8810
-27.3763 15.8057 -2.3178 0.8809
-29.8571 11.3233 -2.3413 0.8798
-31.6112 5.1373 -2.3482 0.8795
-34.0682 1.3729 -2.5000 0.8722
-26.0181 -1.0485 -2.4999 0.9007
-25.9557 -2.0954 -2.5000 0.9006
-25.5139 -5.2087 -2.5000 0.9006
-24.3480 -9.2339 -2.5000 0.9006
-23.5260 -11.1632 -2.5000 0.9006
-23.0574 -12.1015 -2.5000 0.9006
-22.5514 -13.0201 -2.5000 0.9006
-20.9084 -13.2217 -2.3750 0.9054
-20.1243 -13.8908 -2.3476 0.9064
-17.6452 -16.9492 -2.3490 0.9064
-13.2282 -16.2016 -2.0080 0.9194
-12.2853 -16.3488 -1.9633 0.9211
-11.1501 -16.1537 -1.8844 0.9242
-9.3099 -16.1253 -1.7876 0.9279
-8.4454 -16.0914 -1.7447 0.9296
-7.6265 -16.0726 -1.7079 0.9310
-9.4863 -22.2652 -2.3235 0.9073
-7.3531 -22.0254 -2.2293 0.9109
-4.6355 -16.0037 -1.5996 0.9352
-3.9174 -24.1047 -2.3445 0.9065
-0.9832 -24.3993 -2.3444 0.9065
0.0000 -24.4194 -2.3444 0.9065
0.9833 -24.4002 -2.3444 0.9065
5.2667 -15.7756 -1.5967 0.9354
9.5817 -22.4891 -2.3469 0.9064
8.2437 -15.7070 -1.7030 0.9312
9.9083 -15.6687 -1.7798 0.9282
10.8482 -15.7163 -1.8334 0.9261
16.2426 -18.3341 -2.3516 0.9063
18.3033 -16.2152 -2.3476 0.9064
18.9412 -15.4650 -2.3476 0.9064
20.1242 -13.8907 -2.3476 0.9064
20.8828 -13.2055 -2.3721 0.9055
22.5515 -13.0201 -2.5000 0.9006
23.5260 -11.1632 -2.5000 0.9006
24.3480 -9.2339 -2.5000 0.9006
25.0121 -7.2448 -2.5000 0.9006
25.2835 -6.2318 -2.5000 0.9006
25.7029 -4.1771 -2.5000 0.9006
26.0190 -1.0485 -2.5000 0.9006
26.0402 0.0000 -2.5000 0.9006
26.0190 1.0485 -2.5000 0.9006
25.9557 2.0954 -2.5000 0.9006
25.8503 3.1388 -2.5000 0.9006
23.7422 5.8519 -2.3476 0.9064
23.4873 6.8032 -2.3476 0.9064
22.9025 8.6858 -2.3516 0.9063
16.5877 7.0673 -1.7310 0.9301
14.9461 7.0920 -1.5882 0.9357
14.9835 7.8639 -1.6246 0.9343
13.0857 8.2749 -1.4864 0.9397
11.7186 8.8060 -1.4073 0.9428
9.5341 8.4465 -1.2229 0.9501
8.5515 9.6526 -1.2381 0.9495
6.7056 8.2128 -1.0179 0.9583
6.1721 8.2135 -0.9864 0.9596
5.4049 8.5472 -0.9709 0.9602
5.5257 9.5708 -1.0610 0.9566
4.3808 8.3470 -0.9050 0.9628
3.8543 8.1228 -0.8632 0.9645
3.4621 8.1258 -0.8480 0.9651
2.5037 8.6438 -0.8640 0.9645
2.2383 9.0810 -0.8979 0.9631
1.3338 8.2069 -0.7982 0.9671
-0.3311 8.2162 -0.7894 0.9675
-0.7815 9.6811 -0.9325 0.9617
-1.1755 9.6811 -0.9363 0.9616
-2.3721 9.6240 -0.9516 0.9610
-2.9141 8.7287 -0.8835 0.9637
-3.2014 8.4413 -0.8667 0.9644
-3.5373 8.3024 -0.8664 0.9644
-4.7954 8.3058 -0.9208 0.9622
-13.7027 21.6692 -2.4614 0.9021
-2.5687 3.4183 -0.4105 0.9830
-16.2148 19.8595 -2.4614 0.9021
-17.0012 19.1905 -2.4614 0.9021
-17.7602 18.4903 -2.4614 0.9021
-19.1904 17.0013 -2.4614 0.9021
-21.6692 13.7028 -2.4614 0.9021
-22.2033 12.8191 -2.4614 0.9021
-22.7015 11.9147 -2.4614 0.9021
-23.5618 10.0387 -2.4588 0.9022
-23.5264 8.9224 -2.4156 0.9038
-23.4914 7.8426 -2.3777 0.9053
-23.5015 6.8073 -2.3490 0.9064
-24.1610 4.9325 -2.3674 0.9057
-24.8887 4.0448 -2.4208 0.9036
-25.8502 3.1388 -2.5000 0.9006
-26.0035 1.0479 -2.4985 0.9007
-21.0461 0.0000 -2.5000 0.9187
-20.9779 -1.6935 -2.5000 0.9187
-20.8927 -2.5368 -2.5000 0.9187
-20.7736 -3.3760 -2.5000 0.9187
-20.6208 -4.2098 -2.5000 0.9187
-20.2152 -5.8554 -2.5000 0.9187
-19.6785 -7.4630 -2.5000 0.9187
-19.0141 -9.0223 -2.5000 0.9187
-17.7880 -11.2484 -2.5000 0.9187
-16.8252 -12.6433 -2.5000 0.9187
-16.1676 -13.2004 -2.4793 0.9194
-14.9229 -13.2205 -2.3682 0.9228
-13.6904 -14.2532 -2.3476 0.9235
-13.1054 -14.7929 -2.3476 0.9235
-11.8748 -15.8025 -2.3480 0.9235
-10.5673 -16.7109 -2.3486 0.9234
-9.8862 -17.1242 -2.3488 0.9234
-9.1987 -17.5268 -2.3513 0.9234
-7.6265 -16.0726 -2.1132 0.9308
-6.8401 -16.0544 -2.0729 0.9321
-6.0820 -16.0370 -2.0374 0.9332
-4.6355 -16.0037 -1.9792 0.9351
-1.9478 -16.0417 -1.9195 0.9370
-1.2973 -16.0704 -1.9151 0.9371
-0.6477 -16.0728 -1.9108 0.9373
0.0000 -16.0492 -1.9064 0.9374
0.6448 -15.9996 -1.9021 0.9375
1.2856 -15.9244 -1.8977 0.9377
3.2302 -15.8225 -1.9183 0.9370
3.8961 -15.8071 -1.9339 0.9365
8.4871 -17.8862 -2.3517 0.9233
8.2547 -15.7279 -2.1099 0.9310
9.8838 -17.1192 -2.3481 0.9235
10.5643 -16.7061 -2.3479 0.9235
11.2269 -16.2649 -2.3476 0.9235
11.8726 -15.7995 -2.3476 0.9235
13.6904 -14.2532 -2.3476 0.9235
14.9099 -13.2090 -2.3661 0.9229
17.3206 -11.9556 -2.5000 0.9187
18.2265 -10.5231 -2.5000 0.9187
19.0143 -9.0223 -2.5000 0.9187
19.6785 -7.4630 -2.5000 0.9187
19.9630 -6.6646 -2.5000 0.9187
20.6208 -4.2098 -2.5000 0.9187
20.7736 -3.3760 -2.5000 0.9187
20.8927 -2.5368 -2.5000 0.9187
20.9779 -1.6935 -2.5000 0.9187
9.2701 0.0000 -1.1012 0.9633
9.3128 0.3753 -1.1071 0.9632
20.9779 1.6935 -2.5000 0.9187
20.8927 2.5368 -2.5000 0.9187
19.1889 4.7296 -2.3476 0.9235
18.9829 5.4985 -2.3476 0.9235
16.6316 7.0861 -2.1474 0.9298
14.9850 7.1104 -1.9702 0.9354
13.0857 8.2749 -1.8391 0.9395
12.0902 8.3452 -1.7450 0.9425
10.3450 8.4465 -1.5864 0.9476
9.2715 9.6526 -1.5898 0.9475
6.1715 8.2128 -1.2203 0.9595
5.6689 8.2128 -1.1854 0.9606
5.5257 9.5708 -1.3128 0.9565
4.3808 8.3470 -1.1198 0.9627
3.8812 8.1795 -1.0754 0.9642
3.4830 8.1750 -1.0555 0.9648
1.3042 8.0252 -0.9658 0.9678
1.1590 9.5453 -1.1422 0.9620
0.7732 9.5783 -1.1415 0.9620
-1.1581 9.5378 -1.1413 0.9620
-1.5421 9.4892 -1.1420 0.9620
-1.7585 8.6136 -1.0443 0.9652
-1.9741 8.0093 -0.9799 0.9673
-2.7126 9.3651 -1.1582 0.9615
-2.9367 8.7964 -1.1016 0.9633
-3.2215 8.4944 -1.0791 0.9641
-3.5373 8.3024 -1.0720 0.9643
-3.8860 8.1896 -1.0768 0.9641
-4.2854 8.1651 -1.0954 0.9635
-4.7954 8.3058 -1.1392 0.9621
-2.5687 3.4183 -0.5079 0.9829
-13.1051 16.0508 -2.4614 0.9199
-17.5134 11.0748 -2.4614 0.9199
-17.9451 10.3606 -2.4614 0.9199
-18.3478 9.6296 -2.4614 0.9199
-19.3780 7.3491 -2.4618 0.9199
-19.7137 6.5814 -2.4688 0.9197
-19.9986 5.7927 -2.4732 0.9196
-20.5351 4.1923 -2.4896 0.9190
-20.8802 2.5353 -2.4985 0.9188
-20.9700 1.6929 -2.4990 0.9187
-17.6442 -0.0000 -2.5000 0.9312
-17.6298 -0.7104 -2.5000 0.9312
-17.5869 -1.4198 -2.5000 0.9312
-17.2875 -3.5293 -2.5000 0.9312
-16.9475 -4.9089 -2.5000 0.9312
-16.7361 -5.5873 -2.5000 0.9312
-15.9406 -7.5639 -2.5000 0.9312
-15.2802 -8.8221 -2.5000 0.9312
-14.9126 -9.4302 -2.5000 0.9312
-14.5208 -10.0230 -2.5000 0.9312
-14.1055 -10.5996 -2.5000 0.9312
-13.2068 -11.7002 -2.5000 0.9312
-12.7250 -12.2225 -2.5000 0.9312
-10.7856 -13.2100 -2.4163 0.9334
-9.9534 -13.2456 -2.3476 0.9353
-9.4120 -13.6356 -2.3476 0.9353
-8.8553 -14.0036 -2.3476 0.9353
-7.1028 -14.9688 -2.3476 0.9353
-6.4943 -15.2427 -2.3476 0.9353
-5.2471 -15.7170 -2.3478 0.9353
-4.6102 -15.9163 -2.3479 0.9352
-3.3148 -16.2369 -2.3480 0.9352
-2.6584 -16.3576 -2.3481 0.9352
-1.3335 -16.5190 -2.3482 0.9352
0.0000 -16.5727 -2.3482 0.9352
0.6673 -16.5590 -2.3481 0.9352
1.3335 -16.5184 -2.3481 0.9352
2.6582 -16.3565 -2.3479 0.9352
3.3145 -16.2354 -2.3478 0.9352
3.9654 -16.0880 -2.3477 0.9353
7.1028 -14.9688 -2.3476 0.9353
9.4120 -13.6356 -2.3476 0.9353
9.9534 -13.2456 -2.3476 0.9353
10.7788 -13.2016 -2.4148 0.9335
12.7250 -12.2225 -2.5000 0.9312
13.6672 -11.1589 -2.5000 0.9312
14.5208 -10.0230 -2.5000 0.9312
14.9128 -9.4302 -2.5000 0.9312
15.2803 -8.8221 -2.5000 0.9312
15.6231 -8.1996 -2.5000 0.9312
15.9406 -7.5639 -2.5000 0.9312
16.2323 -6.9159 -2.5000 0.9312
16.4975 -6.2567 -2.5000 0.9312
16.7361 -5.5873 -2.5000 0.9312
16.9475 -4.9089 -2.5000 0.9312
17.1314 -4.2225 -2.5000 0.9312
17.2875 -3.5293 -2.5000 0.9312
17.4156 -2.8303 -2.5000 0.9312
17.5155 -2.1268 -2.5000 0.9312
8.8554 -0.3568 -1.2557 0.9648
8.8221 0.0000 -1.2500 0.9650
10.2223 0.8252 -1.4531 0.9594
16.2337 3.3141 -2.3476 0.9353
16.0871 3.9651 -2.3476 0.9353
15.9144 4.6097 -2.3476 0.9353
15.7159 5.2467 -2.3476 0.9353
15.4918 5.8753 -2.3476 0.9353
15.2427 6.4943 -2.3476 0.9353
14.9408 7.0895 -2.3432 0.9354
14.6163 7.6712 -2.3389 0.9355
14.3041 8.2585 -2.3403 0.9355
12.8439 8.1220 -2.1532 0.9405
10.3450 8.4465 -1.8923 0.9475
8.9211 7.9034 -1.6887 0.9530
5.6689 8.2128 -1.4140 0.9605
5.4049 8.5472 -1.4329 0.9600
5.5257 9.5708 -1.5659 0.9563
4.3808 8.3470 -1.3357 0.9626
2.8111 8.4201 -1.2578 0.9648
2.2383 9.0810 -1.3252 0.9629
1.9648 9.6242 -1.3918 0.9611
1.2758 7.8504 -1.1269 0.9684
0.3591 8.9102 -1.2635 0.9646
-1.4315 8.8082 -1.2644 0.9646
-1.7585 8.6137 -1.2456 0.9651
-1.9305 7.8324 -1.1430 0.9679
-2.7126 9.3651 -1.3815 0.9614
-2.9846 8.9398 -1.3354 0.9626
-3.2014 8.4413 -1.2792 0.9642
-3.5373 8.3024 -1.2787 0.9642
-4.3430 8.2749 -1.3241 0.9629
-4.7954 8.3058 -1.3589 0.9620
-8.7298 13.8052 -2.3143 0.9361
-2.5687 3.4183 -0.6058 0.9829
-10.3213 12.6414 -2.3123 0.9362
-10.8156 12.2083 -2.3110 0.9362
-16.0059 6.8195 -2.4651 0.9321
-16.3357 6.1953 -2.4755 0.9319
-16.5964 5.5407 -2.4791 0.9318
-16.8315 4.8753 -2.4829 0.9317
-17.0786 4.2095 -2.4923 0.9314
-17.2778 3.5273 -2.4986 0.9312
-17.4086 2.8292 -2.4990 0.9312
-17.5115 2.1263 -2.4994 0.9312
-15.1631 -0.6110 -2.5000 0.9403
-15.1262 -1.2211 -2.5000 0.9403
-15.0648 -1.8292 -2.5000 0.9403
-14.8687 -3.0355 -2.5000 0.9403
-14.7344 -3.6317 -2.5000 0.9403
-14.1893 -5.3813 -2.5000 0.9403
-13.7102 -6.5056 -2.5000 0.9403
-12.4891 -8.6206 -2.5000 0.9403
-12.1319 -9.1165 -2.5000 0.9403
-10.9445 -10.5124 -2.5000 0.9403
-10.5124 -10.9445 -2.5000 0.9403
-10.0632 -11.3590 -2.5000 0.9403
-9.1165 -12.1319 -2.5000 0.9403
-6.9284 -13.2011 -2.4561 0.9414
-5.6313 -13.2171 -2.3668 0.9434
-5.0532 -13.3243 -2.3476 0.9439
-3.9647 -13.6877 -2.3476 0.9439
-2.2859 -14.0658 -2.3476 0.9439
0.0000 -14.2503 -2.3476 0.9439
0.5738 -14.2387 -2.3476 0.9439
1.1467 -14.2041 -2.3476 0.9439
2.8504 -13.9623 -2.3476 0.9439
3.9647 -13.6877 -2.3476 0.9439
4.5126 -13.5169 -2.3476 0.9439
5.6294 -13.2127 -2.3660 0.9434
6.9256 -13.1957 -2.4551 0.9414
7.5877 -13.1423 -2.5000 0.9403
8.1108 -12.8261 -2.5000 0.9403
8.6206 -12.4891 -2.5000 0.9403
9.1165 -12.1319 -2.5000 0.9403
9.5976 -11.7549 -2.5000 0.9403
10.0632 -11.3589 -2.5000 0.9403
10.5124 -10.9445 -2.5000 0.9403
10.9446 -10.5124 -2.5000 0.9403
11.3590 -10.0631 -2.5000 0.9403
11.7549 -9.5976 -2.5000 0.9403
12.1319 -9.1165 -2.5000 0.9403
12.4891 -8.6206 -2.5000 0.9403
12.8261 -8.1107 -2.5000 0.9403
13.7102 -6.5056 -2.5000 0.9403
13.9611 -5.9482 -2.5000 0.9403
14.3944 -4.8055 -2.5000 0.9403
14.7344 -3.6317 -2.5000 0.9403
14.9789 -2.4343 -2.5000 0.9403
15.0648 -1.8292 -2.5000 0.9403
8.3456 -0.3363 -1.3760 0.9667
8.3040 0.0000 -1.3680 0.9669
8.3445 0.3363 -1.3758 0.9667
8.5023 0.6864 -1.4052 0.9660
13.9624 2.8504 -2.3476 0.9439
13.8362 3.4103 -2.3476 0.9439
13.6877 3.9647 -2.3476 0.9439
13.1100 5.5856 -2.3476 0.9439
12.8745 6.1090 -2.3476 0.9439
12.6180 6.6224 -2.3476 0.9439
12.3050 7.1043 -2.3407 0.9440
11.6729 8.0572 -2.3366 0.9441
8.9374 7.9178 -1.9670 0.9527
8.5470 8.2095 -1.9523 0.9531
7.7176 8.7114 -1.9173 0.9539
6.1715 8.2128 -1.6924 0.9592
5.4049 8.5472 -1.6660 0.9598
5.5257 9.5708 -1.8206 0.9562
4.3808 8.3470 -1.5530 0.9625
3.9265 8.2749 -1.5089 0.9636
3.5256 8.2749 -1.4818 0.9642
2.8111 8.4201 -1.4624 0.9647
2.2383 9.0810 -1.5408 0.9628
1.2485 7.6821 -1.2821 0.9689
1.0418 8.5800 -1.4238 0.9656
0.6928 8.5814 -1.4183 0.9657
0.3459 8.5829 -1.4151 0.9658
0.0000 7.6974 -1.2681 0.9693
-0.3101 7.6959 -1.2688 0.9693
-0.6929 8.5834 -1.4186 0.9657
-1.7514 8.5791 -1.4425 0.9651
-2.9687 8.8922 -1.5444 0.9627
-3.9265 8.2749 -1.5089 0.9636
-4.3291 8.2483 -1.5346 0.9629
-4.7954 8.3058 -1.5800 0.9619
-2.5687 3.4183 -0.7044 0.9828
-8.8849 10.8820 -2.3143 0.9446
-9.3158 10.5154 -2.3143 0.9446
-9.7288 10.1288 -2.3137 0.9447
-10.5026 9.3045 -2.3115 0.9447
-10.8640 8.8702 -2.3105 0.9447
-13.5340 6.4220 -2.4679 0.9411
-14.0958 5.3458 -2.4835 0.9407
-14.3210 4.7811 -2.4872 0.9406
-14.9772 2.4340 -2.4997 0.9403
-15.0648 1.8292 -2.5000 0.9403
-13.3006 0.0000 -2.5000 0.9473
-13.2898 -0.5356 -2.5000 0.9473
-13.2574 -1.0702 -2.5000 0.9473
-13.1283 -2.1336 -2.5000 0.9473
-12.9141 -3.1830 -2.5000 0.9473
-12.4362 -4.7164 -2.5000 0.9473
-12.0164 -5.7018 -2.5000 0.9473
-11.5186 -6.6503 -2.5000 0.9473
-10.9461 -7.5556 -2.5000 0.9473
-10.6330 -7.9902 -2.5000 0.9473
-10.3027 -8.4119 -2.5000 0.9473
-9.9556 -8.8199 -2.5000 0.9473
-9.5924 -9.2136 -2.5000 0.9473
-7.9902 -10.6330 -2.5000 0.9473
-7.5556 -10.9461 -2.5000 0.9473
-6.6503 -11.5186 -2.5000 0.9473
-6.1811 -11.7771 -2.5000 0.9473
-4.2119 -12.6161 -2.5000 0.9473
-2.6605 -13.0318 -2.5000 0.9473
-2.1336 -13.1283 -2.5000 0.9473
0.0000 -13.1939 -2.4799 0.9477
1.6016 -13.1900 -2.4974 0.9474
2.1335 -13.1283 -2.5000 0.9473
2.6605 -13.0318 -2.5000 0.9473
4.2119 -12.6161 -2.5000 0.9473
4.7164 -12.4362 -2.5000 0.9473
5.2144 -12.2362 -2.5000 0.9473
5.7019 -12.0164 -2.5000 0.9473
7.5556 -10.9461 -2.5000 0.9473
7.9902 -10.6330 -2.5000 0.9473
8.8200 -9.9556 -2.5000 0.9473
9.9556 -8.8199 -2.5000 0.9473
10.9462 -7.5556 -2.5000 0.9473
11.2415 -7.1087 -2.5000 0.9473
11.7771 -6.1811 -2.5000 0.9473
12.7754 -3.7004 -2.5000 0.9473
12.9141 -3.1830 -2.5000 0.9473
13.0318 -2.6605 -2.5000 0.9473
8.1105 -0.3268 -1.5257 0.9675
8.2034 0.6623 -1.5469 0.9671
13.2036 1.6032 -2.5000 0.9473
13.1283 2.1336 -2.5000 0.9473
12.1268 2.9890 -2.3476 0.9504
11.9966 3.4749 -2.3476 0.9504
11.8470 3.9551 -2.3476 0.9504
11.0591 5.8043 -2.3476 0.9504
10.8164 6.2449 -2.3476 0.9504
8.9157 7.8986 -2.2388 0.9527
8.5622 8.2242 -2.2315 0.9528
7.7881 8.1083 -2.1132 0.9553
7.8602 9.6270 -2.3360 0.9507
6.1715 8.2128 -1.9310 0.9590
5.4049 8.5472 -1.9008 0.9597
5.5257 9.5708 -2.0772 0.9560
3.1314 8.2569 -1.6598 0.9647
2.8111 8.4201 -1.6685 0.9645
2.2383 9.0810 -1.7580 0.9626
1.9648 9.6243 -1.8463 0.9608
1.2230 7.5256 -1.4331 0.9694
-0.3036 7.5346 -1.4174 0.9698
-0.6781 8.3996 -1.5839 0.9663
-1.0197 8.3982 -1.5901 0.9662
-1.3646 8.3968 -1.5990 0.9660
-1.7139 8.3954 -1.6105 0.9657
-2.9846 8.9398 -1.7715 0.9624
-3.5373 8.3024 -1.6963 0.9639
-3.9265 8.2749 -1.7216 0.9634
-4.3430 8.2749 -1.7566 0.9627
-4.7954 8.3058 -1.8027 0.9617
-6.5843 10.4123 -2.3156 0.9511
-6.9965 10.1362 -2.3150 0.9511
-2.5687 3.4183 -0.8037 0.9827
-8.1649 9.2163 -2.3143 0.9511
-8.5294 8.8800 -2.3143 0.9511
-9.2163 8.1649 -2.3143 0.9511
-9.8381 7.3929 -2.3131 0.9511
-10.1146 6.9816 -2.3101 0.9512
-10.9678 5.7564 -2.3282 0.9508
-11.9108 5.6517 -2.4780 0.9478
-12.9121 3.1826 -2.4996 0.9473
-13.0315 2.6604 -2.4999 0.9473
-13.1283 2.1336 -2.5000 0.9473
-11.8174 -0.4762 -2.5000 0.9528
-11.7886 -0.9517 -2.5000 0.9528
-11.4833 -2.8304 -2.5000 0.9528
-11.0584 -4.1939 -2.5000 0.9528
-10.8806 -4.6358 -2.5000 0.9528
-10.4723 -5.4963 -2.5000 0.9528
-10.2425 -5.9135 -2.5000 0.9528
-9.9960 -6.3211 -2.5000 0.9528
-9.7334 -6.7185 -2.5000 0.9528
-9.4550 -7.1050 -2.5000 0.9528
-9.1612 -7.4799 -2.5000 0.9528
-8.8526 -7.8427 -2.5000 0.9528
-8.5296 -8.1928 -2.5000 0.9528
-8.1928 -8.5296 -2.5000 0.9528
-7.8427 -8.8526 -2.5000 0.9528
-7.1050 -9.4550 -2.5000 0.9528
-6.7185 -9.7334 -2.5000 0.9528
-6.3211 -9.9960 -2.5000 0.9528
-5.9135 -10.2425 -2.5000 0.9528
-5.4963 -10.4723 -2.5000 0.9528
-5.0701 -10.6851 -2.5000 0.9528
-3.2905 -11.3600 -2.5000 0.9528
-1.4256 -11.7407 -2.5000 0.9528
0.4762 -11.8174 -2.5000 0.9528
1.4256 -11.7407 -2.5000 0.9528
1.8972 -11.6738 -2.5000 0.9528
2.3657 -11.5880 -2.5000 0.9528
4.6359 -10.8805 -2.5000 0.9528
5.0699 -10.6851 -2.5000 0.9528
5.4964 -10.4722 -2.5000 0.9528
5.9134 -10.2425 -2.5000 0.9528
6.3211 -9.9960 -2.5000 0.9528
7.1050 -9.4550 -2.5000 0.9528
7.8428 -8.8526 -2.5000 0.9528
8.1928 -8.5296 -2.5000 0.9528
8.5296 -8.1928 -2.5000 0.9528
9.1612 -7.4799 -2.5000 0.9528
9.7334 -6.7185 -2.5000 0.9528
9.9960 -6.3211 -2.5000 0.9528
10.2425 -5.9135 -2.5000 0.9528
10.4723 -5.4962 -2.5000 0.9528
11.0584 -4.1939 -2.5000 0.9528
11.2183 -3.7452 -2.5000 0.9528
11.4833 -2.8304 -2.5000 0.9528
11.5880 -2.3657 -2.5000 0.9528
8.0189 -0.3231 -1.6964 0.9677
7.9929 0.0000 -1.6895 0.9679
11.7407 1.4256 -2.5000 0.9528
11.6738 1.8972 -2.5000 0.9528
11.5880 2.3657 -2.5000 0.9528
11.0223 2.7168 -2.3996 0.9546
10.3843 3.9382 -2.3476 0.9556
9.6181 5.5530 -2.3476 0.9556
9.3867 5.9358 -2.3476 0.9556
9.1401 6.3089 -2.3476 0.9556
8.5857 7.0100 -2.3429 0.9557
7.6410 7.9551 -2.3316 0.9559
5.6815 8.2311 -2.1141 0.9599
4.3808 8.3470 -1.9926 0.9622
3.5256 8.2749 -1.9013 0.9639
2.2383 9.0810 -1.9770 0.9625
1.4344 7.0259 -1.5158 0.9711
0.9963 8.2050 -1.7471 0.9668
0.3307 8.2077 -1.7364 0.9670
-0.9965 8.2070 -1.7475 0.9668
-1.6749 8.2043 -1.7700 0.9663
-2.7126 9.3651 -2.0610 0.9609
-3.2014 8.4413 -1.9083 0.9638
-3.5373 8.3024 -1.9076 0.9638
-3.9265 8.2749 -1.9361 0.9632
-4.3430 8.2749 -1.9754 0.9625
-4.7954 8.3058 -2.0273 0.9615
-5.8572 9.2625 -2.3165 0.9562
-6.2240 9.0171 -2.3160 0.9562
-6.9264 8.4833 -2.3150 0.9562
-7.2609 8.1959 -2.3145 0.9562
-7.5844 7.8962 -2.3143 0.9562
-7.8962 7.5844 -2.3143 0.9562
-9.0912 6.2752 -2.3350 0.9558
-9.8190 5.1534 -2.3440 0.9557
-11.2162 3.7445 -2.4995 0.9528
-11.4833 2.8304 -2.5000 0.9528
-11.5880 2.3657 -2.5000 0.9528
-11.6738 1.8972 -2.5000 0.9528
-11.7407 1.4256 -2.5000 0.9528
-11.7886 0.9517 -2.5000 0.9528
-11.8174 0.4762 -2.5000 0.9528
-10.6372 0.0000 -2.5000 0.9572
-10.6285 -0.4283 -2.5000 0.9572
-10.6027 -0.8559 -2.5000 0.9572
-10.5596 -1.2822 -2.5000 0.9572
-10.3281 -2.5456 -2.5000 0.9572
-10.2172 -2.9595 -2.5000 0.9572
-9.7860 -4.1694 -2.5000 0.9572
-9.6102 -4.5601 -2.5000 0.9572
-9.4188 -4.9433 -2.5000 0.9572
-9.2121 -5.3186 -2.5000 0.9572
-8.9904 -5.6852 -2.5000 0.9572
-8.7542 -6.0426 -2.5000 0.9572
-8.5038 -6.3902 -2.5000 0.9572
-8.2396 -6.7274 -2.5000 0.9572
-7.9621 -7.0538 -2.5000 0.9572
-7.6716 -7.3686 -2.5000 0.9572
-7.0538 -7.9620 -2.5000 0.9572
-6.7274 -8.2396 -2.5000 0.9572
-6.3902 -8.5038 -2.5000 0.9572
-6.0426 -8.7542 -2.5000 0.9572
-5.3186 -9.2121 -2.5000 0.9572
-4.5601 -9.6102 -2.5000 0.9572
-4.1694 -9.7860 -2.5000 0.9572
-3.7720 -9.9459 -2.5000 0.9572
-3.3684 -10.0897 -2.5000 0.9572
-2.5457 -10.3281 -2.5000 0.9572
-2.1277 -10.4222 -2.5000 0.9572
-1.7063 -10.4994 -2.5000 0.9572
-0.0000 -10.6372 -2.5000 0.9572
0.4283 -10.6286 -2.5000 0.9572
1.2822 -10.5596 -2.5000 0.9572
1.7063 -10.4994 -2.5000 0.9572
2.1277 -10.4222 -2.5000 0.9572
2.9595 -10.2172 -2.5000 0.9572
3.7720 -9.9460 -2.5000 0.9572
4.5600 -9.6102 -2.5000 0.9572
4.9434 -9.4188 -2.5000 0.9572
5.3186 -9.2121 -2.5000 0.9572
5.6852 -8.9904 -2.5000 0.9572
6.0426 -8.7542 -2.5000 0.9572
7.3686 -7.6716 -2.5000 0.9572
7.6716 -7.3686 -2.5000 0.9572
8.5038 -6.3902 -2.5000 0.9572
9.2121 -5.3186 -2.5000 0.9572
9.7860 -4.1694 -2.5000 0.9572
10.0898 -3.3684 -2.5000 0.9572
10.2172 -2.9595 -2.5000 0.9572
10.4222 -2.1277 -2.5000 0.9572
8.5454 -1.0376 -2.0231 0.9652
7.9430 -0.3201 -1.8683 0.9679
7.9417 0.3200 -1.8680 0.9679
8.0247 0.6478 -1.8921 0.9675
10.4995 1.7063 -2.5000 0.9572
10.4222 2.1277 -2.5000 0.9572
10.3281 2.5457 -2.5000 0.9572
9.4747 3.1631 -2.3476 0.9598
9.3396 3.5421 -2.3476 0.9598
9.1894 3.9153 -2.3476 0.9598
8.4424 5.3386 -2.3476 0.9598
7.7373 6.3173 -2.3476 0.9598
7.2038 6.9194 -2.3476 0.9598
6.8676 7.1500 -2.3300 0.9601
6.5729 7.4193 -2.3296 0.9601
5.9545 7.9241 -2.3295 0.9601
4.9577 8.5870 -2.3304 0.9601
4.3808 8.3470 -2.2155 0.9620
3.9265 8.2749 -2.1526 0.9631
2.5475 8.7949 -2.1520 0.9631
1.4424 7.0653 -1.6947 0.9708
1.2623 7.7671 -1.8494 0.9682
-0.2847 7.0637 -1.6615 0.9714
-0.9739 8.0211 -1.8990 0.9673
-1.3033 8.0197 -1.9095 0.9672
-1.6370 8.0183 -1.9234 0.9669
-1.7561 7.1247 -1.7246 0.9703
-3.5373 8.3024 -2.1210 0.9636
-3.9265 8.2749 -2.1526 0.9631
-4.2576 8.1121 -2.1532 0.9631
-4.7954 8.3058 -2.2540 0.9614
-5.2699 8.3337 -2.3173 0.9603
-6.5332 7.3744 -2.3155 0.9603
-6.8796 7.1625 -2.3341 0.9600
-7.2038 6.9194 -2.3475 0.9598
-7.4766 6.6237 -2.3476 0.9598
-7.7373 6.3173 -2.3476 0.9598
-7.9854 6.0007 -2.3476 0.9598
-8.4424 5.3386 -2.3476 0.9598
-8.6505 4.9944 -2.3476 0.9598
-8.8446 4.6420 -2.3476 0.9598
-9.0243 4.2821 -2.3476 0.9598
-9.1894 3.9152 -2.3476 0.9598
-10.2172 2.9594 -2.5000 0.9572
-10.4994 1.7063 -2.5000 0.9572
-10.5596 1.2822 -2.5000 0.9572
-10.6027 0.8559 -2.5000 0.9572
-9.6477 -0.3888 -2.5000 0.9609
-9.5305 -1.5489 -2.5000 0.9609
-9.2743 -2.6863 -2.5000 0.9609
-8.8829 -3.7846 -2.5000 0.9609
-8.7233 -4.1392 -2.5000 0.9609
-8.3619 -4.8278 -2.5000 0.9609
-6.4028 -7.2273 -2.5000 0.9609
-5.8005 -7.7190 -2.5000 0.9609
-5.4850 -7.9463 -2.5000 0.9609
-5.1605 -8.1607 -2.5000 0.9609
-4.4871 -8.5495 -2.5000 0.9609
-4.1392 -8.7233 -2.5000 0.9609
-3.7846 -8.8829 -2.5000 0.9609
-3.0576 -9.1586 -2.5000 0.9609
-2.3107 -9.3749 -2.5000 0.9609
-1.9314 -9.4604 -2.5000 0.9609
-1.5489 -9.5305 -2.5000 0.9609
-1.1638 -9.5851 -2.5000 0.9609
-0.7769 -9.6242 -2.5000 0.9609
-0.3888 -9.6477 -2.5000 0.9609
1.1638 -9.5851 -2.5000 0.9609
1.5489 -9.5304 -2.5000 0.9609
2.3108 -9.3749 -2.5000 0.9609
3.0576 -9.1586 -2.5000 0.9609
3.7846 -8.8829 -2.5000 0.9609
4.1393 -8.7233 -2.5000 0.9609
4.4871 -8.5495 -2.5000 0.9609
5.1606 -8.1607 -2.5000 0.9609
5.8005 -7.7190 -2.5000 0.9609
6.9636 -6.6886 -2.5000 0.9609
7.2273 -6.4028 -2.5000 0.9609
7.7190 -5.8005 -2.5000 0.9609
8.5495 -4.4871 -2.5000 0.9609
8.7233 -4.1392 -2.5000 0.9609
8.8829 -3.7846 -2.5000 0.9609
9.0281 -3.4239 -2.5000 0.9609
9.2743 -2.6863 -2.5000 0.9609
9.3749 -2.3107 -2.5000 0.9609
9.5305 -1.5488 -2.5000 0.9609
8.4872 -1.0305 -2.2136 0.9653
7.9941 -0.6453 -2.0766 0.9674
7.9326 -0.3197 -2.0556 0.9677
7.9121 0.0000 -2.0486 0.9678
7.9313 0.3196 -2.0552 0.9677
8.4833 1.0301 -2.2126 0.9653
8.6003 2.8712 -2.3476 0.9632
8.4777 3.2152 -2.3476 0.9632
8.3414 3.5539 -2.3476 0.9632
8.1915 3.8869 -2.3476 0.9632
8.0284 4.2136 -2.3476 0.9632
7.6633 4.8460 -2.3476 0.9632
7.4619 5.1506 -2.3476 0.9632
7.2485 5.4469 -2.3476 0.9632
6.7867 6.0125 -2.3476 0.9632
6.5391 6.2809 -2.3476 0.9632
6.0125 6.7867 -2.3476 0.9632
5.7256 7.0125 -2.3440 0.9633
5.1076 7.3996 -2.3280 0.9635
4.8047 7.5980 -2.3276 0.9635
4.4945 7.7847 -2.3274 0.9635
4.1777 7.9599 -2.3276 0.9635
3.1314 8.2569 -2.2864 0.9642
2.8111 8.4201 -2.2984 0.9640
2.5011 8.6349 -2.3276 0.9635
1.4440 7.0732 -1.8691 0.9706
0.9517 7.8382 -2.0444 0.9679
0.6329 7.8395 -2.0364 0.9680
-0.2850 7.0715 -1.8324 0.9712
-1.2739 7.8389 -2.0563 0.9677
-1.6000 7.8376 -2.0711 0.9675
-1.7558 7.1237 -1.8997 0.9701
-2.4943 8.6114 -2.3213 0.9636
-2.8385 8.5022 -2.3208 0.9636
-3.1777 8.3790 -2.3202 0.9636
-3.5113 8.2414 -2.3194 0.9637
-3.8389 8.0904 -2.3186 0.9637
-5.0836 7.3648 -2.3170 0.9637
-6.2809 6.5391 -2.3476 0.9632
-6.5391 6.2809 -2.3476 0.9632
-7.0233 5.7343 -2.3476 0.9632
-7.2485 5.4469 -2.3476 0.9632
-7.4619 5.1506 -2.3476 0.9632
-7.8522 4.5335 -2.3476 0.9632
-8.0283 4.2136 -2.3476 0.9632
-8.1915 3.8869 -2.3476 0.9632
-8.3414 3.5539 -2.3476 0.9632
-8.4777 3.2152 -2.3476 0.9632
-9.2743 2.6863 -2.5000 0.9609
-9.4605 1.9313 -2.5000 0.9609
-9.5305 1.5489 -2.5000 0.9609
-9.5851 1.1638 -2.5000 0.9609
-8.8310 0.0000 -2.5000 0.9640
-8.7666 -1.0645 -2.5000 0.9640
-8.6525 -1.7664 -2.5000 0.9640
-8.5744 -2.1134 -2.5000 0.9640
-8.3765 -2.7965 -2.5000 0.9640
-7.9784 -3.7858 -2.5000 0.9640
-7.8194 -4.1039 -2.5000 0.9640
-7.6478 -4.4155 -2.5000 0.9640
-6.8405 -5.5851 -2.5000 0.9640
-6.1174 -6.3689 -2.5000 0.9640
-5.8560 -6.6101 -2.5000 0.9640
-5.5851 -6.8405 -2.5000 0.9640
-4.7199 -7.4638 -2.5000 0.9640
-4.4155 -7.6478 -2.5000 0.9640
-4.1040 -7.8194 -2.5000 0.9640
-3.4614 -8.1243 -2.5000 0.9640
-3.1315 -8.2571 -2.5000 0.9640
-2.7965 -8.3765 -2.5000 0.9640
-2.4569 -8.4823 -2.5000 0.9640
-1.7664 -8.6525 -2.5000 0.9640
-0.7106 -8.8023 -2.5000 0.9640
-0.3556 -8.8238 -2.5000 0.9640
0.0000 -8.8310 -2.5000 0.9640
0.3556 -8.8238 -2.5000 0.9640
0.7106 -8.8023 -2.5000 0.9640
1.0645 -8.7666 -2.5000 0.9640
1.7664 -8.6525 -2.5000 0.9640
2.1134 -8.5743 -2.5000 0.9640
2.7965 -8.3765 -2.5000 0.9640
3.7858 -7.9783 -2.5000 0.9640
4.1040 -7.8194 -2.5000 0.9640
4.4155 -7.6478 -2.5000 0.9640
4.7198 -7.4638 -2.5000 0.9640
5.5851 -6.8405 -2.5000 0.9640
5.8560 -6.6101 -2.5000 0.9640
6.1174 -6.3689 -2.5000 0.9640
6.3689 -6.1174 -2.5000 0.9640
7.2678 -5.0166 -2.5000 0.9640
7.4639 -4.7199 -2.5000 0.9640
7.8194 -4.1039 -2.5000 0.9640
7.9783 -3.7858 -2.5000 0.9640
8.1243 -3.4614 -2.5000 0.9640
8.3765 -2.7965 -2.5000 0.9640
8.5744 -2.1134 -2.5000 0.9640
8.6525 -1.7664 -2.5000 0.9640
8.8023 -0.7106 -2.5000 0.9640
8.8310 0.0000 -2.5000 0.9640
8.8238 0.3556 -2.5000 0.9640
8.6526 1.7664 -2.5000 0.9640
8.4823 2.4569 -2.5000 0.9640
8.1209 2.7112 -2.4237 0.9650
7.7538 2.9406 -2.3476 0.9661
7.1816 4.1463 -2.3476 0.9661
7.0088 4.4321 -2.3476 0.9661
6.4235 5.2446 -2.3476 0.9661
6.2071 5.4990 -2.3476 0.9661
4.7108 6.8247 -2.3476 0.9661
4.1243 7.1434 -2.3351 0.9663
2.9130 7.6809 -2.3255 0.9664
2.6010 7.7910 -2.3252 0.9664
1.9655 7.9743 -2.3250 0.9664
1.4456 7.0812 -2.0460 0.9704
1.2434 7.6509 -2.1943 0.9683
0.9291 7.6522 -2.1822 0.9685
0.6179 7.6535 -2.1737 0.9686
0.3085 7.6548 -2.1688 0.9687
0.0000 7.6560 -2.1674 0.9687
-0.9294 7.6542 -2.1828 0.9685
-1.2437 7.6530 -2.1949 0.9683
-1.5621 7.6517 -2.2108 0.9681
-2.5947 7.7720 -2.3196 0.9665
-2.9052 7.6603 -2.3193 0.9665
-3.5113 7.3999 -2.3187 0.9665
-3.8059 7.2516 -2.3185 0.9665
-4.1239 7.1428 -2.3349 0.9663
-4.7108 6.8247 -2.3476 0.9661
-2.5687 3.4183 -1.2105 0.9824
-5.4990 6.2071 -2.3476 0.9661
-5.7445 5.9807 -2.3476 0.9661
-6.2071 5.4990 -2.3476 0.9661
-6.4235 5.2446 -2.3476 0.9661
-6.6295 4.9817 -2.3476 0.9661
-7.1816 4.1463 -2.3476 0.9661
-7.3427 3.8538 -2.3476 0.9661
-7.7656 2.9451 -2.3512 0.9661
-8.4823 2.4569 -2.5000 0.9640
-8.7166 1.4166 -2.5000 0.9640
-8.7666 1.0645 -2.5000 0.9640
-8.8023 0.7106 -2.5000 0.9640
-7.8918 -1.9451 -2.5000 0.9666
-7.8071 -2.2613 -2.5000 0.9666
-7.7096 -2.5739 -2.5000 0.9666
-7.5998 -2.8822 -2.5000 0.9666
-7.4776 -3.1859 -2.5000 0.9666
-7.3432 -3.4844 -2.5000 0.9666
-7.1970 -3.7772 -2.5000 0.9666
-7.0390 -4.0640 -2.5000 0.9666
-6.2960 -5.1405 -2.5000 0.9666
-6.0838 -5.3898 -2.5000 0.9666
-4.6172 -6.6892 -2.5000 0.9666
-3.4844 -7.3432 -2.5000 0.9666
-3.1859 -7.4776 -2.5000 0.9666
-2.8822 -7.5998 -2.5000 0.9666
-1.9451 -7.8918 -2.5000 0.9666
-1.6258 -7.9637 -2.5000 0.9666
-0.9797 -8.0687 -2.5000 0.9666
-0.3273 -8.1214 -2.5000 0.9666
0.9797 -8.0687 -2.5000 0.9666
1.3038 -8.0227 -2.5000 0.9666
1.6258 -7.9637 -2.5000 0.9666
1.9452 -7.8918 -2.5000 0.9666
2.8822 -7.5998 -2.5000 0.9666
3.4844 -7.3432 -2.5000 0.9666
3.7772 -7.1969 -2.5000 0.9666
4.0640 -7.0390 -2.5000 0.9666
4.8828 -6.4978 -2.5000 0.9666
5.3899 -6.0838 -2.5000 0.9666
5.6305 -5.8619 -2.5000 0.9666
6.2960 -5.1405 -2.5000 0.9666
6.4978 -4.8828 -2.5000 0.9666
6.8697 -4.3441 -2.5000 0.9666
7.0390 -4.0640 -2.5000 0.9666
7.7097 -2.5738 -2.5000 0.9666
7.9637 -1.6258 -2.5000 0.9666
8.0687 -0.9797 -2.5000 0.9666
8.1016 -0.6540 -2.5000 0.9666
8.1016 0.6540 -2.5000 0.9666
8.0227 1.3038 -2.5000 0.9666
7.7097 2.5739 -2.5000 0.9666
7.1799 2.7230 -2.3619 0.9684
7.0217 2.9917 -2.3476 0.9686
6.6099 3.8162 -2.3476 0.9686
5.7130 5.0613 -2.3476 0.9686
5.5046 5.2872 -2.3476 0.9686
5.0613 5.7130 -2.3476 0.9686
4.8271 5.9121 -2.3476 0.9686
4.3357 6.2814 -2.3476 0.9686
4.0793 6.4509 -2.3476 0.9686
3.8162 6.6099 -2.3476 0.9686
2.9885 7.0142 -2.3451 0.9686
2.6939 7.1031 -2.3366 0.9687
2.1029 7.2600 -2.3248 0.9689
1.2119 7.4573 -2.3238 0.9689
0.3016 7.4842 -2.3039 0.9691
-0.9087 7.4837 -2.3187 0.9689
-1.5093 7.3931 -2.3209 0.9689
-1.7554 7.1217 -2.2560 0.9698
-2.0988 7.2459 -2.3203 0.9689
-2.3966 7.1787 -2.3278 0.9688
-3.2720 6.8956 -2.3476 0.9686
-3.5470 6.7582 -2.3476 0.9686
-4.0793 6.4509 -2.3476 0.9686
-4.3357 6.2814 -2.3476 0.9686
-5.2872 5.5046 -2.3476 0.9686
-5.7130 5.0613 -2.3476 0.9686
-5.9122 4.8271 -2.3476 0.9686
-6.2814 4.3358 -2.3476 0.9686
-6.6099 3.8162 -2.3476 0.9686
-6.8956 3.2720 -2.3476 0.9686
-7.1857 2.7252 -2.3638 0.9684
-7.8070 2.2613 -2.5000 0.9666
-7.9637 1.6258 -2.5000 0.9666
-8.0227 1.3038 -2.5000 0.9666
-8.0687 0.9797 -2.5000 0.9666
-8.1016 0.6540 -2.5000 0.9666
-8.1214 0.3273 -2.5000 0.9666
-7.5209 0.0000 -2.5000 0.9688
-7.5148 -0.3028 -2.5000 0.9688
-7.4661 -0.9066 -2.5000 0.9688
-7.4235 -1.2064 -2.5000 0.9688
-7.3689 -1.5044 -2.5000 0.9688
-7.1338 -2.3816 -2.5000 0.9688
-6.9191 -2.9479 -2.5000 0.9688
-6.6594 -3.4951 -2.5000 0.9688
-6.5133 -3.7604 -2.5000 0.9688
-6.3566 -4.0196 -2.5000 0.9688
-6.0125 -4.5181 -2.5000 0.9688
-5.2099 -5.4241 -2.5000 0.9688
-4.9873 -5.6294 -2.5000 0.9688
-4.7566 -5.8257 -2.5000 0.9688
-3.7604 -6.5133 -2.5000 0.9688
-3.4951 -6.6594 -2.5000 0.9688
-3.2241 -6.7947 -2.5000 0.9688
-2.9479 -6.9191 -2.5000 0.9688
-2.6669 -7.0321 -2.5000 0.9688
-2.3816 -7.1338 -2.5000 0.9688
-2.0924 -7.2239 -2.5000 0.9688
-1.7999 -7.3023 -2.5000 0.9688
-0.9065 -7.4660 -2.5000 0.9688
0.0000 -7.5209 -2.5000 0.9688
1.5044 -7.3689 -2.5000 0.9688
1.7999 -7.3023 -2.5000 0.9688
2.0924 -7.2239 -2.5000 0.9688
2.3816 -7.1338 -2.5000 0.9688
2.6670 -7.0321 -2.5000 0.9688
2.9479 -6.9191 -2.5000 0.9688
3.2242 -6.7947 -2.5000 0.9688
3.4951 -6.6594 -2.5000 0.9688
4.2724 -6.1896 -2.5000 0.9688
5.2099 -5.4241 -2.5000 0.9688
5.4241 -5.2099 -2.5000 0.9688
5.6295 -4.9873 -2.5000 0.9688
5.8257 -4.7565 -2.5000 0.9688
6.0125 -4.5181 -2.5000 0.9688
6.3566 -4.0197 -2.5000 0.9688
6.6594 -3.4951 -2.5000 0.9688
6.7948 -3.2241 -2.5000 0.9688
6.9191 -2.9479 -2.5000 0.9688
7.0321 -2.6669 -2.5000 0.9688
7.2240 -2.0924 -2.5000 0.9688
7.3023 -1.7999 -2.5000 0.9688
7.3689 -1.5044 -2.5000 0.9688
7.4235 -1.2064 -2.5000 0.9688
7.4661 -0.9065 -2.5000 0.9688
7.4965 -0.6052 -2.5000 0.9688
7.5148 -0.3028 -2.5000 0.9688
7.5148 0.3028 -2.5000 0.9688
7.4661 0.9066 -2.5000 0.9688
7.4235 1.2064 -2.5000 0.9688
7.1338 2.3816 -2.5000 0.9688
7.0321 2.6669 -2.5000 0.9688
6.3805 3.0276 -2.3476 0.9707
6.2535 3.2821 -2.3476 0.9707
6.1162 3.5312 -2.3476 0.9707
5.4706 4.4666 -2.3476 0.9707
5.2863 4.6832 -2.3476 0.9707
5.0934 4.8923 -2.3476 0.9707
4.4666 5.4706 -2.3476 0.9707
4.2427 5.6460 -2.3476 0.9707
3.7746 5.9691 -2.3476 0.9707
3.5312 6.1162 -2.3476 0.9707
3.2821 6.2535 -2.3476 0.9707
2.5044 6.6035 -2.3476 0.9707
2.2364 6.6990 -2.3476 0.9707
1.9649 6.7836 -2.3476 0.9707
1.6902 6.8572 -2.3476 0.9707
1.4127 6.9197 -2.3476 0.9707
0.8510 7.0083 -2.3467 0.9707
0.5675 7.0303 -2.3445 0.9707
0.2839 7.0437 -2.3433 0.9707
0.0000 7.0483 -2.3429 0.9707
-0.5676 7.0315 -2.3449 0.9707
-0.8512 7.0101 -2.3473 0.9707
-1.9649 6.7836 -2.3476 0.9707
-2.2364 6.6990 -2.3476 0.9707
-2.5044 6.6035 -2.3476 0.9707
-3.0276 6.3805 -2.3476 0.9707
-3.2821 6.2535 -2.3476 0.9707
-3.5312 6.1162 -2.3476 0.9707
-4.0119 5.8122 -2.3476 0.9707
-2.5687 3.4183 -1.4213 0.9821
-4.4666 5.4706 -2.3476 0.9707
-4.6832 5.2863 -2.3476 0.9707
-4.8923 5.0934 -2.3476 0.9707
-5.0934 4.8923 -2.3476 0.9707
-5.2863 4.6832 -2.3476 0.9707
-5.6460 4.2427 -2.3476 0.9707
-6.1162 3.5312 -2.3476 0.9707
-6.2534 3.2821 -2.3476 0.9707
-6.3805 3.0276 -2.3476 0.9707
-7.0321 2.6669 -2.5000 0.9688
-7.1338 2.3816 -2.5000 0.9688
-7.2239 2.0924 -2.5000 0.9688
-7.3023 1.7999 -2.5000 0.9688
-7.3689 1.5044 -2.5000 0.9688
-7.4235 1.2064 -2.5000 0.9688
-7.4660 0.9066 -2.5000 0.9688
-7.4965 0.6052 -2.5000 0.9688
-6.9909 0.0000 -2.5000 0.9707
-6.9852 -0.2815 -2.5000 0.9707
-6.9399 -0.8426 -2.5000 0.9707
-6.8496 -1.3983 -2.5000 0.9707
-6.6311 -2.2138 -2.5000 0.9707
-6.4315 -2.7402 -2.5000 0.9707
-6.3159 -2.9969 -2.5000 0.9707
-6.0543 -3.4954 -2.5000 0.9707
-5.5888 -4.1997 -2.5000 0.9707
-5.4152 -4.4213 -2.5000 0.9707
-4.8428 -5.0418 -2.5000 0.9707
-3.9713 -5.7534 -2.5000 0.9707
-3.7364 -5.9086 -2.5000 0.9707
-3.4954 -6.0543 -2.5000 0.9707
-3.2488 -6.1901 -2.5000 0.9707
-2.9969 -6.3159 -2.5000 0.9707
-2.7402 -6.4314 -2.5000 0.9707
-2.4790 -6.5366 -2.5000 0.9707
-2.2138 -6.6311 -2.5000 0.9707
-1.9450 -6.7148 -2.5000 0.9707
-1.6730 -6.7877 -2.5000 0.9707
-1.1214 -6.9003 -2.5000 0.9707
-0.8427 -6.9399 -2.5000 0.9707
-0.2815 -6.9852 -2.5000 0.9707
0.2815 -6.9852 -2.5000 0.9707
0.8427 -6.9399 -2.5000 0.9707
1.3984 -6.8496 -2.5000 0.9707
1.9450 -6.7148 -2.5000 0.9707
2.2138 -6.6311 -2.5000 0.9707
2.9969 -6.3159 -2.5000 0.9707
3.4954 -6.0543 -2.5000 0.9707
4.1997 -5.5888 -2.5000 0.9707
4.4213 -5.4152 -2.5000 0.9707
4.6358 -5.2327 -2.5000 0.9707
4.8428 -5.0418 -2.5000 0.9707
5.2328 -4.6358 -2.5000 0.9707
5.4152 -4.4213 -2.5000 0.9707
6.0543 -3.4954 -2.5000 0.9707
6.1901 -3.2488 -2.5000 0.9707
6.3159 -2.9969 -2.5000 0.9707
6.4315 -2.7402 -2.5000 0.9707
6.5366 -2.4790 -2.5000 0.9707
6.6311 -2.2138 -2.5000 0.9707
6.8496 -1.3983 -2.5000 0.9707
6.9003 -1.1214 -2.5000 0.9707
6.9399 -0.8427 -2.5000 0.9707
6.9909 0.0000 -2.5000 0.9707
6.9852 0.2815 -2.5000 0.9707
6.9003 1.1214 -2.5000 0.9707
6.8496 1.3984 -2.5000 0.9707
6.6311 2.2138 -2.5000 0.9707
6.5366 2.4790 -2.5000 0.9707
5.9309 2.8142 -2.3476 0.9725
5.8128 3.0508 -2.3476 0.9725
5.5484 3.5086 -2.3476 0.9725
5.4026 3.7292 -2.3476 0.9725
4.5475 4.7345 -2.3476 0.9725
4.3532 4.9137 -2.3476 0.9725
4.1518 5.0851 -2.3476 0.9725
3.7292 5.4026 -2.3476 0.9725
3.5086 5.5484 -2.3476 0.9725
3.2824 5.6852 -2.3476 0.9725
3.0508 5.8128 -2.3476 0.9725
2.8143 5.9309 -2.3476 0.9725
2.5731 6.0394 -2.3476 0.9725
2.3279 6.1381 -2.3476 0.9725
2.0788 6.2269 -2.3476 0.9725
1.8264 6.3055 -2.3476 0.9725
1.3131 6.4320 -2.3476 0.9725
0.2643 6.5594 -2.3476 0.9725
0.0000 6.5647 -2.3476 0.9725
-0.2643 6.5594 -2.3476 0.9725
-1.8264 6.3055 -2.3476 0.9725
-2.5731 6.0394 -2.3476 0.9725
-3.0508 5.8127 -2.3476 0.9725
-3.5086 5.5484 -2.3476 0.9725
-3.7292 5.4026 -2.3476 0.9725
-4.5475 4.7345 -2.3476 0.9725
-5.0850 4.1518 -2.3476 0.9725
-5.5484 3.5086 -2.3476 0.9725
-5.8127 3.0508 -2.3476 0.9725
-6.6311 2.2138 -2.5000 0.9707
-6.7148 1.9450 -2.5000 0.9707
-6.7877 1.6730 -2.5000 0.9707
-6.8496 1.3984 -2.5000 0.9707
-6.9682 0.5625 -2.5000 0.9707
-6.9852 0.2815 -2.5000 0.9707
-3.5504 0.0000 -1.3606 0.9849
-3.5588 -0.1434 -1.3649 0.9849
-3.5921 -0.4362 -1.3867 0.9846
-6.3341 -1.5612 -2.5000 0.9724
-6.2661 -1.8150 -2.5000 0.9724
-6.0997 -2.3133 -2.5000 0.9724
-6.0016 -2.5571 -2.5000 0.9724
-5.8938 -2.7966 -2.5000 0.9724
-5.6497 -3.2618 -2.5000 0.9724
-5.5137 -3.4867 -2.5000 0.9724
-3.7059 -5.3689 -2.5000 0.9724
-3.4867 -5.5137 -2.5000 0.9724
-2.5571 -6.0016 -2.5000 0.9724
-1.8150 -6.2661 -2.5000 0.9724
-1.3049 -6.3918 -2.5000 0.9724
-0.5249 -6.5025 -2.5000 0.9724
0.0000 -6.5237 -2.5000 0.9724
0.5249 -6.5025 -2.5000 0.9724
1.3049 -6.3918 -2.5000 0.9724
2.3133 -6.0997 -2.5000 0.9724
2.5571 -6.0016 -2.5000 0.9724
2.7967 -5.8938 -2.5000 0.9724
3.4867 -5.5137 -2.5000 0.9724
4.3260 -4.8830 -2.5000 0.9724
4.8830 -4.3260 -2.5000 0.9724
5.0533 -4.1259 -2.5000 0.9724
5.3689 -3.7059 -2.5000 0.9724
5.8938 -2.7966 -2.5000 0.9724
6.0016 -2.5571 -2.5000 0.9724
6.1879 -2.0658 -2.5000 0.9724
6.4392 -1.0465 -2.5000 0.9724
6.4761 -0.7863 -2.5000 0.9724
6.5025 -0.5249 -2.5000 0.9724
6.5184 -0.2627 -2.5000 0.9724
6.5237 0.0000 -2.5000 0.9724
6.5025 0.5250 -2.5000 0.9724
6.4761 0.7863 -2.5000 0.9724
6.3341 1.5612 -2.5000 0.9724
6.1879 2.0658 -2.5000 0.9724
6.0997 2.3133 -2.5000 0.9724
5.7119 2.7103 -2.4228 0.9733
5.3053 3.0630 -2.3476 0.9741
5.1776 3.2741 -2.3476 0.9741
4.8974 3.6801 -2.3476 0.9741
4.2436 4.4181 -2.3476 0.9741
3.6801 4.8974 -2.3476 0.9741
3.2741 5.1776 -2.3476 0.9741
3.0630 5.3053 -2.3476 0.9741
2.8469 5.4243 -2.3476 0.9741
2.1723 5.7279 -2.3476 0.9741
1.7044 5.8841 -2.3476 0.9741
0.9827 6.0467 -2.3476 0.9741
0.2467 6.1210 -2.3476 0.9741
0.0000 6.1260 -2.3476 0.9741
-0.4929 6.1061 -2.3476 0.9741
-1.2254 6.0022 -2.3476 0.9741
-1.7043 5.8841 -2.3476 0.9741
-1.9399 5.8107 -2.3476 0.9741
-2.8469 5.4243 -2.3476 0.9741
-3.0630 5.3052 -2.3476 0.9741
-3.2741 5.1776 -2.3476 0.9741
-3.4799 5.0416 -2.3476 0.9741
-3.8743 4.7452 -2.3476 0.9741
-4.0623 4.5854 -2.3476 0.9741
-4.2436 4.4181 -2.3476 0.9741
-4.4180 4.2436 -2.3476 0.9741
-4.7452 3.8744 -2.3476 0.9741
-4.8974 3.6801 -2.3476 0.9741
-5.0416 3.4800 -2.3476 0.9741
-5.1776 3.2741 -2.3476 0.9741
-5.3052 3.0630 -2.3476 0.9741
-5.4243 2.8469 -2.3476 0.9741
-5.7037 2.7064 -2.4193 0.9733
-6.1879 2.0658 -2.5000 0.9724
-6.3918 1.3049 -2.5000 0.9724
-6.4392 1.0465 -2.5000 0.9724
-3.5921 0.4362 -1.3867 0.9846
-3.5687 0.2881 -1.3720 0.9848
-3.5588 0.1434 -1.3649 0.9849
-2.8160 0.0000 -1.1525 0.9879
-2.8203 -0.1136 -1.1552 0.9879
-2.8096 -0.2268 -1.1536 0.9879
-2.9322 -0.3560 -1.2089 0.9873
-3.0246 -0.4915 -1.2541 0.9868
-5.9308 -1.4618 -2.5000 0.9739
-5.8671 -1.6994 -2.5000 0.9739
-5.6195 -2.3942 -2.5000 0.9739
-5.5186 -2.6186 -2.5000 0.9739
-5.2900 -3.0542 -2.5000 0.9739
-5.0270 -3.4699 -2.5000 0.9739
-4.8833 -3.6695 -2.5000 0.9739
-4.5721 -4.0506 -2.5000 0.9739
-4.4053 -4.2314 -2.5000 0.9739
-3.8632 -4.7315 -2.5000 0.9739
-3.4699 -5.0271 -2.5000 0.9739
-3.2647 -5.1627 -2.5000 0.9739
-2.8387 -5.4087 -2.5000 0.9739
-2.3943 -5.6195 -2.5000 0.9739
-2.1660 -5.7114 -2.5000 0.9739
-1.6994 -5.8672 -2.5000 0.9739
-1.4618 -5.9308 -2.5000 0.9739
-1.2218 -5.9849 -2.5000 0.9739
-0.7363 -6.0638 -2.5000 0.9739
-0.4915 -6.0885 -2.5000 0.9739
0.4915 -6.0885 -2.5000 0.9739
0.7363 -6.0638 -2.5000 0.9739
0.9799 -6.0292 -2.5000 0.9739
1.2218 -5.9849 -2.5000 0.9739
3.2647 -5.1627 -2.5000 0.9739
3.4699 -5.0271 -2.5000 0.9739
4.2314 -4.4053 -2.5000 0.9739
4.4054 -4.2314 -2.5000 0.9739
4.5722 -4.0506 -2.5000 0.9739
5.4087 -2.8387 -2.5000 0.9739
5.5186 -2.6186 -2.5000 0.9739
5.6196 -2.3943 -2.5000 0.9739
5.7114 -2.1660 -2.5000 0.9739
5.7940 -1.9343 -2.5000 0.9739
6.0638 -0.7363 -2.5000 0.9739
6.1033 -0.2460 -2.5000 0.9739
6.0292 0.9798 -2.5000 0.9739
5.9849 1.2218 -2.5000 0.9739
5.9308 1.4618 -2.5000 0.9739
5.8672 1.6994 -2.5000 0.9739
5.7940 1.9343 -2.5000 0.9739
5.7114 2.1660 -2.5000 0.9739
5.6195 2.3943 -2.5000 0.9739
5.1746 2.7159 -2.3918 0.9751
4.5856 3.4458 -2.3476 0.9755
4.4431 3.6277 -2.3476 0.9755
4.1368 3.9734 -2.3476 0.9755
3.9735 4.1368 -2.3476 0.9755
3.8037 4.2934 -2.3476 0.9755
3.6277 4.4431 -2.3476 0.9755
3.2584 4.7206 -2.3476 0.9755
2.6656 5.0790 -2.3476 0.9755
2.0340 5.3632 -2.3476 0.9755
1.5959 5.5095 -2.3476 0.9755
1.1474 5.6200 -2.3476 0.9755
0.9201 5.6617 -2.3476 0.9755
0.4616 5.7174 -2.3476 0.9755
-0.2310 5.7313 -2.3476 0.9755
-0.4616 5.7174 -2.3476 0.9755
-0.6914 5.6942 -2.3476 0.9755
-0.9201 5.6617 -2.3476 0.9755
-1.3727 5.5693 -2.3476 0.9755
-1.8164 5.4408 -2.3476 0.9755
-2.0340 5.3632 -2.3476 0.9755
-2.6656 5.0790 -2.3476 0.9755
-3.0657 4.8480 -2.3476 0.9755
-3.2584 4.7206 -2.3476 0.9755
-2.5687 3.4183 -1.7500 0.9817
-3.8036 4.2934 -2.3476 0.9755
-3.9734 4.1368 -2.3476 0.9755
-4.4431 3.6277 -2.3476 0.9755
-4.5856 3.4458 -2.3476 0.9755
-4.7206 3.2584 -2.3476 0.9755
-4.8480 3.0657 -2.3476 0.9755
-5.5186 2.6186 -2.5000 0.9739
-5.8672 1.6994 -2.5000 0.9739
-5.9308 1.4618 -2.5000 0.9739
-3.0070 0.6139 -1.2561 0.9868
-2.8096 0.2268 -1.1536 0.9879
-2.8203 0.1137 -1.1552 0.9879
-2.3650 0.0000 -1.0307 0.9897
-2.3670 -0.0954 -1.0324 0.9897
-2.3794 -0.2889 -1.0446 0.9896
-2.4021 -0.3904 -1.0606 0.9894
-5.5098 -1.5959 -2.5000 0.9753
-5.3636 -2.0341 -2.5000 0.9753
-5.2773 -2.2484 -2.5000 0.9753
-5.1825 -2.4591 -2.5000 0.9753
-5.0793 -2.6658 -2.5000 0.9753
-4.8483 -3.0659 -2.5000 0.9753
-4.5858 -3.4460 -2.5000 0.9753
-4.4434 -3.6279 -2.5000 0.9753
-4.2937 -3.8039 -2.5000 0.9753
-3.4461 -4.5859 -2.5000 0.9753
-3.2586 -4.7209 -2.5000 0.9753
-3.0659 -4.8483 -2.5000 0.9753
-2.6658 -5.0793 -2.5000 0.9753
-2.4591 -5.1825 -2.5000 0.9753
-2.2484 -5.2773 -2.5000 0.9753
-1.8165 -5.4411 -2.5000 0.9753
-1.3728 -5.5696 -2.5000 0.9753
-1.1474 -5.6204 -2.5000 0.9753
-0.9202 -5.6620 -2.5000 0.9753
-0.4616 -5.7177 -2.5000 0.9753
0.9202 -5.6620 -2.5000 0.9753
1.8165 -5.4411 -2.5000 0.9753
2.0341 -5.3636 -2.5000 0.9753
2.2484 -5.2773 -2.5000 0.9753
2.6658 -5.0792 -2.5000 0.9753
2.8682 -4.9678 -2.5000 0.9753
3.0659 -4.8483 -2.5000 0.9753
3.2586 -4.7209 -2.5000 0.9753
3.4461 -4.5858 -2.5000 0.9753
4.1371 -3.9737 -2.5000 0.9753
4.2937 -3.8039 -2.5000 0.9753
4.5859 -3.4460 -2.5000 0.9753
4.8483 -3.0659 -2.5000 0.9753
5.0793 -2.6658 -2.5000 0.9753
5.2773 -2.2484 -2.5000 0.9753
5.4411 -1.8165 -2.5000 0.9753
5.6204 -1.1474 -2.5000 0.9753
5.6621 -0.9202 -2.5000 0.9753
5.6945 -0.6914 -2.5000 0.9753
5.7177 -0.4616 -2.5000 0.9753
5.7317 -0.2310 -2.5000 0.9753
5.7177 0.4616 -2.5000 0.9753
5.6945 0.6914 -2.5000 0.9753
5.6621 0.9202 -2.5000 0.9753
5.4411 1.8165 -2.5000 0.9753
5.2773 2.2485 -2.5000 0.9753
5.0793 2.6658 -2.5000 0.9753
4.7106 2.7196 -2.3705 0.9765
4.4331 3.0600 -2.3476 0.9768
4.1725 3.4067 -2.3476 0.9768
4.0320 3.5720 -2.3476 0.9768
3.8849 3.7315 -2.3476 0.9768
3.0600 4.4331 -2.3476 0.9768
2.8790 4.5527 -2.3476 0.9768
2.1114 4.9556 -2.3476 0.9768
1.9101 5.0366 -2.3476 0.9768
1.7058 5.1094 -2.3476 0.9768
1.2891 5.2301 -2.3476 0.9768
1.0775 5.2778 -2.3476 0.9768
0.8641 5.3169 -2.3476 0.9768
0.6493 5.3474 -2.3476 0.9768
-0.2169 5.3823 -2.3476 0.9768
-0.4334 5.3692 -2.3476 0.9768
-0.8641 5.3169 -2.3476 0.9768
-1.0775 5.2778 -2.3476 0.9768
-1.2891 5.2301 -2.3476 0.9768
-1.4987 5.1740 -2.3476 0.9768
-1.9101 5.0366 -2.3476 0.9768
-2.1114 4.9556 -2.3476 0.9768
-2.3092 4.8666 -2.3476 0.9768
-2.5033 4.7696 -2.3476 0.9768
-2.6933 4.6650 -2.3476 0.9768
