ply
format ascii 1.0
element vertex 1571
property float32 x
property float32 y
property float32 z
property float32 I
end_header
-28.0544 -37.3336 5.0147 0.8287
-19.6759 -28.5054 3.7194 0.8699
-22.7298 -43.3081 5.2521 0.8214
-11.4368 -26.8431 3.1332 0.8892
-7.5389 -19.8783 2.2829 0.9180
-6.5406 -22.5808 2.5244 0.9098
-4.6595 -18.9041 2.0907 0.9247
-3.0713 -18.8985 2.0560 0.9259
-2.2471 -18.5061 2.0018 0.9277
1.3424 -16.6289 1.7914 0.9351
2.0084 -16.5405 1.7892 0.9352
5.4211 -16.2380 1.8383 0.9334
9.3083 -21.8474 2.5501 0.9089
10.2313 -21.5619 2.5628 0.9085
11.7157 2.8877 1.2957 0.9526
14.0745 8.1259 1.7452 0.9367
8.9351 9.3025 1.3851 0.9494
8.5129 9.6091 1.3785 0.9497
6.6209 8.1091 1.1242 0.9588
6.1284 8.1554 1.0954 0.9598
5.7735 8.3643 1.0914 0.9599
5.0052 9.5367 1.1565 0.9576
5.0267 10.5936 1.2591 0.9539
5.0145 11.7695 1.3738 0.9498
4.9639 13.0887 1.5032 0.9452
4.9639 14.8686 1.6832 0.9389
4.9229 16.9958 1.9001 0.9313
1.8685 23.1461 2.4936 0.9108
-0.0000 23.6303 2.5375 0.9093
-0.8279 10.2550 1.1048 0.9595
-2.3969 8.2749 0.9251 0.9659
-3.1275 8.2466 0.9471 0.9651
-3.8359 9.0032 1.0509 0.9614
-5.0327 9.5891 1.1629 0.9574
-5.5569 9.6247 1.1934 0.9563
-6.0863 9.6247 1.2228 0.9552
-6.6137 9.5816 1.2502 0.9542
-7.2326 9.6247 1.2928 0.9527
-7.8584 9.6247 1.3343 0.9512
-8.5129 9.6091 1.3785 0.9497
-28.8464 18.2414 3.6650 0.8717
-29.1056 15.2758 3.5297 0.8761
-47.9595 5.8233 5.1878 0.8234
-25.2970 -17.4612 2.6021 0.8839
-24.2595 -19.8071 2.6512 0.8819
-30.2037 -26.7582 3.4159 0.8505
-21.3659 -20.5222 2.5079 0.8879
-18.4060 -29.1067 2.9153 0.8709
-22.6795 -43.2120 4.1312 0.8221
-17.9477 -37.8239 3.5441 0.8453
-8.5077 -19.9682 1.8374 0.9166
-7.1786 -21.5025 1.9190 0.9130
-6.4482 -26.1613 2.2809 0.8975
-4.9282 -24.1401 2.0857 0.9058
-1.6508 -20.4489 1.7367 0.9209
-1.4900 -36.9722 3.1323 0.8620
-0.0000 -38.5359 3.2622 0.8567
1.5692 -38.9402 3.2991 0.8552
1.8654 -15.3628 1.3101 0.9398
2.8477 -17.5225 1.5028 0.9312
3.4298 -16.8003 1.4515 0.9335
8.8601 -30.5886 2.6958 0.8800
7.5399 -22.5846 2.0156 0.9088
8.2465 -21.7444 1.9687 0.9109
9.3265 -21.8901 2.0142 0.9089
10.7617 -20.5046 1.9603 0.9112
17.7888 -15.7596 2.0118 0.9090
20.2969 8.6477 1.8676 0.9152
14.1435 8.1657 1.3825 0.9365
13.4188 8.4855 1.3440 0.9383
13.0258 8.9911 1.3399 0.9384
12.8082 9.6248 1.3563 0.9377
11.7311 9.5782 1.2820 0.9410
7.4481 8.4071 0.9507 0.9559
6.7562 8.2749 0.9043 0.9580
5.0267 10.5936 0.9926 0.9540
5.0247 11.7935 1.0852 0.9498
5.0267 15.0569 1.3438 0.9383
9.6163 39.0147 3.4015 0.8510
1.5925 9.7990 0.8404 0.9609
1.2837 10.5727 0.9016 0.9581
-1.1475 9.4507 0.8059 0.9625
-1.4398 8.8594 0.7598 0.9646
-1.7181 8.4157 0.7271 0.9661
-2.0396 8.2750 0.7215 0.9664
-2.7536 8.2481 0.7361 0.9657
-3.1275 8.2466 0.7466 0.9652
-3.8359 9.0032 0.8284 0.9615
-5.0326 9.5888 0.9167 0.9575
-5.5894 9.6811 0.9463 0.9561
-6.1220 9.6811 0.9696 0.9551
-6.6435 9.6247 0.9900 0.9541
-7.2749 9.6811 1.0251 0.9526
-9.1579 8.7962 1.0749 0.9503
-9.5030 8.4189 1.0748 0.9503
-38.2202 26.3816 3.9314 0.8299
-36.3806 23.0057 3.6438 0.8413
-29.4205 16.9860 2.8758 0.8725
-30.9748 13.1971 2.8502 0.8736
-37.8171 7.7204 3.2674 0.8565
-47.9831 5.8262 4.0917 0.8236
-21.5531 -20.7020 1.8532 0.8871
-24.5747 -30.0987 2.4095 0.8558
-20.4945 -27.2733 2.1155 0.8722
-19.1117 -27.6881 2.0862 0.8739
-24.0539 -41.6625 2.9832 0.8246
-9.1304 -21.4297 1.4444 0.9109
-6.4170 -19.2213 1.2566 0.9220
-5.4556 -18.8347 1.2160 0.9244
-4.8803 -23.9051 1.5129 0.9068
-3.2376 -19.9214 1.2515 0.9223
-2.8432 -23.4159 1.4627 0.9098
-1.0258 -25.4535 1.5797 0.9029
2.0877 -17.1935 1.0740 0.9329
2.7640 -17.0079 1.0685 0.9333
3.4031 -16.6696 1.0550 0.9341
4.1531 -16.8498 1.0761 0.9328
4.8913 -16.8867 1.0902 0.9320
8.9316 -20.9632 1.4130 0.9127
9.9757 -21.0233 1.4430 0.9110
11.6493 -20.1772 1.4448 0.9109
17.7889 -15.7596 1.4737 0.9091
14.3268 8.2716 1.0259 0.9359
13.3739 8.4571 0.9812 0.9386
13.0990 9.0416 0.9870 0.9382
11.7911 9.6271 0.9440 0.9408
10.9277 9.6811 0.9053 0.9432
10.0648 9.6674 0.8654 0.9456
9.2988 9.6811 0.8324 0.9476
6.1284 8.1554 0.6326 0.9599
5.7735 8.3643 0.6302 0.9601
5.5085 8.7109 0.6391 0.9595
5.0343 9.5921 0.6718 0.9575
5.0267 10.5936 0.7271 0.9541
5.1319 12.0450 0.8119 0.9489
5.0267 13.2544 0.8790 0.9448
5.1319 15.3719 1.0049 0.9371
7.1103 24.5476 1.5848 0.9026
4.0047 24.6420 1.5481 0.9048
1.1802 9.7197 0.6072 0.9615
0.8510 10.5420 0.6558 0.9585
0.9726 24.1343 1.4978 0.9077
-0.0000 11.2589 0.6982 0.9559
-0.9964 12.3421 0.7678 0.9516
-1.7181 8.4157 0.5326 0.9662
-2.0396 8.2750 0.5285 0.9664
-2.3969 8.2749 0.5342 0.9661
-2.7626 8.2749 0.5410 0.9656
-3.1275 8.2466 0.5469 0.9653
-3.8359 9.0032 0.6068 0.9615
-5.0326 9.5888 0.6715 0.9575
-6.1220 9.6811 0.7103 0.9551
-6.6435 9.6247 0.7252 0.9542
-7.2809 9.6891 0.7516 0.9526
-7.8823 9.6541 0.7728 0.9513
-8.5268 9.6248 0.7974 0.9498
-9.5030 8.4189 0.7873 0.9504
-10.8578 8.1591 0.8422 0.9470
-38.2805 26.4231 2.8844 0.8299
-26.9539 15.5618 1.9300 0.8827
-29.4058 15.4333 2.0594 0.8754
-31.4319 11.9205 2.0846 0.8740
-28.6422 -16.5366 1.3041 0.8760
-27.5427 -17.4170 1.2850 0.8777
-26.6908 -18.4233 1.2788 0.8782
-25.2731 -20.6348 1.2865 0.8776
-23.4319 -20.7588 1.2344 0.8822
-21.5788 -22.4659 1.2283 0.8828
-23.3718 -26.3814 1.3898 0.8684
-24.0633 -29.4722 1.5003 0.8587
-19.8454 -26.4094 1.3026 0.8761
-18.7822 -27.2106 1.3037 0.8760
-24.5867 -42.5853 1.9390 0.8213
-22.1620 -42.2262 1.8804 0.8262
-12.8564 -27.0943 1.1825 0.8869
-11.3600 -26.6629 1.1428 0.8905
-8.0897 -21.3307 0.8995 0.9127
-5.7813 -23.4557 0.9526 0.9078
-4.9490 -24.2420 0.9756 0.9057
-1.8540 -22.9657 0.9085 0.9119
-1.0300 -25.5578 1.0086 0.9027
0.8046 -19.9652 0.7879 0.9231
3.0781 -15.0774 0.6068 0.9403
5.3389 -15.9920 0.6648 0.9347
8.6148 -20.2197 0.8666 0.9158
17.7889 -15.7596 0.9371 0.9092
13.3739 8.4572 0.6239 0.9386
12.8082 9.6248 0.6317 0.9379
11.7917 9.6276 0.6003 0.9409
10.9277 9.6811 0.5757 0.9432
9.2988 9.6811 0.5293 0.9477
6.7343 8.2480 0.4199 0.9583
6.1284 8.1554 0.4022 0.9600
5.4857 8.6750 0.4047 0.9597
5.2174 9.0369 0.4115 0.9591
5.0343 9.5921 0.4272 0.9576
5.0267 10.5936 0.4624 0.9541
5.1319 12.0450 0.5163 0.9489
5.0267 13.2544 0.5590 0.9448
5.1319 15.3719 0.6390 0.9372
6.4784 26.2838 1.0674 0.8973
4.2617 26.2231 1.0476 0.8991
0.4176 10.3618 0.4089 0.9593
0.0000 10.8745 0.4288 0.9574
-1.5958 39.5982 1.5627 0.8533
-1.1176 13.8434 0.5476 0.9459
-1.1475 9.4506 0.3754 0.9626
-1.4493 8.9175 0.3562 0.9645
-1.7181 8.4157 0.3387 0.9662
-2.3969 8.2749 0.3397 0.9661
-2.7626 8.2749 0.3440 0.9657
-3.1275 8.2466 0.3478 0.9653
-3.7971 8.9120 0.3820 0.9620
-5.0326 9.5887 0.4270 0.9576
-7.2749 9.6811 0.4775 0.9527
-7.8829 9.6547 0.4915 0.9513
-9.9986 8.1635 0.5090 0.9496
-10.8578 8.1591 0.5355 0.9471
-38.2053 26.3713 1.8305 0.8304
-28.8684 15.1513 1.2856 0.8776
-30.7403 13.0972 1.3176 0.8748
-40.4838 13.5155 1.6829 0.8429
-37.5708 7.6701 1.5120 0.8577
-38.7703 6.3008 1.5488 0.8545
-27.4608 -17.3652 0.5488 0.8781
-25.5149 -20.8322 0.5564 0.8765
-22.3409 -19.7923 0.5042 0.8874
-23.4862 -26.5104 0.5983 0.8679
-22.8840 -30.4531 0.6435 0.8587
-18.7240 -27.1263 0.5568 0.8765
-10.1295 -16.0185 0.3201 0.9270
-12.5690 -26.4886 0.4953 0.8893
-10.6618 -28.1129 0.5079 0.8867
-5.7638 -19.8989 0.3499 0.9205
-3.9105 -15.8654 0.2760 0.9367
-3.2357 -19.9098 0.3407 0.9225
-2.0000 -24.7747 0.4199 0.9053
-0.7444 -18.4721 0.3123 0.9287
-0.0000 -18.6214 0.3145 0.9282
0.7426 -18.4280 0.3115 0.9289
1.2410 -15.3722 0.2605 0.9402
1.8693 -15.3949 0.2620 0.9398
2.8028 -17.2465 0.2951 0.9325
4.1298 -16.7552 0.2915 0.9333
4.9826 -17.2017 0.3025 0.9309
6.4386 -16.9772 0.3067 0.9299
9.7532 -20.5545 0.3843 0.9130
8.1901 -15.6050 0.2977 0.9319
12.4052 -21.4864 0.4191 0.9055
17.7888 -15.7596 0.4014 0.9093
14.3268 8.2716 0.2794 0.9360
13.3739 8.4572 0.2673 0.9387
10.9277 9.6811 0.2466 0.9433
10.0650 9.6675 0.2358 0.9457
9.2988 9.6811 0.2268 0.9477
7.4481 8.4071 0.1897 0.9561
6.7562 8.2749 0.1804 0.9582
5.7735 8.3643 0.1717 0.9602
5.5085 8.7109 0.1741 0.9596
5.2415 9.0785 0.1771 0.9589
7.3770 25.4683 0.4479 0.8994
5.3799 26.3526 0.4543 0.8980
3.1807 26.1956 0.4457 0.8998
2.0272 25.1114 0.4256 0.9041
0.5021 12.4592 0.2106 0.9513
-0.8288 10.2663 0.1740 0.9596
-1.4493 8.9175 0.1526 0.9645
-1.7181 8.4157 0.1451 0.9662
-2.7626 8.2749 0.1474 0.9657
-3.1275 8.2466 0.1490 0.9653
-5.0326 9.5887 0.1829 0.9576
-6.6435 9.6247 0.1975 0.9543
-7.2749 9.6811 0.2046 0.9527
-7.8834 9.6554 0.2106 0.9514
-8.5268 9.6248 0.2172 0.9499
-8.9923 9.3620 0.2193 0.9494
-9.9986 8.1635 0.2180 0.9497
-10.8578 8.1591 0.2294 0.9471
-37.3105 21.5412 0.7277 0.8417
-37.9248 19.9044 0.7235 0.8425
-40.5194 13.5274 0.7216 0.8429
-45.0192 7.3163 0.7704 0.8332
-40.2649 4.8890 0.6851 0.8502
-39.5708 -16.8595 -0.2422 0.8419
-43.9273 -23.0549 -0.2793 0.8200
-25.8237 -17.8249 -0.1767 0.8820
-22.5802 -20.0043 -0.1698 0.8863
-20.2106 -21.0414 -0.1643 0.8898
-23.7250 -26.7800 -0.2014 0.8667
-17.1224 -24.8061 -0.1697 0.8864
-10.0983 -15.9692 -0.1064 0.9272
-10.8055 -25.3614 -0.1552 0.8956
-10.1318 -26.7154 -0.1609 0.8920
-7.4859 -22.4231 -0.1331 0.9098
-6.7921 -23.4491 -0.1374 0.9070
-3.9001 -15.8233 -0.0918 0.9369
-4.8053 -23.5378 -0.1353 0.9084
-3.1175 -25.6747 -0.1456 0.9017
-3.0776 -38.1217 -0.2153 0.8581
-0.0000 -21.0103 -0.1183 0.9194
1.4092 -17.4555 -0.0986 0.9323
2.7745 -17.0724 -0.0974 0.9332
3.4213 -16.7584 -0.0963 0.9339
4.1352 -16.7770 -0.0973 0.9332
5.1475 -17.7713 -0.1042 0.9287
19.1519 -25.4866 -0.1795 0.8803
17.7888 -15.7596 -0.1338 0.9093
14.3268 8.2716 -0.0931 0.9360
13.3739 8.4571 -0.0891 0.9387
13.0990 9.0416 -0.0896 0.9383
12.8082 9.6248 -0.0902 0.9379
11.7929 9.6286 -0.0857 0.9409
9.2988 9.6811 -0.0756 0.9477
6.7562 8.2749 -0.0601 0.9582
5.7735 8.3643 -0.0572 0.9602
5.5085 8.7109 -0.0580 0.9596
4.1126 9.6526 -0.0591 0.9589
3.6607 9.6526 -0.0581 0.9595
3.2225 9.6526 -0.0573 0.9601
2.7959 9.6526 -0.0566 0.9606
2.3791 9.6526 -0.0560 0.9610
1.9706 9.6526 -0.0555 0.9614
1.1720 9.6526 -0.0547 0.9619
0.3890 9.6526 -0.0544 0.9621
-0.0000 9.6526 -0.0543 0.9621
-0.7726 9.5708 -0.0541 0.9623
-1.1475 9.4506 -0.0536 0.9626
-1.4493 8.9175 -0.0509 0.9645
-2.0396 8.2750 -0.0480 0.9665
-2.3969 8.2749 -0.0485 0.9661
-2.7626 8.2749 -0.0491 0.9657
-3.1275 8.2466 -0.0497 0.9653
-3.8359 9.0031 -0.0551 0.9616
-4.5670 9.6248 -0.0600 0.9583
-5.0325 9.5887 -0.0610 0.9576
-5.5894 9.6811 -0.0629 0.9563
-6.6435 9.6247 -0.0658 0.9543
-7.2749 9.6811 -0.0682 0.9527
-7.8840 9.6561 -0.0702 0.9514
-8.5268 9.6248 -0.0724 0.9499
-9.5030 8.4189 -0.0715 0.9505
-9.9986 8.1635 -0.0727 0.9497
-10.8578 8.1591 -0.0765 0.9471
-38.2964 26.4341 -0.2620 0.8302
-36.5046 23.0841 -0.2432 0.8413
-37.3105 21.5412 -0.2426 0.8417
-36.1630 12.0730 -0.2146 0.8586
-36.2447 8.9336 -0.2102 0.8613
-36.2447 7.3995 -0.2083 0.8625
-39.0850 -16.6526 -1.1963 0.8437
-34.8910 -16.5560 -1.0874 0.8568
-42.2777 -24.4091 -1.3746 0.8225
-27.9803 -17.6937 -0.9322 0.8759
-24.1356 -19.7061 -0.8774 0.8828
-22.1776 -21.3018 -0.8659 0.8842
-15.5062 -22.4646 -0.7686 0.8965
-12.9920 -22.5028 -0.7316 0.9012
-11.2074 -26.3046 -0.8051 0.8919
-7.2483 -25.0240 -0.7336 0.9010
-3.8898 -15.7814 -0.4577 0.9370
-5.1103 -25.0320 -0.7194 0.9028
-0.8017 -19.8933 -0.5606 0.9234
0.0000 -19.1991 -0.5406 0.9261
0.7474 -18.5476 -0.5227 0.9284
2.7547 -22.6868 -0.6435 0.9126
2.6186 -16.1128 -0.4597 0.9368
3.1033 -15.2011 -0.4369 0.9398
6.5691 -26.6515 -0.7729 0.8960
6.9918 -24.1384 -0.7076 0.9043
5.7859 -17.3308 -0.5145 0.9295
7.5728 -17.7740 -0.5440 0.9256
8.1305 -15.4913 -0.4926 0.9324
12.2731 -21.2576 -0.6912 0.9064
17.7889 -15.7596 -0.6692 0.9093
12.9828 8.9614 -0.4442 0.9388
10.2221 9.0560 -0.3845 0.9468
10.0651 9.6676 -0.3929 0.9457
7.4480 8.4071 -0.3162 0.9561
6.6209 8.1091 -0.2948 0.9590
4.1126 9.6526 -0.2954 0.9589
3.6607 9.6526 -0.2907 0.9595
3.2225 9.6526 -0.2865 0.9601
2.7959 9.6526 -0.2830 0.9606
1.9706 9.6526 -0.2774 0.9613
1.5687 9.6526 -0.2754 0.9616
0.7792 9.6526 -0.2727 0.9620
-0.0000 9.6526 -0.2718 0.9621
-1.1475 9.4506 -0.2681 0.9626
-1.7181 8.4157 -0.2418 0.9662
-2.0396 8.2750 -0.2400 0.9665
-2.3969 8.2749 -0.2426 0.9661
-3.1275 8.2466 -0.2483 0.9653
-3.7314 8.7577 -0.2680 0.9626
-4.5670 9.6248 -0.3000 0.9583
-6.1220 9.6811 -0.3225 0.9552
-6.5300 8.6898 -0.3061 0.9574
-7.8846 9.6568 -0.3510 0.9513
-8.9923 9.3620 -0.3655 0.9494
-9.9986 8.1636 -0.3635 0.9497
-38.2964 26.4342 -1.3103 0.8301
-37.2483 21.5053 -1.2111 0.8419
-35.9328 18.8590 -1.1427 0.8501
-36.3652 17.2555 -1.1334 0.8512
-36.1630 12.0730 -1.0735 0.8585
-36.2447 10.4984 -1.0625 0.8598
-36.2447 8.9336 -1.0511 0.8612
-36.2447 7.3995 -1.0416 0.8624
-37.5261 6.0986 -1.0705 0.8589
-49.2555 -1.9849 -2.5000 0.8208
-49.1356 -3.9666 -2.5000 0.8208
-48.9361 -5.9419 -2.5000 0.8208
-47.8630 -11.7972 -2.5000 0.8208
-45.6494 -13.2225 -2.4102 0.8267
-43.9220 -14.6633 -2.3483 0.8307
-34.8910 -16.5559 -1.9586 0.8567
-31.6087 -16.5895 -1.8104 0.8668
-25.8519 -16.3478 -1.5512 0.8847
-23.8241 -16.4446 -1.4681 0.8905
-18.2553 -16.1728 -1.2369 0.9069
-14.1765 -16.0020 -1.0842 0.9179
-27.6048 -36.7353 -2.3304 0.8319
-10.0674 -15.9203 -0.9553 0.9273
-11.8595 -22.5963 -1.2942 0.9028
-11.2975 -23.8091 -1.3365 0.8998
-7.4820 -22.4112 -1.1982 0.9097
-3.6843 -45.6384 -2.3220 0.8324
-1.8437 -45.7491 -2.3220 0.8325
-0.0000 -45.7871 -2.3221 0.8324
3.8141 -18.6825 -0.9670 0.9265
14.5213 -43.4967 -2.3256 0.8322
9.0838 -15.7337 -0.9214 0.9298
9.7702 -15.4503 -0.9271 0.9294
12.6239 -15.4615 -1.0123 0.9232
13.6762 -15.4372 -1.0459 0.9207
17.7889 -15.7596 -1.2053 0.9092
37.5722 -30.6767 -2.4599 0.8234
37.5834 -28.2421 -2.3842 0.8284
38.0986 -26.2975 -2.3477 0.8308
40.0897 -23.1458 -2.3476 0.8308
41.8217 -19.8447 -2.3476 0.8308
43.2794 -16.4137 -2.3474 0.8308
45.5277 -13.1873 -2.4038 0.8271
47.8630 -11.7972 -2.5000 0.8208
48.2992 -9.8604 -2.5000 0.8208
48.6571 -7.9076 -2.5000 0.8208
48.9360 -5.9419 -2.5000 0.8208
49.1356 -3.9666 -2.5000 0.8208
49.2955 0.0000 -2.5000 0.8208
46.1403 3.7248 -2.3476 0.8308
45.7007 7.4271 -2.3481 0.8307
43.9632 14.6771 -2.3505 0.8306
43.3475 16.4395 -2.3511 0.8305
42.6610 18.1762 -2.3517 0.8305
14.0897 8.1347 -0.8251 0.9369
11.9838 8.2718 -0.7385 0.9433
10.0651 9.6677 -0.7078 0.9456
8.7025 9.0602 -0.6371 0.9509
6.6209 8.1091 -0.5309 0.9589
6.1284 8.1554 -0.5174 0.9600
5.4236 8.5767 -0.5146 0.9602
5.1623 8.9414 -0.5236 0.9595
5.0343 9.5921 -0.5494 0.9575
4.5414 9.5708 -0.5372 0.9585
4.1126 9.6526 -0.5321 0.9588
2.7959 9.6526 -0.5096 0.9606
2.3791 9.6526 -0.5042 0.9610
1.9706 9.6526 -0.4996 0.9613
0.3890 9.6526 -0.4899 0.9620
-0.3890 9.6526 -0.4899 0.9620
-1.1476 9.4507 -0.4828 0.9626
-1.4107 8.6805 -0.4460 0.9654
-1.7016 8.3348 -0.4314 0.9665
-2.0150 8.1751 -0.4270 0.9668
-2.3424 8.0869 -0.4270 0.9668
-2.6897 8.0567 -0.4308 0.9666
-3.6139 8.4821 -0.4676 0.9637
-5.0175 8.6905 -0.5089 0.9606
-6.1220 9.6811 -0.5809 0.9552
-6.3982 8.5145 -0.5401 0.9582
-8.9923 9.3620 -0.6583 0.9493
-10.8578 8.1591 -0.6888 0.9471
-36.3346 22.9766 -2.1802 0.8418
-36.3650 17.2554 -2.0413 0.8511
-36.1630 12.0730 -1.9335 0.8584
-36.2447 10.4984 -1.9137 0.8597
-36.2447 8.9336 -1.8931 0.8611
-37.5261 6.0986 -1.9281 0.8588
-45.9785 5.5828 -2.3489 0.8307
-46.1431 3.7250 -2.3477 0.8308
-49.2555 1.9849 -2.5000 0.8208
-34.0959 -0.0000 -2.5000 0.8722
-33.8473 -4.1098 -2.5000 0.8722
-33.6544 -5.4694 -2.5000 0.8722
-32.7497 -9.4861 -2.5000 0.8722
-31.8802 -12.0906 -2.5000 0.8722
-30.9946 -13.2055 -2.4703 0.8736
-28.9264 -13.7257 -2.3476 0.8795
-28.3510 -14.8797 -2.3477 0.8795
-27.7384 -16.0148 -2.3485 0.8794
-23.6089 -16.2961 -2.1034 0.8913
-21.6254 -16.2504 -1.9834 0.8972
-19.8531 -16.2096 -1.8793 0.9023
-21.2010 -23.9310 -2.3442 0.8797
-12.0455 -16.0297 -1.4702 0.9227
-15.2156 -22.0436 -1.9639 0.8981
-10.0782 -15.9374 -1.3826 0.9272
-11.1265 -23.4487 -1.9030 0.9011
-6.7779 -15.9084 -1.2679 0.9330
-6.0267 -15.8911 -1.2461 0.9341
-5.2996 -15.8743 -1.2271 0.9351
-4.5934 -15.8581 -1.2105 0.9359
-3.2311 -15.8267 -1.1844 0.9373
-2.5696 -15.8115 -1.1745 0.9378
-1.9180 -15.7965 -1.1667 0.9382
-0.0000 -15.7523 -1.1550 0.9388
0.6342 -15.7377 -1.1549 0.9388
1.2693 -15.7230 -1.1566 0.9387
1.9073 -15.7083 -1.1602 0.9385
2.5504 -15.6935 -1.1658 0.9382
6.5143 -26.4293 -1.9958 0.8966
10.1016 -30.2580 -2.3390 0.8799
11.3142 -29.8331 -2.3395 0.8799
8.1221 -15.4755 -1.2815 0.9323
9.8181 -15.5261 -1.3469 0.9290
18.1705 -26.3245 -2.3453 0.8796
11.6356 -15.4843 -1.4202 0.9253
14.8254 -15.4349 -1.5692 0.9177
24.5902 -23.6192 -2.5000 0.8722
17.7889 -15.7596 -1.7426 0.9091
28.8177 -18.2232 -2.5000 0.8722
29.5281 -17.0481 -2.5000 0.8722
31.3676 -13.3645 -2.5000 0.8722
31.8803 -12.0906 -2.5000 0.8722
32.3413 -10.7971 -2.5000 0.8722
33.4069 -6.8201 -2.5000 0.8722
33.6544 -5.4694 -2.5000 0.8722
33.8474 -4.1098 -2.5000 0.8722
34.0682 1.3729 -2.5000 0.8722
33.9853 2.7436 -2.5000 0.8722
33.4070 6.8201 -2.5000 0.8722
32.3414 10.7971 -2.5000 0.8722
30.8041 14.6167 -2.5000 0.8722
30.1906 15.8453 -2.5000 0.8722
14.0897 8.1347 -1.1929 0.9368
13.3739 8.4571 -1.1602 0.9385
10.2211 8.3453 -0.9675 0.9485
8.7026 9.0604 -0.9211 0.9509
7.4480 8.4071 -0.8236 0.9560
6.7562 8.2749 -0.7833 0.9581
6.1284 8.1554 -0.7480 0.9599
4.2796 9.0190 -0.7320 0.9608
3.8574 9.0537 -0.7216 0.9613
3.4453 9.0844 -0.7124 0.9618
3.0995 9.2841 -0.7177 0.9615
1.9706 9.6526 -0.7223 0.9613
1.5687 9.6526 -0.7170 0.9615
1.1720 9.6526 -0.7129 0.9618
0.7278 9.0151 -0.6632 0.9644
-0.3635 9.0195 -0.6619 0.9644
-1.1475 9.4508 -0.6980 0.9625
-1.7181 8.4157 -0.6298 0.9661
-2.0396 8.2750 -0.6249 0.9664
-3.1275 8.2466 -0.6467 0.9652
-4.7932 9.1326 -0.7562 0.9595
-4.7974 8.3093 -0.7035 0.9622
-6.1220 9.6811 -0.8399 0.9551
-6.6131 8.0996 -0.7667 0.9589
-9.5419 8.4533 -0.9347 0.9502
-10.0524 8.2075 -0.9515 0.9493
-27.6272 19.0697 -2.4614 0.8740
-29.7244 15.6008 -2.4614 0.8740
-29.8781 9.9748 -2.3096 0.8813
-31.3887 5.1011 -2.3317 0.8803
-31.7701 3.8576 -2.3466 0.8795
-33.7393 2.7237 -2.4819 0.8731
-26.0190 -1.0485 -2.5000 0.9006
-25.9557 -2.0954 -2.5000 0.9006
-25.7030 -4.1771 -2.5000 0.9006
-25.0121 -7.2448 -2.5000 0.9006
-24.7000 -8.2461 -2.5000 0.9006
-24.3480 -9.2340 -2.5000 0.9006
-23.5260 -11.1632 -2.5000 0.9006
-22.5515 -13.0201 -2.5000 0.9006
-20.1242 -13.8908 -2.3476 0.9064
-18.3088 -16.2202 -2.3483 0.9064
-17.6442 -16.9476 -2.3488 0.9064
-16.9562 -17.6533 -2.3500 0.9063
-14.2460 -16.0804 -2.0625 0.9173
-12.0455 -16.0297 -1.9250 0.9226
-13.8966 -20.1326 -2.3486 0.9064
-10.0782 -15.9374 -1.8103 0.9270
-9.2172 -15.9646 -1.7698 0.9286
-10.4786 -22.0832 -2.3467 0.9064
-6.0267 -15.8911 -1.6317 0.9340
-5.2996 -15.8743 -1.6067 0.9350
-4.5934 -15.8581 -1.5850 0.9358
-2.5696 -15.8115 -1.5379 0.9377
-1.2740 -15.7816 -1.5200 0.9384
-0.0000 -15.7523 -1.5123 0.9387
0.6342 -15.7377 -1.5121 0.9387
1.9653 -24.3449 -2.3448 0.9065
3.9185 -24.1113 -2.3452 0.9065
6.7985 -23.4712 -2.3460 0.9065
8.6678 -22.8553 -2.3467 0.9064
7.3963 -15.5875 -1.6564 0.9330
8.1221 -15.4755 -1.6779 0.9322
8.9752 -15.5455 -1.7233 0.9304
9.8181 -15.5261 -1.7636 0.9288
10.7028 -15.5057 -1.8088 0.9271
11.6356 -15.4843 -1.8595 0.9251
12.6239 -15.4615 -1.9163 0.9229
16.2446 -18.3363 -2.3518 0.9063
16.9637 -17.6611 -2.3510 0.9063
19.5486 -14.6898 -2.3476 0.9064
23.5260 -11.1632 -2.5000 0.9006
23.9564 -10.2069 -2.5000 0.9006
24.3480 -9.2340 -2.5000 0.9006
24.7001 -8.2461 -2.5000 0.9006
25.0121 -7.2449 -2.5000 0.9006
25.2835 -6.2318 -2.5000 0.9006
25.5139 -5.2087 -2.5000 0.9006
25.8503 -3.1388 -2.5000 0.9006
25.9557 -2.0954 -2.5000 0.9006
26.0190 -1.0485 -2.5000 0.9006
26.0402 0.0000 -2.5000 0.9006
25.9557 2.0954 -2.5000 0.9006
25.7029 4.1771 -2.5000 0.9006
25.5140 5.2087 -2.5000 0.9006
25.2836 6.2319 -2.5000 0.9006
25.0121 7.2449 -2.5000 0.9006
24.7002 8.2461 -2.5000 0.9006
20.2062 8.6091 -2.1086 0.9155
23.5261 11.1633 -2.5000 0.9006
23.0575 12.1015 -2.5000 0.9006
12.0074 7.5930 -1.3639 0.9445
10.2212 8.3453 -1.2668 0.9484
8.7027 9.0605 -1.2061 0.9508
8.5259 9.6237 -1.2344 0.9496
6.6701 8.1694 -1.0125 0.9585
5.7735 8.3643 -0.9757 0.9600
5.1932 8.9949 -0.9971 0.9591
4.0240 8.4805 -0.9012 0.9630
3.6219 8.5009 -0.8871 0.9635
3.0453 9.1219 -0.9233 0.9621
2.7959 9.6526 -0.9648 0.9604
1.9706 9.6526 -0.9458 0.9612
1.1720 9.6526 -0.9335 0.9617
0.6859 8.4967 -0.8184 0.9663
-0.3426 8.5017 -0.8169 0.9664
-1.4107 8.6805 -0.8443 0.9653
-1.7181 8.4157 -0.8246 0.9661
-2.3560 8.1337 -0.8130 0.9665
-3.1275 8.2466 -0.8467 0.9652
-4.5665 9.6236 -1.0227 0.9581
-4.7933 9.1328 -0.9902 0.9594
-7.9101 8.9287 -1.1452 0.9532
-8.0374 8.3678 -1.1139 0.9544
-8.2109 7.8866 -1.0930 0.9553
-22.7015 11.9147 -2.4614 0.9021
-23.5866 10.0493 -2.4614 0.9021
-24.3188 8.1188 -2.4614 0.9021
-24.6468 7.1390 -2.4635 0.9020
-25.6086 4.1618 -2.4908 0.9010
-21.0291 -0.8475 -2.5000 0.9187
-20.6208 -4.2098 -2.5000 0.9187
-20.4346 -5.0367 -2.5000 0.9187
-19.9630 -6.6646 -2.5000 0.9187
-19.0142 -9.0223 -2.5000 0.9187
-16.1647 -13.1980 -2.4789 0.9194
-14.9202 -13.2181 -2.3678 0.9228
-14.2533 -13.6904 -2.3476 0.9235
-13.1054 -14.7929 -2.3476 0.9235
-12.4991 -15.3087 -2.3476 0.9235
-11.8738 -15.8011 -2.3478 0.9235
-11.2293 -16.2685 -2.3481 0.9235
-10.0508 -15.8941 -2.2338 0.9270
-6.0267 -15.8911 -2.0188 0.9338
-4.5934 -15.8581 -1.9611 0.9357
-3.8931 -15.7949 -1.9324 0.9366
-3.2310 -15.8267 -1.9188 0.9370
-2.5696 -15.8115 -1.9028 0.9375
-1.9180 -15.7965 -1.8902 0.9379
-1.2740 -15.7816 -1.8807 0.9382
-0.0000 -15.7523 -1.8711 0.9385
1.9073 -15.7083 -1.8796 0.9382
2.5504 -15.6935 -1.8886 0.9380
3.2008 -15.6785 -1.9008 0.9376
4.5324 -15.6479 -1.9351 0.9365
5.2187 -15.6321 -1.9576 0.9358
8.1221 -15.4755 -2.0761 0.9320
9.8829 -17.1177 -2.3479 0.9235
11.8726 -15.7996 -2.3476 0.9235
12.4991 -15.3086 -2.3476 0.9235
14.2532 -13.6904 -2.3476 0.9235
16.1493 -13.1855 -2.4765 0.9194
16.8252 -12.6433 -2.5000 0.9187
18.2265 -10.5231 -2.5000 0.9187
18.6354 -9.7806 -2.5000 0.9187
19.0142 -9.0223 -2.5000 0.9187
19.6785 -7.4632 -2.5000 0.9187
19.9630 -6.6647 -2.5000 0.9187
20.2152 -5.8554 -2.5000 0.9187
20.8927 -2.5368 -2.5000 0.9187
20.9779 -1.6935 -2.5000 0.9187
21.0291 -0.8474 -2.5000 0.9187
21.0462 0.0000 -2.5000 0.9187
19.3637 3.9531 -2.3476 0.9235
18.4790 7.0081 -2.3476 0.9235
17.5670 9.2199 -2.3566 0.9232
14.3268 8.2716 -1.9651 0.9355
11.9454 7.5538 -1.6788 0.9447
10.2212 8.3454 -1.5674 0.9482
8.6660 7.6774 -1.3753 0.9544
8.7035 8.3599 -1.4335 0.9526
8.7026 9.0604 -1.4923 0.9507
6.6209 8.1091 -1.2435 0.9587
4.4330 8.4465 -1.1331 0.9623
4.0079 8.4464 -1.1105 0.9630
3.5987 8.4465 -1.0906 0.9637
3.2033 8.4464 -1.0731 0.9643
3.0453 9.1219 -1.1423 0.9620
2.3791 9.6526 -1.1809 0.9607
1.5687 9.6526 -1.1616 0.9614
1.1720 9.6526 -1.1550 0.9616
0.3313 8.2212 -0.9774 0.9674
-0.3313 8.2212 -0.9774 0.9674
-1.1476 9.4507 -1.1309 0.9624
-1.4210 8.7435 -1.0522 0.9649
-2.0396 8.2750 -1.0124 0.9663
-2.7255 8.1638 -1.0224 0.9659
-3.6683 8.6098 -1.1117 0.9630
-4.5666 9.6238 -1.2653 0.9580
-7.7596 8.7588 -1.3900 0.9540
-7.9978 7.6819 -1.3173 0.9563
-10.8578 8.1591 -1.6133 0.9468
-16.0300 11.0647 -2.3137 0.9245
-16.4540 10.4049 -2.3125 0.9246
-19.0632 8.1220 -2.4614 0.9199
-19.6875 6.5726 -2.4655 0.9198
-20.3175 5.0078 -2.4857 0.9192
-20.5765 4.2007 -2.4946 0.9189
-20.7669 3.3749 -2.4992 0.9187
-20.8904 2.5365 -2.4997 0.9187
-20.9779 1.6935 -2.5000 0.9187
-21.0290 0.8475 -2.5000 0.9187
-17.6441 0.0000 -2.5000 0.9312
-17.6298 -0.7105 -2.5000 0.9312
-17.5869 -1.4198 -2.5000 0.9312
-17.5155 -2.1268 -2.5000 0.9312
-17.2876 -3.5293 -2.5000 0.9312
-17.1314 -4.2225 -2.5000 0.9312
-16.9475 -4.9089 -2.5000 0.9312
-16.4976 -6.2567 -2.5000 0.9312
-15.9406 -7.5639 -2.5000 0.9312
-14.5208 -10.0230 -2.5000 0.9312
-14.1055 -10.5996 -2.5000 0.9312
-12.2225 -12.7250 -2.5000 0.9312
-9.9534 -13.2456 -2.3476 0.9353
-9.4120 -13.6356 -2.3476 0.9353
-8.8554 -14.0036 -2.3476 0.9353
-7.6998 -14.6707 -2.3476 0.9353
-7.1028 -14.9688 -2.3476 0.9353
-6.4943 -15.2427 -2.3476 0.9353
-5.8755 -15.4919 -2.3476 0.9353
-5.2467 -15.7159 -2.3476 0.9353
-4.6099 -15.9150 -2.3477 0.9353
-3.3145 -16.2355 -2.3478 0.9352
-2.6581 -16.3563 -2.3479 0.9352
-1.9974 -16.4503 -2.3480 0.9352
-1.3334 -16.5176 -2.3480 0.9352
-0.6673 -16.5579 -2.3480 0.9352
0.0000 -16.5713 -2.3480 0.9352
0.6673 -16.5576 -2.3479 0.9352
2.6580 -16.3551 -2.3477 0.9353
3.3142 -16.2341 -2.3476 0.9353
3.9653 -16.0871 -2.3476 0.9353
5.8753 -15.4919 -2.3476 0.9353
7.1028 -14.9688 -2.3476 0.9353
8.2843 -14.3488 -2.3476 0.9353
8.8553 -14.0035 -2.3476 0.9353
9.4120 -13.6356 -2.3476 0.9353
10.7768 -13.1992 -2.4144 0.9335
11.6798 -13.1838 -2.4956 0.9313
12.2225 -12.7250 -2.5000 0.9312
12.7250 -12.2225 -2.5000 0.9312
13.2068 -11.7002 -2.5000 0.9312
15.2802 -8.8221 -2.5000 0.9312
16.7361 -5.5873 -2.5000 0.9312
16.9475 -4.9089 -2.5000 0.9312
17.1314 -4.2225 -2.5000 0.9312
17.4156 -2.8303 -2.5000 0.9312
17.5155 -2.1268 -2.5000 0.9312
17.6298 -0.7105 -2.5000 0.9312
17.6441 0.0000 -2.5000 0.9312
17.5155 2.1268 -2.5000 0.9312
16.0871 3.9651 -2.3476 0.9353
15.9144 4.6096 -2.3476 0.9353
15.4918 5.8753 -2.3476 0.9353
15.2427 6.4943 -2.3476 0.9353
14.9554 7.0965 -2.3455 0.9353
14.1610 8.1759 -2.3169 0.9361
11.9456 7.5539 -2.0026 0.9445
10.2203 7.6801 -1.8114 0.9497
8.7036 8.3599 -1.7099 0.9524
6.7489 8.2659 -1.5120 0.9578
6.1284 8.1554 -1.4454 0.9596
5.5085 8.7109 -1.4603 0.9592
5.2414 9.0785 -1.4853 0.9585
4.4330 8.4465 -1.3516 0.9622
4.0079 8.4464 -1.3247 0.9629
2.9349 8.7911 -1.3132 0.9632
1.9706 9.6526 -1.3959 0.9610
1.5687 9.6526 -1.3856 0.9613
0.6630 8.2128 -1.1675 0.9673
-0.0000 8.2128 -1.1637 0.9674
-1.4107 8.6805 -1.2461 0.9651
-1.7181 8.4157 -1.2170 0.9659
-2.0396 8.2750 -1.2076 0.9662
-2.3560 8.1337 -1.1998 0.9664
-2.7070 8.1084 -1.2112 0.9661
-3.1275 8.2466 -1.2497 0.9650
-4.7945 8.3042 -1.3586 0.9620
-5.9243 8.5828 -1.4777 0.9587
-6.3121 8.3999 -1.4887 0.9584
-6.3110 7.7295 -1.4139 0.9605
-8.0375 8.3679 -1.6440 0.9542
-8.0365 7.7191 -1.5789 0.9560
-9.9986 8.1636 -1.8289 0.9492
-10.8578 8.1591 -1.9244 0.9466
-13.4447 9.2802 -2.3147 0.9361
-13.8052 8.7299 -2.3143 0.9361
-14.1455 8.1669 -2.3143 0.9361
-14.7579 7.0027 -2.3145 0.9361
-15.4569 5.8620 -2.3423 0.9354
-17.4157 2.8303 -2.5000 0.9312
-17.5155 2.1268 -2.5000 0.9312
-17.5869 1.4198 -2.5000 0.9312
-17.6298 0.7104 -2.5000 0.9312
-15.1631 -0.6110 -2.5000 0.9403
-14.9789 -2.4343 -2.5000 0.9403
-13.9611 -5.9483 -2.5000 0.9403
-13.1423 -7.5877 -2.5000 0.9403
-12.8261 -8.1107 -2.5000 0.9403
-12.4891 -8.6206 -2.5000 0.9403
-11.3590 -10.0632 -2.5000 0.9403
-10.9446 -10.5124 -2.5000 0.9403
-10.0632 -11.3590 -2.5000 0.9403
-9.5976 -11.7550 -2.5000 0.9403
-9.1165 -12.1319 -2.5000 0.9403
-8.1108 -12.8261 -2.5000 0.9403
-5.6303 -13.2146 -2.3663 0.9434
-5.0532 -13.3243 -2.3476 0.9439
-4.5126 -13.5169 -2.3476 0.9439
-3.9647 -13.6877 -2.3476 0.9439
-3.4104 -13.8362 -2.3476 0.9439
-2.8504 -13.9623 -2.3476 0.9439
-2.2859 -14.0658 -2.3476 0.9439
-0.0000 -14.2503 -2.3476 0.9439
1.1467 -14.2041 -2.3476 0.9439
2.2859 -14.0658 -2.3476 0.9439
2.8504 -13.9623 -2.3476 0.9439
3.9647 -13.6877 -2.3476 0.9439
5.0532 -13.3243 -2.3476 0.9439
6.2645 -13.2023 -2.4074 0.9425
6.9244 -13.1933 -2.4546 0.9414
7.5877 -13.1423 -2.5000 0.9403
8.1107 -12.8261 -2.5000 0.9403
8.6206 -12.4891 -2.5000 0.9403
9.5976 -11.7549 -2.5000 0.9403
10.0632 -11.3589 -2.5000 0.9403
10.5124 -10.9445 -2.5000 0.9403
10.9445 -10.5124 -2.5000 0.9403
11.3589 -10.0632 -2.5000 0.9403
13.7102 -6.5056 -2.5000 0.9403
13.9611 -5.9482 -2.5000 0.9403
14.1892 -5.3813 -2.5000 0.9403
14.7344 -3.6317 -2.5000 0.9403
14.9789 -2.4343 -2.5000 0.9403
15.0648 -1.8292 -2.5000 0.9403
15.1262 -1.2211 -2.5000 0.9403
15.1754 0.0000 -2.5000 0.9403
15.1631 0.6110 -2.5000 0.9403
15.0648 1.8292 -2.5000 0.9403
14.9789 2.4343 -2.5000 0.9403
13.9623 2.8504 -2.3476 0.9439
13.6877 3.9647 -2.3476 0.9439
13.5169 4.5126 -2.3476 0.9439
13.3243 5.0532 -2.3476 0.9439
13.1100 5.5856 -2.3476 0.9439
12.3152 7.1102 -2.3427 0.9440
11.8299 7.4808 -2.3058 0.9448
10.1883 7.6560 -2.0995 0.9496
8.7056 7.1079 -1.8515 0.9555
8.7043 7.7114 -1.9157 0.9540
8.7035 8.3599 -1.9881 0.9523
7.4481 8.4071 -1.8503 0.9555
6.7562 8.2749 -1.7599 0.9576
6.1284 8.1554 -1.6806 0.9595
5.7735 8.3643 -1.6743 0.9596
3.2033 8.4464 -1.4882 0.9640
2.2739 7.8504 -1.3464 0.9674
-0.0000 8.2128 -1.3530 0.9673
-0.3310 8.2128 -1.3541 0.9672
-0.6630 8.2128 -1.3574 0.9671
-1.1476 9.4507 -1.5683 0.9621
-1.7181 8.4157 -1.4150 0.9658
-2.7626 8.2749 -1.4372 0.9653
-4.7933 9.1329 -1.6992 0.9590
-4.7571 7.5228 -1.4663 0.9646
-5.7776 8.3703 -1.6755 0.9596
-6.1684 8.2086 -1.6915 0.9592
-7.7026 8.0192 -1.8318 0.9559
-8.0366 7.7193 -1.8358 0.9558
-11.8844 7.5152 -2.3164 0.9446
-12.6180 6.6224 -2.3476 0.9439
-12.8745 6.1090 -2.3476 0.9439
-13.1100 5.5856 -2.3476 0.9439
-13.5170 4.5126 -2.3476 0.9439
-13.9623 2.8504 -2.3476 0.9439
-14.9789 2.4343 -2.5000 0.9403
-15.0648 1.8292 -2.5000 0.9403
-13.3006 0.0000 -2.5000 0.9473
-13.2575 -1.0702 -2.5000 0.9473
-13.2036 -1.6032 -2.5000 0.9473
-12.7755 -3.7005 -2.5000 0.9473
-12.0164 -5.7019 -2.5000 0.9473
-10.6331 -7.9902 -2.5000 0.9473
-10.3027 -8.4119 -2.5000 0.9473
-9.5924 -9.2136 -2.5000 0.9473
-8.4119 -10.3027 -2.5000 0.9473
-7.9902 -10.6330 -2.5000 0.9473
-7.5556 -10.9461 -2.5000 0.9473
-7.1087 -11.2415 -2.5000 0.9473
-5.2131 -12.2362 -2.5000 0.9473
-2.6605 -13.0318 -2.5000 0.9473
-2.1335 -13.1283 -2.5000 0.9473
-1.0649 -13.1904 -2.4873 0.9476
-0.0000 -13.1914 -2.4795 0.9477
0.5316 -13.1909 -2.4814 0.9477
1.6012 -13.1876 -2.4970 0.9474
2.1335 -13.1283 -2.5000 0.9473
2.6604 -13.0318 -2.5000 0.9473
3.1830 -12.9141 -2.5000 0.9473
4.7164 -12.4362 -2.5000 0.9473
5.7018 -12.0164 -2.5000 0.9473
6.6503 -11.5186 -2.5000 0.9473
7.1087 -11.2415 -2.5000 0.9473
8.4119 -10.3027 -2.5000 0.9473
9.2134 -9.5924 -2.5000 0.9473
9.9556 -8.8199 -2.5000 0.9473
10.6330 -7.9902 -2.5000 0.9473
11.2415 -7.1087 -2.5000 0.9473
11.5186 -6.6503 -2.5000 0.9473
11.7771 -6.1811 -2.5000 0.9473
12.0164 -5.7018 -2.5000 0.9473
12.2362 -5.2134 -2.5000 0.9473
12.7754 -3.7004 -2.5000 0.9473
12.9141 -3.1830 -2.5000 0.9473
13.0318 -2.6604 -2.5000 0.9473
13.1283 -2.1336 -2.5000 0.9473
13.2036 -1.6032 -2.5000 0.9473
13.2574 -1.0702 -2.5000 0.9473
13.2897 0.5355 -2.5000 0.9473
13.2574 1.0703 -2.5000 0.9473
13.2036 1.6032 -2.5000 0.9473
13.0317 2.6605 -2.5000 0.9473
12.1268 2.9890 -2.3476 0.9504
11.6781 4.4289 -2.3476 0.9504
10.5562 6.6753 -2.3476 0.9504
10.2625 7.0837 -2.3438 0.9505
9.9534 7.4795 -2.3402 0.9506
8.7060 7.1082 -2.1125 0.9553
8.6356 8.9907 -2.3432 0.9505
7.4481 8.4071 -2.1111 0.9553
6.1284 8.1554 -1.9175 0.9593
5.7735 8.3643 -1.9103 0.9595
4.4330 8.4465 -1.7930 0.9619
4.0079 8.4464 -1.7573 0.9627
2.6364 7.8970 -1.5649 0.9667
2.2853 7.8897 -1.5439 0.9671
0.6630 8.2128 -1.5487 0.9670
-0.6630 8.2128 -1.5487 0.9670
-1.4492 8.9175 -1.6981 0.9639
-2.3969 8.2749 -1.6193 0.9655
-3.1275 8.2466 -1.6578 0.9647
-4.5669 9.6244 -2.0023 0.9576
-4.7945 8.3043 -1.8024 0.9617
-4.7955 7.5834 -1.6865 0.9641
-4.8744 7.0617 -1.6128 0.9657
-6.3113 7.7299 -1.8757 0.9602
-8.0205 7.7038 -2.0903 0.9557
-8.0349 7.1183 -2.0177 0.9573
-9.5562 7.8023 -2.3188 0.9510
-9.8617 7.4106 -2.3186 0.9510
-10.2531 7.0772 -2.3417 0.9506
-10.5562 6.6754 -2.3476 0.9504
-10.8165 6.2449 -2.3476 0.9504
-11.4903 4.8955 -2.3476 0.9504
-11.6781 4.4289 -2.3476 0.9504
-11.9967 3.4748 -2.3476 0.9504
-12.1268 2.9890 -2.3476 0.9504
-13.0318 2.6604 -2.5000 0.9473
-13.1283 2.1335 -2.5000 0.9473
-13.2575 1.0702 -2.5000 0.9473
-13.2898 0.5356 -2.5000 0.9473
-11.8174 -0.4762 -2.5000 0.9528
-11.3600 -3.2905 -2.5000 0.9528
-9.9960 -6.3211 -2.5000 0.9528
-9.4550 -7.1050 -2.5000 0.9528
-8.1928 -8.5296 -2.5000 0.9528
-7.4799 -9.1612 -2.5000 0.9528
-7.1050 -9.4550 -2.5000 0.9528
-6.7185 -9.7334 -2.5000 0.9528
-5.0701 -10.6851 -2.5000 0.9528
-4.1938 -11.0584 -2.5000 0.9528
-3.7452 -11.2183 -2.5000 0.9528
-3.2905 -11.3600 -2.5000 0.9528
-2.8304 -11.4833 -2.5000 0.9528
-2.3657 -11.5880 -2.5000 0.9528
-1.4256 -11.7408 -2.5000 0.9528
-0.4762 -11.8174 -2.5000 0.9528
0.0000 -11.8270 -2.5000 0.9528
0.4762 -11.8174 -2.5000 0.9528
0.9517 -11.7886 -2.5000 0.9528
1.8972 -11.6738 -2.5000 0.9528
2.3657 -11.5880 -2.5000 0.9528
2.8304 -11.4833 -2.5000 0.9528
3.7452 -11.2183 -2.5000 0.9528
4.1939 -11.0584 -2.5000 0.9528
4.6358 -10.8806 -2.5000 0.9528
5.0701 -10.6851 -2.5000 0.9528
5.9135 -10.2425 -2.5000 0.9528
6.7187 -9.7334 -2.5000 0.9528
7.1049 -9.4550 -2.5000 0.9528
7.4799 -9.1612 -2.5000 0.9528
9.4550 -7.1050 -2.5000 0.9528
9.7334 -6.7185 -2.5000 0.9528
10.2424 -5.9135 -2.5000 0.9528
10.8806 -4.6358 -2.5000 0.9528
11.2183 -3.7452 -2.5000 0.9528
11.5879 -2.3657 -2.5000 0.9528
11.6738 -1.8972 -2.5000 0.9528
11.8174 -0.4762 -2.5000 0.9528
11.8270 0.0000 -2.5000 0.9528
11.7886 0.9517 -2.5000 0.9528
11.7407 1.4256 -2.5000 0.9528
11.6738 1.8972 -2.5000 0.9528
11.5879 2.3657 -2.5000 0.9528
11.0311 2.7189 -2.4015 0.9546
10.6675 3.0899 -2.3476 0.9556
10.5344 3.5169 -2.3476 0.9556
10.3843 3.9382 -2.3476 0.9556
10.0337 4.7610 -2.3476 0.9556
9.6180 5.5530 -2.3476 0.9556
9.1400 6.3089 -2.3476 0.9556
8.8786 6.6718 -2.3476 0.9556
8.5866 7.0108 -2.3432 0.9557
8.2797 7.3351 -2.3382 0.9558
7.9784 7.6634 -2.3384 0.9558
7.3394 8.2845 -2.3395 0.9558
6.6209 8.1091 -2.2129 0.9581
5.7735 8.3643 -2.1483 0.9593
5.4442 8.6093 -2.1532 0.9592
4.4939 8.5625 -2.0441 0.9612
4.0102 8.4514 -1.9774 0.9625
3.2033 8.4465 -1.9095 0.9637
2.2883 7.9003 -1.7386 0.9669
2.2484 9.1223 -1.9860 0.9623
1.4342 8.8249 -1.8899 0.9641
-0.3310 8.2128 -1.7374 0.9670
-0.6630 8.2128 -1.7417 0.9669
-1.7181 8.4157 -1.8156 0.9655
-2.3969 8.2749 -1.8210 0.9654
-4.7953 7.5832 -1.8965 0.9640
-6.2550 7.6610 -2.0906 0.9604
-6.3095 7.1219 -2.0112 0.9618
-7.7889 7.4813 -2.2829 0.9568
-8.8786 6.6718 -2.3476 0.9556
-9.1401 6.3089 -2.3476 0.9556
-9.3867 5.9358 -2.3476 0.9556
-10.2173 4.3532 -2.3476 0.9556
-10.3843 3.9382 -2.3476 0.9556
-10.5345 3.5169 -2.3476 0.9556
-11.5880 2.3657 -2.5000 0.9528
-11.6738 1.8972 -2.5000 0.9528
-11.7408 1.4256 -2.5000 0.9528
-11.7886 0.9517 -2.5000 0.9528
-10.6286 -0.4283 -2.5000 0.9572
-10.6027 -0.8559 -2.5000 0.9572
-10.5596 -1.2822 -2.5000 0.9572
-10.4995 -1.7063 -2.5000 0.9572
-10.0898 -3.3685 -2.5000 0.9572
-9.9460 -3.7720 -2.5000 0.9572
-9.7860 -4.1694 -2.5000 0.9572
-9.6102 -4.5601 -2.5000 0.9572
-9.4188 -4.9434 -2.5000 0.9572
-9.2121 -5.3186 -2.5000 0.9572
-8.9905 -5.6852 -2.5000 0.9572
-8.7543 -6.0426 -2.5000 0.9572
-8.5038 -6.3902 -2.5000 0.9572
-7.9621 -7.0538 -2.5000 0.9572
-7.6716 -7.3686 -2.5000 0.9572
-7.3686 -7.6716 -2.5000 0.9572
-6.7275 -8.2396 -2.5000 0.9572
-6.3902 -8.5038 -2.5000 0.9572
-5.3186 -9.2121 -2.5000 0.9572
-4.9433 -9.4188 -2.5000 0.9572
-3.3685 -10.0898 -2.5000 0.9572
-2.5457 -10.3281 -2.5000 0.9572
-2.1278 -10.4222 -2.5000 0.9572
-1.7063 -10.4995 -2.5000 0.9572
-1.2821 -10.5596 -2.5000 0.9572
-0.8560 -10.6027 -2.5000 0.9572
0.0001 -10.6372 -2.5000 0.9572
0.4285 -10.6286 -2.5000 0.9572
1.7063 -10.4995 -2.5000 0.9572
2.1280 -10.4222 -2.5000 0.9572
3.3685 -10.0898 -2.5000 0.9572
3.7717 -9.9460 -2.5000 0.9572
5.6852 -8.9904 -2.5000 0.9572
6.0426 -8.7542 -2.5000 0.9572
6.3902 -8.5038 -2.5000 0.9572
6.7274 -8.2396 -2.5000 0.9572
7.0538 -7.9620 -2.5000 0.9572
7.3686 -7.6716 -2.5000 0.9572
8.2396 -6.7274 -2.5000 0.9572
8.5038 -6.3902 -2.5000 0.9572
8.7542 -6.0426 -2.5000 0.9572
8.9904 -5.6852 -2.5000 0.9572
9.2121 -5.3186 -2.5000 0.9572
9.7860 -4.1694 -2.5000 0.9572
10.0898 -3.3685 -2.5000 0.9572
10.3281 -2.5457 -2.5000 0.9572
10.4222 -2.1277 -2.5000 0.9572
10.6027 -0.8559 -2.5000 0.9572
10.6286 -0.4283 -2.5000 0.9572
10.6027 0.8559 -2.5000 0.9572
9.4747 3.1631 -2.3476 0.9598
9.3396 3.5421 -2.3476 0.9598
9.1894 3.9152 -2.3476 0.9598
8.8446 4.6420 -2.3476 0.9598
8.4424 5.3386 -2.3476 0.9598
7.9854 6.0007 -2.3476 0.9598
7.7373 6.3173 -2.3476 0.9598
7.4767 6.6238 -2.3476 0.9598
6.8874 7.1707 -2.3368 0.9600
6.5920 7.4408 -2.3363 0.9600
6.2877 7.7011 -2.3366 0.9600
5.9735 7.9493 -2.3370 0.9600
3.8995 9.1524 -2.3381 0.9599
2.6431 7.9172 -1.9617 0.9663
1.3248 8.1521 -1.9411 0.9666
0.6630 8.2128 -1.9365 0.9667
-0.0000 8.2128 -1.9302 0.9668
-0.3310 8.2128 -1.9318 0.9668
-0.6630 8.2128 -1.9365 0.9667
-1.1476 9.4507 -2.2375 0.9616
-1.4492 8.9175 -2.1233 0.9636
-1.7181 8.4157 -2.0187 0.9653
-2.0396 8.2750 -2.0030 0.9656
-3.6139 8.4821 -2.1669 0.9628
-4.7942 8.3038 -2.2535 0.9614
-5.6983 7.5830 -2.2293 0.9618
-6.3092 7.1216 -2.2361 0.9617
-6.8797 7.1625 -2.3341 0.9600
-7.2039 6.9194 -2.3476 0.9598
-7.4767 6.6237 -2.3476 0.9598
-7.7373 6.3173 -2.3476 0.9598
-8.2206 5.6743 -2.3476 0.9598
-8.6505 4.9944 -2.3476 0.9598
-9.1894 3.9152 -2.3476 0.9598
-9.4747 3.1631 -2.3476 0.9598
-10.4222 2.1277 -2.5000 0.9572
-10.4995 1.7063 -2.5000 0.9572
-10.5596 1.2822 -2.5000 0.9572
-10.6027 0.8559 -2.5000 0.9572
-10.6286 0.4283 -2.5000 0.9572
-9.6555 0.0000 -2.5000 0.9609
-9.5851 -1.1639 -2.5000 0.9609
-9.5305 -1.5489 -2.5000 0.9609
-9.4604 -1.9314 -2.5000 0.9609
-8.8829 -3.7846 -2.5000 0.9609
-8.5496 -4.4871 -2.5000 0.9609
-8.3620 -4.8278 -2.5000 0.9609
-7.9463 -5.4850 -2.5000 0.9609
-7.7191 -5.8005 -2.5000 0.9609
-7.2273 -6.4028 -2.5000 0.9609
-6.4028 -7.2272 -2.5000 0.9609
-6.1066 -7.4792 -2.5000 0.9609
-5.8005 -7.7190 -2.5000 0.9609
-5.1606 -8.1608 -2.5000 0.9609
-4.8278 -8.3619 -2.5000 0.9609
-4.4871 -8.5495 -2.5000 0.9609
-4.1392 -8.7233 -2.5000 0.9609
-3.7847 -8.8829 -2.5000 0.9609
-2.3107 -9.3749 -2.5000 0.9609
-1.9314 -9.4604 -2.5000 0.9609
-1.5489 -9.5305 -2.5000 0.9609
-1.1639 -9.5851 -2.5000 0.9609
-0.7770 -9.6242 -2.5000 0.9609
-0.3888 -9.6477 -2.5000 0.9609
0.3888 -9.6477 -2.5000 0.9609
0.7770 -9.6242 -2.5000 0.9609
1.5489 -9.5305 -2.5000 0.9609
3.4238 -9.0281 -2.5000 0.9609
5.4850 -7.9463 -2.5000 0.9609
6.1066 -7.4792 -2.5000 0.9609
6.4028 -7.2273 -2.5000 0.9609
7.2272 -6.4028 -2.5000 0.9609
7.4792 -6.1066 -2.5000 0.9609
8.1607 -5.1605 -2.5000 0.9609
8.3619 -4.8278 -2.5000 0.9609
8.8829 -3.7846 -2.5000 0.9609
9.1586 -3.0576 -2.5000 0.9609
9.2743 -2.6863 -2.5000 0.9609
9.4604 -1.9314 -2.5000 0.9609
9.5305 -1.5488 -2.5000 0.9609
9.5851 -1.1638 -2.5000 0.9609
9.6242 -0.7769 -2.5000 0.9609
9.6477 -0.3888 -2.5000 0.9609
9.6242 0.7769 -2.5000 0.9609
9.4604 1.9313 -2.5000 0.9609
9.2743 2.6863 -2.5000 0.9609
8.1915 3.8869 -2.3476 0.9632
7.8521 4.5335 -2.3476 0.9632
7.6632 4.8459 -2.3476 0.9632
7.4619 5.1506 -2.3476 0.9632
7.2485 5.4469 -2.3476 0.9632
6.2809 6.5391 -2.3476 0.9632
5.1224 7.4211 -2.3348 0.9634
4.8192 7.6210 -2.3346 0.9634
2.1581 8.7559 -2.3349 0.9634
1.3173 8.1055 -2.1262 0.9666
0.6662 8.2525 -2.1437 0.9664
-1.0855 8.9398 -2.3317 0.9635
-1.4210 8.7435 -2.2935 0.9641
-1.7181 8.4157 -2.2239 0.9651
-2.0396 8.2750 -2.2067 0.9654
-2.3560 8.1337 -2.1925 0.9656
-2.7070 8.1084 -2.2133 0.9653
-3.1275 8.2466 -2.2836 0.9642
-3.5225 8.2676 -2.3268 0.9635
-3.8512 8.1162 -2.3260 0.9636
-4.1733 7.9516 -2.3251 0.9636
-4.4885 7.7743 -2.3243 0.9636
-4.8938 7.0899 -2.2305 0.9650
-5.7300 7.0180 -2.3458 0.9633
-6.0125 6.7867 -2.3476 0.9632
-6.2809 6.5391 -2.3476 0.9632
-6.5391 6.2809 -2.3476 0.9632
-7.2485 5.4469 -2.3476 0.9632
-7.4620 5.1506 -2.3476 0.9632
-7.6633 4.8460 -2.3476 0.9632
-7.8522 4.5335 -2.3476 0.9632
-8.3414 3.5539 -2.3476 0.9632
-8.4777 3.2152 -2.3476 0.9632
-9.4604 1.9313 -2.5000 0.9609
-9.5851 1.1638 -2.5000 0.9609
-9.6477 0.3888 -2.5000 0.9609
-8.8310 0.0000 -2.5000 0.9640
-8.8024 -0.7106 -2.5000 0.9640
-8.6525 -1.7664 -2.5000 0.9640
-8.5744 -2.1134 -2.5000 0.9640
-8.4823 -2.4569 -2.5000 0.9640
-8.3765 -2.7965 -2.5000 0.9640
-8.2571 -3.1315 -2.5000 0.9640
-8.1243 -3.4614 -2.5000 0.9640
-7.8195 -4.1040 -2.5000 0.9640
-7.6479 -4.4155 -2.5000 0.9640
-7.2678 -5.0166 -2.5000 0.9640
-6.6101 -5.8560 -2.5000 0.9640
-6.1175 -6.3689 -2.5000 0.9640
-5.0166 -7.2677 -2.5000 0.9640
-4.7199 -7.4638 -2.5000 0.9640
-4.1040 -7.8194 -2.5000 0.9640
-3.1315 -8.2571 -2.5000 0.9640
-2.7965 -8.3765 -2.5000 0.9640
-2.4569 -8.4823 -2.5000 0.9640
-2.1134 -8.5744 -2.5000 0.9640
-1.4166 -8.7166 -2.5000 0.9640
-1.0645 -8.7666 -2.5000 0.9640
-0.7106 -8.8023 -2.5000 0.9640
-0.3557 -8.8238 -2.5000 0.9640
0.3556 -8.8238 -2.5000 0.9640
0.7106 -8.8023 -2.5000 0.9640
1.7664 -8.6525 -2.5000 0.9640
2.4569 -8.4823 -2.5000 0.9640
3.4614 -8.1243 -2.5000 0.9640
5.5851 -6.8405 -2.5000 0.9640
5.8560 -6.6101 -2.5000 0.9640
6.1174 -6.3689 -2.5000 0.9640
6.3689 -6.1174 -2.5000 0.9640
6.6101 -5.8560 -2.5000 0.9640
6.8405 -5.5851 -2.5000 0.9640
7.0598 -5.3051 -2.5000 0.9640
7.4638 -4.7199 -2.5000 0.9640
7.6478 -4.4155 -2.5000 0.9640
8.1243 -3.4614 -2.5000 0.9640
8.4823 -2.4569 -2.5000 0.9640
8.5743 -2.1134 -2.5000 0.9640
8.6525 -1.7664 -2.5000 0.9640
8.7166 -1.4166 -2.5000 0.9640
8.8023 -0.7106 -2.5000 0.9640
8.8309 -0.0000 -2.5000 0.9640
8.8238 0.3556 -2.5000 0.9640
8.8023 0.7106 -2.5000 0.9640
8.6526 1.7664 -2.5000 0.9640
8.5743 2.1134 -2.5000 0.9640
8.4823 2.4569 -2.5000 0.9640
8.1273 2.7133 -2.4256 0.9650
7.7537 2.9406 -2.3476 0.9661
7.1816 4.1463 -2.3476 0.9661
7.0088 4.4321 -2.3476 0.9661
6.4235 5.2446 -2.3476 0.96
0.6.2071 5.4990 -2.3476 0.9661
5.7445 5.9807 -2.3476 0.9661
5.4990 6.2071 -2.3476 0.9661
4.9817 6.6295 -2.3476 0.9661
4.1216 7.1395 -2.3338 0.9663
3.8305 7.2984 -2.3334 0.9663
3.5329 7.4456 -2.3330 0.9663
3.2298 7.5805 -2.3327 0.9663
2.6093 7.8158 -2.3326 0.9663
2.2924 7.9142 -2.3326 0.9663
1.6479 8.0721 -2.3323 0.9663
0.9929 8.1769 -2.3318 0.9663
0.6627 8.2092 -2.3315 0.9663
-0.9919 8.1687 -2.3295 0.9664
-1.6452 8.0586 -2.3284 0.9664
-2.6024 7.7952 -2.3265 0.9664
-2.9136 7.6825 -2.3260 0.9664
-3.2202 7.5580 -2.3257 0.9664
-3.5215 7.4214 -2.3255 0.9664
-4.1264 7.1471 -2.3363 0.9663
-4.4301 7.0057 -2.3465 0.9661
-4.7108 6.8247 -2.3476 0.9661
-5.4991 6.2071 -2.3476 0.9661
-7.0089 4.4321 -2.3476 0.9661
-7.3428 3.8538 -2.3476 0.9661
-7.4920 3.5550 -2.3476 0.9661
-7.6291 3.2504 -2.3476 0.9661
-7.7538 2.9406 -2.3476 0.9661
-8.1106 2.7077 -2.4206 0.9651
-8.4823 2.4569 -2.5000 0.9640
-8.7166 1.4166 -2.5000 0.9640
-8.7666 1.0645 -2.5000 0.9640
-8.1280 0.0000 -2.5000 0.9666
-8.0227 -1.3038 -2.5000 0.9666
-7.7097 -2.5739 -2.5000 0.9666
-7.4776 -3.1859 -2.5000 0.9666
-7.0390 -4.0640 -2.5000 0.9666
-6.4978 -4.8828 -2.5000 0.9666
-5.3899 -6.0839 -2.5000 0.9666
-5.1405 -6.2960 -2.5000 0.9666
-4.8828 -6.4978 -2.5000 0.9666
-4.6172 -6.6892 -2.5000 0.9666
-4.3441 -6.8697 -2.5000 0.9666
-4.0640 -7.0390 -2.5000 0.9666
-3.7773 -7.1970 -2.5000 0.9666
-3.4844 -7.3432 -2.5000 0.9666
-2.8822 -7.5998 -2.5000 0.9666
-1.9452 -7.8918 -2.5000 0.9666
-1.3038 -8.0227 -2.5000 0.9666
-0.9797 -8.0687 -2.5000 0.9666
-0.6540 -8.1016 -2.5000 0.9666
-0.3273 -8.1214 -2.5000 0.9666
-0.0000 -8.1280 -2.5000 0.9666
0.9797 -8.0687 -2.5000 0.9666
1.3038 -8.0227 -2.5000 0.9666
1.9451 -7.8918 -2.5000 0.9666
2.2613 -7.8071 -2.5000 0.9666
2.8822 -7.5998 -2.5000 0.9666
3.1859 -7.4775 -2.5000 0.9666
3.4844 -7.3432 -2.5000 0.9666
4.0640 -7.0390 -2.5000 0.9666
4.3441 -6.8697 -2.5000 0.9666
4.6172 -6.6892 -2.5000 0.9666
4.8828 -6.4978 -2.5000 0.9666
5.3898 -6.0839 -2.5000 0.9666
5.6304 -5.8619 -2.5000 0.9666
5.8619 -5.6304 -2.5000 0.9666
6.0839 -5.3898 -2.5000 0.9666
6.2960 -5.1405 -2.5000 0.9666
6.8697 -4.3441 -2.5000 0.9666
7.0390 -4.0640 -2.5000 0.9666
7.1969 -3.7772 -2.5000 0.9666
7.3432 -3.4844 -2.5000 0.9666
7.4775 -3.1859 -2.5000 0.9666
7.8070 -2.2613 -2.5000 0.9666
7.8918 -1.9451 -2.5000 0.9666
8.0227 -1.3038 -2.5000 0.9666
8.0687 -0.9797 -2.5000 0.9666
8.1016 -0.6540 -2.5000 0.9666
8.1213 -0.3273 -2.5000 0.9666
8.1279 -0.0000 -2.5000 0.9666
8.0227 1.3038 -2.5000 0.9666
7.8918 1.9451 -2.5000 0.9666
7.8070 2.2613 -2.5000 0.9666
6.8955 3.2720 -2.3476 0.9686
6.4509 4.0793 -2.3476 0.9686
6.2814 4.3357 -2.3476 0.9686
5.2872 5.5046 -2.3476 0.9686
5.0613 5.7130 -2.3476 0.9686
4.3357 6.2814 -2.3476 0.9686
3.8162 6.6099 -2.3476 0.9686
2.6977 7.1133 -2.3400 0.9687
2.1090 7.2811 -2.3316 0.9688
1.5158 7.4250 -2.3309 0.9688
1.2154 7.4789 -2.3305 0.9688
0.9132 7.5207 -2.3302 0.9688
0.6095 7.5503 -2.3299 0.9688
-0.3049 7.5655 -2.3289 0.9688
-0.9124 7.5144 -2.3282 0.9688
-1.2141 7.4705 -2.3279 0.9688
-1.5137 7.4146 -2.3276 0.9688
-1.8108 7.3467 -2.3273 0.9688
-2.1049 7.2669 -2.3270 0.9688
-2.6944 7.1046 -2.3371 0.9687
-2.9884 7.0139 -2.3450 0.9686
-3.2720 6.8956 -2.3476 0.9686
-5.0613 5.7130 -2.3476 0.9686
-5.5046 5.2872 -2.3476 0.9686
-5.7130 5.0612 -2.3476 0.9686
-6.4509 4.0793 -2.3476 0.9686
-6.6099 3.8162 -2.3476 0.9686
-6.7582 3.5470 -2.3476 0.9686
-7.7097 2.5739 -2.5000 0.9666
-7.8071 2.2613 -2.5000 0.9666
-8.0687 0.9797 -2.5000 0.9666
-8.1016 0.6540 -2.5000 0.9666
-7.5209 -0.0000 -2.5000 0.9688
-7.4235 -1.2064 -2.5000 0.9688
-7.1338 -2.3816 -2.5000 0.9688
-6.9191 -2.9479 -2.5000 0.9688
-6.7947 -3.2241 -2.5000 0.9688
-6.6594 -3.4951 -2.5000 0.9688
-6.5133 -3.7604 -2.5000 0.9688
-6.0125 -4.5181 -2.5000 0.9688
-5.8257 -4.7566 -2.5000 0.9688
-5.6295 -4.9873 -2.5000 0.9688
-5.4241 -5.2099 -2.5000 0.9688
-5.2099 -5.4241 -2.5000 0.9688
-4.5181 -6.0125 -2.5000 0.9688
-4.2724 -6.1896 -2.5000 0.9688
-4.0197 -6.3566 -2.5000 0.9688
-3.4951 -6.6594 -2.5000 0.9688
-2.6670 -7.0322 -2.5000 0.9688
-2.3816 -7.1338 -2.5000 0.9688
-2.0924 -7.2239 -2.5000 0.9688
-1.7999 -7.3024 -2.5000 0.9688
14 0.65 -7.4235 -2.5000 0.9688
-0.9066 -7.4661 -2.5000 0.9688
-0.3029 -7.5148 -2.5000 0.9688
-0.0000 -7.5209 -2.5000 0.9688
0.3028 -7.5148 -2.5000 0.9688
2.0924 -7.2240 -2.5000 0.9688
2.9479 -6.9191 -2.5000 0.9688
3.2241 -6.7947 -2.5000 0.9688
3.4951 -6.6594 -2.5000 0.9688
3.7604 -6.5133 -2.5000 0.9688
4.2723 -6.1896 -2.5000 0.9688
4.7565 -5.8257 -2.5000 0.9688
4.9873 -5.6295 -2.5000 0.9688
5.2099 -5.4241 -2.5000 0.9688
5.4241 -5.2099 -2.5000 0.9688
5.6295 -4.9873 -2.5000 0.9688
6.1896 -4.2723 -2.5000 0.9688
6.6594 -3.4951 -2.5000 0.9688
6.7947 -3.2242 -2.5000 0.9688
7.0321 -2.6669 -2.5000 0.9688
7.3023 -1.7999 -2.5000 0.9688
7.4660 -0.9065 -2.5000 0.9688
7.5209 0.0000 -2.5000 0.9688
7.4965 0.6052 -2.5000 0.9688
7.4235 1.2064 -2.5000 0.9688
7.3023 1.7999 -2.5000 0.9688
7.2239 2.0924 -2.5000 0.9688
6.4973 2.7682 -2.3476 0.9707
6.3805 3.0276 -2.3476 0.9707
6.2534 3.2821 -2.3476 0.9707
6.1162 3.5312 -2.3476 0.9707
5.8122 4.0119 -2.3476 0.9707
5.6460 4.2427 -2.3476 0.9707
5.2863 4.6832 -2.3476 0.9707
5.0934 4.8923 -2.3476 0.9707
4.6832 5.2863 -2.3476 0.9707
4.0119 5.8122 -2.3476 0.9707
3.7746 5.9691 -2.3476 0.9707
2.7682 6.4973 -2.3476 0.9707
2.5043 6.6035 -2.3476 0.9707
2.2364 6.6990 -2.3476 0.9707
1.1328 6.9708 -2.3475 0.9707
0.5670 7.0237 -2.3423 0.9707
-0.0000 7.0417 -2.3407 0.9708
-0.2836 7.0376 -2.3412 0.9707
-0.8504 7.0035 -2.3451 0.9707
-1.1330 6.9708 -2.3475 0.9707
-2.5044 6.6035 -2.3476 0.9707
-2.7683 6.4973 -2.3476 0.9707
-3.0276 6.3805 -2.3476 0.9707
-4.0119 5.8122 -2.3476 0.9707
-4.2427 5.6460 -2.3476 0.9707
-5.2863 4.6833 -2.3476 0.9707
-5.4706 4.4666 -2.3476 0.9707
-5.8123 4.0119 -2.3476 0.9707
-5.9691 3.7746 -2.3476 0.9707
-7.0322 2.6669 -2.5000 0.9688
-7.3689 1.5044 -2.5000 0.9688
-7.4235 1.2064 -2.5000 0.9688
-7.5148 0.3028 -2.5000 0.9688
-6.9909 0.0000 -2.5000 0.9707
-6.9682 -0.5625 -2.5000 0.9707
-6.9399 -0.8427 -2.5000 0.9707
-6.7877 -1.6730 -2.5000 0.9707
-6.6311 -2.2138 -2.5000 0.9707
-6.3159 -2.9969 -2.5000 0.9707
-5.9086 -3.7364 -2.5000 0.9707
-5.5888 -4.1997 -2.5000 0.9707
-5.4152 -4.4213 -2.5000 0.9707
-5.2328 -4.6358 -2.5000 0.9707
-4.8428 -5.0418 -2.5000 0.9707
-4.4214 -5.4152 -2.5000 0.9707
-4.1997 -5.5888 -2.5000 0.9707
-3.4954 -6.0543 -2.5000 0.9707
-2.7402 -6.4315 -2.5000 0.9707
-2.4790 -6.5366 -2.5000 0.9707
-1.9450 -6.7149 -2.5000 0.9707
-1.6730 -6.7877 -2.5000 0.9707
-1.3984 -6.8496 -2.5000 0.9707
-1.1214 -6.9003 -2.5000 0.9707
-0.8427 -6.9399 -2.5000 0.9707
-0.2815 -6.9852 -2.5000 0.9707
-0.0000 -6.9909 -2.5000 0.9707
0.5625 -6.9682 -2.5000 0.9707
1.1214 -6.9004 -2.5000 0.9707
1.3983 -6.8496 -2.5000 0.9707
2.2138 -6.6311 -2.5000 0.9707
2.7402 -6.4315 -2.5000 0.9707
3.2488 -6.1901 -2.5000 0.9707
3.4954 -6.0543 -2.5000 0.9707
3.7364 -5.9086 -2.5000 0.9707
3.9713 -5.7534 -2.5000 0.9707
4.1997 -5.5888 -2.5000 0.9707
4.4213 -5.4152 -2.5000 0.9707
4.6358 -5.2327 -2.5000 0.9707
5.0418 -4.8428 -2.5000 0.9707
5.2327 -4.6358 -2.5000 0.9707
5.4151 -4.4213 -2.5000 0.9707
5.5888 -4.1997 -2.5000 0.9707
6.0542 -3.4954 -2.5000 0.9707
6.1901 -3.2488 -2.5000 0.9707
6.3159 -2.9969 -2.5000 0.9707
6.6311 -2.2138 -2.5000 0.9707
6.7877 -1.6730 -2.5000 0.9707
6.9682 -0.5625 -2.5000 0.9707
6.9852 0.2815 -2.5000 0.9707
6.9682 0.5625 -2.5000 0.9707
6.9003 1.1214 -2.5000 0.9707
6.8496 1.3983 -2.5000 0.9707
6.7877 1.6730 -2.5000 0.9707
6.7148 1.9450 -2.5000 0.9707
6.6311 2.2138 -2.5000 0.9707
6.5366 2.4790 -2.5000 0.9707
5.9309 2.8142 -2.3476 0.9725
5.6852 3.2824 -2.3476 0.9725
5.5484 3.5086 -2.3476 0.9725
5.4026 3.7292 -2.3476 0.9725
4.7345 4.5475 -2.3476 0.9725
4.3532 4.9137 -2.3476 0.9725
3.9437 5.2481 -2.3476 0.9725
3.7292 5.4026 -2.3476 0.9725
