ply
format ascii 1.0
element vertex 1569
property float32 x
property float32 y
property float32 z
property float32 I
end_header
-3.6502 9.6247 0.6383 0.9596
-4.1007 9.6248 0.6487 0.9589
-4.6087 8.7811 0.6150 0.9610
-5.2004 8.2238 0.6034 0.9618
-5.6936 8.2485 0.6215 0.9606
-6.1371 8.1670 0.6335 0.9599
-31.9903 36.1095 2.9915 0.8242
-25.0294 24.0410 2.1521 0.8702
-24.9217 15.7596 1.8285 0.8885
-25.3303 13.2944 1.7739 0.8917
-35.7489 13.5578 2.3709 0.8579
-44.2861 14.7849 2.8952 0.8293
-33.1005 6.7575 2.0949 0.8734
-43.7379 5.3107 2.7321 0.8381
-42.4820 -24.5270 1.9343 0.8217
-23.8372 -16.4537 1.1421 0.8905
-23.4480 -17.6201 1.1565 0.8892
-21.9679 -17.9362 1.1183 0.8927
-21.8769 -22.7762 1.2453 0.8812
-21.0382 -23.7472 1.2510 0.8807
-19.1090 -25.4295 1.2543 0.8804
-19.1151 -30.2281 1.4102 0.8666
-23.5420 -40.7758 1.8566 0.8282
-13.7809 -29.0427 1.2676 0.8793
-12.3050 -28.8810 1.2379 0.8819
-16.8826 -44.5155 1.8773 0.8265
-12.7367 -38.1512 1.5860 0.8513
-7.7662 -26.8121 1.1007 0.8943
-6.5535 -26.5885 1.0798 0.8962
-2.5767 -21.2208 0.8429 0.9180
-0.9423 -23.3843 0.9228 0.9106
1.6043 -19.8732 0.7862 0.9233
4.3024 -26.4736 1.0576 0.8982
5.7603 -19.8867 0.8164 0.9205
6.1173 -18.3236 0.7617 0.9256
6.2818 -16.5639 0.6985 0.9315
7.7397 -16.3111 0.7119 0.9303
10.2416 -16.1957 0.7556 0.9262
14.2081 -20.5839 0.9862 0.9047
14.7796 -19.6681 0.9701 0.9062
18.1733 8.6233 0.7932 0.9226
17.6847 9.2816 0.7875 0.9232
16.5992 9.5836 0.7558 0.9261
10.8609 8.1614 0.5357 0.9471
10.1042 8.9515 0.5323 0.9474
9.8878 11.1610 0.5880 0.9421
9.9023 12.1282 0.6174 0.9392
9.7972 14.1937 0.6800 0.9333
6.8507 10.8335 0.5054 0.9500
5.6227 9.7388 0.4434 0.9560
5.3823 10.2552 0.4567 0.9547
5.0708 10.6866 0.4664 0.9538
0.7326 9.0750 0.3590 0.9642
-0.0000 9.6247 0.3795 0.9622
-1.1755 9.6811 0.3845 0.9617
-1.5642 9.6247 0.3845 0.9617
-1.9649 9.6248 0.3873 0.9614
-2.3862 9.6811 0.3932 0.9609
-2.8042 9.6811 0.3974 0.9605
-4.3086 9.0801 0.3963 0.9606
-5.2004 8.2238 0.3837 0.9618
-23.1890 26.1749 1.3789 0.8694
-24.8421 25.8634 1.4141 0.8663
-25.9504 24.9257 1.4188 0.8659
-26.1416 23.1595 1.3771 0.8695
-32.6038 26.6201 1.6597 0.8449
-23.8937 16.4927 1.1448 0.8903
-23.0943 13.3335 1.0515 0.8987
-32.3505 13.7832 1.3866 0.8687
-32.8906 6.7147 1.3237 0.8743
-34.6997 5.6392 1.3862 0.8687
-44.4338 -21.0841 0.8308 0.8214
-43.9576 -23.0707 0.8386 0.8199
-42.8992 -24.7679 0.8367 0.8202
-23.7471 -17.8448 0.5018 0.8880
-20.6248 -18.2720 0.4654 0.8956
-21.8863 -22.7860 0.5337 0.8813
-18.8585 -21.2868 0.4804 0.8925
-16.5229 -20.2368 0.4413 0.9008
-16.1632 -21.5093 0.4545 0.8980
-18.3610 -26.6004 0.5460 0.8787
-23.2745 -40.3126 0.7863 0.8301
-13.8036 -29.0904 0.5439 0.8791
-5.3463 -16.0142 0.2852 0.9347
-6.6001 -26.7776 0.4659 0.8955
-1.6506 -20.4456 0.3465 0.9212
0.0000 -23.2941 0.3935 0.9110
1.6039 -19.8683 0.3367 0.9234
4.8849 -23.9278 0.4125 0.9069
6.0701 -18.1822 0.3238 0.9262
6.5871 -15.4604 0.2839 0.9350
11.6023 -16.8088 0.3450 0.9215
17.5492 -21.4938 0.4687 0.8949
45.4862 13.1753 0.7999 0.8274
19.4219 8.2749 0.3566 0.9190
18.1733 8.6233 0.3398 0.9227
16.5991 9.5835 0.3238 0.9262
12.1876 8.4125 0.2502 0.9425
10.8609 8.1614 0.2295 0.9471
10.1042 8.9515 0.2280 0.9474
9.8287 9.4406 0.2302 0.9469
9.7972 10.2000 0.2389 0.9450
9.7972 16.9692 0.3310 0.9246
5.1170 9.7496 0.1860 0.9569
4.7826 10.0792 0.1885 0.9563
3.4483 9.0925 0.1643 0.9618
2.7691 8.2945 0.1477 0.9656
2.0396 8.2749 0.1440 0.9665
0.3879 9.6248 0.1627 0.9622
-0.0000 9.6247 0.1626 0.9622
-0.3862 9.5824 0.1620 0.9624
-0.7816 9.6811 0.1641 0.9619
-1.5642 9.6247 0.1647 0.9617
-1.9649 9.6248 0.1659 0.9615
-2.3862 9.6811 0.1684 0.9609
-3.2003 9.5861 0.1707 0.9604
-3.6502 9.6247 0.1739 0.9597
-4.3086 9.0801 0.1698 0.9606
-4.6087 8.7811 0.1675 0.9611
-5.6936 8.2485 0.1693 0.9607
-6.1371 8.1670 0.1726 0.9600
-32.9386 34.2927 0.8032 0.8268
-28.4293 25.1862 0.6416 0.8590
-35.2366 26.4786 0.7445 0.8383
-25.7597 14.8724 0.5024 0.8878
-33.0839 17.3638 0.6311 0.8612
-31.7124 15.0477 0.5931 0.8690
-42.9234 14.3300 0.7644 0.8344
-43.6708 12.6494 0.7680 0.8337
-32.6627 8.0507 0.5682 0.8741
-33.4728 6.8335 0.5771 0.8723
-42.4994 6.9068 0.7273 0.8418
-42.5744 5.1694 0.7244 0.8423
-43.0864 -18.3574 -0.2637 0.8292
-35.0525 -16.6326 -0.2184 0.8562
-43.4682 -22.8139 -0.2764 0.8217
-28.9271 -16.7011 -0.1881 0.8749
-37.6275 -23.7943 -0.2507 0.8369
-21.2012 -17.3102 -0.1541 0.8963
-21.0733 -18.6693 -0.1585 0.8935
-19.5339 -18.7625 -0.1525 0.8973
-17.8086 -20.1017 -0.1512 0.8981
-16.9133 -20.7151 -0.1506 0.8986
-15.7135 -22.7649 -0.1557 0.8953
-9.6151 -22.5674 -0.1381 0.9065
-7.9442 -27.4264 -0.1608 0.8921
-6.3064 -25.5862 -0.1484 0.9000
-2.7217 -22.4155 -0.1271 0.9136
-0.9655 -23.9590 -0.1350 0.9085
0.0000 -23.5201 -0.1324 0.9102
4.7728 -39.3075 -0.2229 0.8535
6.5172 -40.1016 -0.2287 0.8500
10.2854 -41.7294 -0.2420 0.8421
6.4706 -17.0617 -0.1027 0.9296
7.0061 -16.4440 -0.1006 0.9310
10.9482 -18.9628 -0.1233 0.9161
9.0825 -14.3627 -0.0957 0.9343
14.8359 -21.4935 -0.1470 0.9008
15.4180 -20.5176 -0.1445 0.9024
16.2102 -19.8539 -0.1443 0.9026
19.0401 -15.5458 -0.1384 0.9064
45.4813 13.1738 -0.2666 0.8275
19.4219 8.2749 -0.1189 0.9190
17.6847 9.2816 -0.1125 0.9232
16.5990 9.5835 -0.1079 0.9262
10.8609 8.1614 -0.0765 0.9471
10.3336 8.4371 -0.0751 0.9480
9.8287 9.4406 -0.0767 0.9469
9.1929 9.5708 -0.0747 0.9483
7.8811 9.6526 -0.0702 0.9514
6.6627 9.6526 -0.0660 0.9542
6.1039 9.6526 -0.0643 0.9553
5.0661 9.6526 -0.0614 0.9573
2.3969 8.2749 -0.0485 0.9661
2.0396 8.2749 -0.0480 0.9665
1.6797 8.2278 -0.0473 0.9670
1.3633 8.3890 -0.0479 0.9666
0.7326 9.0750 -0.0513 0.9642
0.3879 9.6248 -0.0542 0.9622
-1.1755 9.6811 -0.0549 0.9617
-1.5642 9.6247 -0.0549 0.9617
-1.9649 9.6248 -0.0553 0.9615
-2.8042 9.6811 -0.0567 0.9605
-4.1007 9.6248 -0.0589 0.9590
-4.3086 9.0801 -0.0566 0.9606
-5.6936 8.2485 -0.0564 0.9607
-6.1371 8.1670 -0.0575 0.9600
-32.9386 34.2927 -0.2677 0.8268
-33.2586 31.9453 -0.2596 0.8315
-32.7450 26.7354 -0.2380 0.8444
-31.8544 21.9875 -0.2179 0.8566
-25.7530 14.8685 -0.1674 0.8879
-31.4743 10.5077 -0.1868 0.8757
-31.4743 9.1167 -0.1845 0.8772
-37.0032 6.0136 -0.2111 0.8607
-49.5268 6.0136 -0.2809 0.8191
-39.3577 -16.7687 -1.2046 0.8427
-28.8829 -16.6756 -0.9391 0.8751
-25.4900 -16.1189 -0.8492 0.8863
-20.4217 -18.0921 -0.7682 0.8966
-20.1333 -22.7258 -0.8549 0.8856
-17.9502 -23.8874 -0.8414 0.8873
-11.2502 -16.2987 -0.5576 0.9238
-24.0799 -41.7075 -1.3561 0.8247
-12.9455 -24.6656 -0.7844 0.8945
-10.6763 -22.4998 -0.7013 0.9051
-9.5473 -22.4085 -0.6859 0.9071
-2.7209 -22.4086 -0.6356 0.9136
-2.0168 -24.9826 -0.7057 0.9046
6.4222 -39.5173 -1.1273 0.8520
4.7223 -19.1592 -0.5556 0.9241
10.0753 -26.5663 -0.8000 0.8925
7.4401 -15.6796 -0.4887 0.9329
7.8267 -14.9125 -0.4742 0.9348
23.9359 -41.4582 -1.3479 0.8257
23.9358 -37.8515 -1.2610 0.8359
12.0430 -17.4473 -0.5969 0.9187
14.5198 -19.3223 -0.6806 0.9078
23.9357 -24.9197 -0.9729 0.8709
23.8864 -21.1615 -0.8986 0.8801
45.4763 13.1724 -1.3331 0.8274
18.1733 8.6233 -0.5664 0.9227
15.0519 8.6902 -0.4894 0.9328
14.9936 9.4814 -0.4995 0.9315
11.7622 8.1189 -0.4024 0.9444
10.8313 8.1392 -0.3815 0.9472
9.9825 8.8437 -0.3755 0.9480
9.7713 9.3854 -0.3815 0.9472
9.1929 9.5708 -0.3737 0.9483
7.8811 9.6526 -0.3509 0.9514
6.6627 9.6526 -0.3303 0.9542
6.1039 9.6526 -0.3216 0.9553
5.0661 9.6526 -0.3070 0.9573
2.7691 8.2945 -0.2462 0.9656
2.3969 8.2749 -0.2426 0.9661
1.6797 8.2278 -0.2365 0.9670
1.3633 8.3890 -0.2393 0.9666
0.7326 9.0750 -0.2564 0.9642
0.3879 9.6248 -0.2712 0.9622
-1.1764 9.6883 -0.2748 0.9617
-1.5642 9.6247 -0.2746 0.9617
-2.3884 9.6902 -0.2810 0.9609
-4.5267 8.6248 -0.2743 0.9618
-5.5948 8.1054 -0.2773 0.9614
-6.1371 8.1670 -0.2876 0.9599
-32.0368 33.3538 -1.3022 0.8311
-31.5237 30.2789 -1.2308 0.8395
-32.8736 17.2534 -1.0454 0.8619
-31.4743 9.1167 -0.9227 0.8771
-31.3925 6.4089 -0.9022 0.8797
-49.5268 6.0136 -1.4048 0.8190
-49.2555 -1.9850 -2.5000 0.8208
-48.9361 -5.9419 -2.5000 0.8208
-48.6571 -7.9075 -2.5000 0.8208
-48.2992 -9.8604 -2.5000 0.8208
-47.8630 -11.7972 -2.5000 0.8208
-45.6558 -13.2244 -2.4106 0.8266
-43.9220 -14.6633 -2.3483 0.8307
-43.3162 -16.4277 -2.3494 0.8307
-41.4360 -17.6542 -2.2842 0.8349
-35.0292 -16.6216 -1.9663 0.8562
-28.6157 -16.5213 -1.6757 0.8760
-26.2046 -16.5708 -1.5724 0.8832
-19.9916 -16.3226 -1.3089 0.9018
-18.3826 -16.2856 -1.2455 0.9063
-15.5050 -16.1424 -1.1351 0.9143
-22.3295 -29.7152 -1.8850 0.8617
-11.2420 -16.2869 -1.0036 0.9238
-22.9441 -39.7405 -2.3272 0.8321
-8.4135 -22.1846 -1.2033 0.9093
-6.8039 -23.4897 -1.2402 0.9067
-7.3450 -45.1956 -2.3221 0.8324
-3.6840 -45.6342 -2.3218 0.8325
0.0000 -45.7829 -2.3218 0.8325
1.8436 -45.7481 -2.3220 0.8325
1.6027 -19.8534 -1.0101 0.9233
4.8944 -40.3094 -2.0593 0.8499
9.1632 -44.8841 -2.3232 0.8324
7.0953 -28.7863 -1.5036 0.8880
6.7688 -15.8870 -0.8758 0.9332
19.6761 -41.4666 -2.3277 0.8321
10.7253 -15.5382 -0.9575 0.9272
12.7120 -15.5693 -1.0193 0.9227
16.3086 -15.6646 -1.1468 0.9134
17.6241 -15.6136 -1.1941 0.9100
18.9364 -15.4611 -1.2398 0.9067
39.4092 -29.6141 -2.5000 0.8208
40.5696 -28.0032 -2.5000 0.8208
42.3320 -24.4404 -2.4790 0.8222
42.5893 -18.1456 -2.3478 0.8308
43.2826 -16.4149 -2.3476 0.8308
43.9083 -14.6588 -2.3476 0.8308
48.2992 -9.8604 -2.5000 0.8208
48.6571 -7.9076 -2.5000 0.8208
48.9361 -5.9420 -2.5000 0.8208
49.2555 1.9849 -2.5000 0.8208
45.6920 7.4257 -2.3476 0.8308
44.5431 12.9021 -2.3518 0.8305
43.3195 16.4289 -2.3496 0.8306
19.0815 8.1299 -1.0519 0.9203
15.4574 8.1127 -0.8853 0.9325
14.9919 8.6556 -0.8779 0.9330
13.4738 8.5203 -0.8085 0.9381
10.1042 8.9515 -0.6846 0.9474
9.8288 9.4407 -0.6912 0.9469
8.9168 9.2834 -0.6528 0.9498
8.2804 9.3467 -0.6333 0.9512
7.8811 9.6526 -0.6320 0.9513
6.6627 9.6526 -0.5948 0.9541
6.1039 9.6526 -0.5792 0.9553
2.3383 8.0726 -0.4262 0.9669
1.9893 8.0711 -0.4216 0.9673
1.6589 8.1260 -0.4206 0.9673
1.3465 8.2851 -0.4257 0.9669
0.7326 9.0750 -0.4617 0.9642
-0.7816 9.6811 -0.4926 0.9618
-1.1755 9.6811 -0.4946 0.9617
-1.7740 8.6896 -0.4498 0.9651
-2.3862 9.6811 -0.5057 0.9609
-3.2959 8.6904 -0.4714 0.9635
-4.1007 9.6246 -0.5306 0.9590
-4.5267 8.6248 -0.4940 0.9617
-4.8508 8.4019 -0.4920 0.9619
-5.2004 8.2238 -0.4935 0.9618
-28.8846 35.3772 -2.3162 0.8328
-30.3263 34.2312 -2.3193 0.8326
-31.3495 30.1116 -2.2045 0.8402
-31.9369 28.2937 -2.1638 0.8429
-32.7450 26.7354 -2.1439 0.8442
-35.1085 26.3823 -2.2272 0.8387
-31.8544 21.9875 -1.9630 0.8564
-25.7396 14.8608 -1.5073 0.8878
-31.7123 15.0477 -1.7801 0.8688
-32.4770 13.8371 -1.7903 0.8682
-31.3925 11.9056 -1.7027 0.8742
-31.4743 10.5077 -1.6828 0.8756
-31.4743 9.1167 -1.6618 0.8770
-31.4743 7.7578 -1.6440 0.8782
-31.3925 6.4089 -1.6249 0.8796
-45.9873 5.5838 -2.3493 0.8307
-34.0959 0.0000 -2.5000 0.8722
-34.0683 -1.3729 -2.5000 0.8722
-33.6544 -5.4694 -2.5000 0.8722
-33.1051 -8.1597 -2.5000 0.8722
-28.3533 -14.8809 -2.3479 0.8795
-27.7392 -16.0152 -2.3485 0.8794
-21.7762 -16.3637 -1.9972 0.8965
-14.4377 -16.2968 -1.5964 0.9164
-13.1993 -16.1662 -1.5302 0.9197
-12.1296 -16.1416 -1.4805 0.9222
-11.1257 -16.1184 -1.4360 0.9245
-17.0639 -26.9844 -2.3410 0.8798
-9.2814 -16.0759 -1.3611 0.9283
-8.4457 -16.0919 -1.3325 0.9297
-10.4690 -22.0629 -1.7906 0.9067
-6.0687 -16.0019 -1.2548 0.9337
-5.3208 -15.9376 -1.2320 0.9348
-4.6254 -15.9687 -1.2190 0.9355
-3.9320 -15.9527 -1.2047 0.9362
-3.2536 -15.9371 -1.1926 0.9368
-2.5875 -15.9217 -1.1827 0.9374
-1.2829 -15.8917 -1.1690 0.9381
3.2231 -15.7879 -1.1815 0.9374
7.8910 -27.2428 -2.0796 0.8925
6.7079 -15.7441 -1.2548 0.9337
7.4453 -15.6907 -1.2734 0.9327
8.2256 -15.6727 -1.2978 0.9315
9.8866 -15.6344 -1.3563 0.9285
10.8527 -15.7228 -1.4008 0.9262
12.8263 -15.7093 -1.4870 0.9219
14.9947 -15.6112 -1.5871 0.9168
16.3121 -15.6680 -1.6584 0.9133
17.6277 -15.6168 -1.7268 0.9099
18.8946 -15.4269 -1.7885 0.9068
25.6121 -19.2463 -2.3491 0.8794
26.3500 -18.1881 -2.3476 0.8795
28.8177 -18.2232 -2.5000 0.8722
30.1905 -15.8452 -2.5000 0.8722
30.8041 -14.6167 -2.5000 0.8722
31.8803 -12.0906 -2.5000 0.8722
32.3413 -10.7971 -2.5000 0.8722
32.7498 -9.4861 -2.5000 0.8722
33.1052 -8.1597 -2.5000 0.8722
33.4069 -6.8201 -2.5000 0.8722
33.9854 -2.7436 -2.5000 0.8722
34.0683 1.3729 -2.5000 0.8722
33.8473 4.1098 -2.5000 0.8722
33.6545 5.4694 -2.5000 0.8722
33.1053 8.1597 -2.5000 0.8722
32.7499 9.4862 -2.5000 0.8722
32.3414 10.7972 -2.5000 0.8722
31.8804 12.0906 -2.5000 0.8722
16.7164 7.9320 -1.3567 0.9285
13.4726 9.2995 -1.2003 0.9365
10.3740 8.4701 -0.9820 0.9477
8.8317 8.4830 -0.8979 0.9521
8.2199 8.5578 -0.8700 0.9535
7.8811 9.6526 -0.9137 0.9512
6.6627 9.6526 -0.8600 0.9540
4.1923 8.8352 -0.7170 0.9615
3.8962 9.1447 -0.7288 0.9609
2.7691 8.2945 -0.6412 0.9655
2.0396 8.2749 -0.6249 0.9664
1.6797 8.2278 -0.6157 0.9669
0.3878 9.6241 -0.7062 0.9621
-1.1755 9.6811 -0.7151 0.9616
-1.7739 8.6893 -0.6503 0.9651
-3.2003 9.5860 -0.7410 0.9603
-4.1007 9.6246 -0.7671 0.9589
-4.6087 8.7811 -0.7271 0.9610
-4.8508 8.4019 -0.7113 0.9618
-5.2004 8.2238 -0.7134 0.9617
-6.1371 8.1670 -0.7490 0.9599
-21.2309 26.0032 -2.4614 0.8740
-22.2608 25.1272 -2.4614 0.8740
-23.2545 24.2104 -2.4614 0.8740
-25.1272 22.2609 -2.4614 0.8740
-25.4984 20.8188 -2.4136 0.8763
-26.6490 16.8519 -2.3119 0.8812
-25.7329 14.8569 -2.1787 0.8877
-29.0941 12.3958 -2.3188 0.8809
-29.8550 11.3225 -2.3412 0.8798
-31.0743 7.6591 -2.3466 0.8795
-31.6093 5.1370 -2.3481 0.8795
-31.7862 3.8595 -2.3477 0.8795
-34.0682 1.3729 -2.5000 0.8722
-26.0349 0.0000 -2.4995 0.9007
-25.7030 -4.1771 -2.5000 0.9006
-25.5139 -5.2087 -2.5000 0.9006
-25.2835 -6.2318 -2.5000 0.9006
-25.0120 -7.2448 -2.5000 0.9006
-24.7000 -8.2461 -2.5000 0.9006
-24.3479 -9.2340 -2.5000 0.9006
-23.0574 -12.1015 -2.5000 0.9006
-22.5514 -13.0201 -2.5000 0.9006
-20.9075 -13.2211 -2.3749 0.9054
-20.1243 -13.8908 -2.3476 0.9064
-19.5486 -14.6898 -2.3476 0.9064
-16.9624 -17.6598 -2.3508 0.9063
-14.3454 -16.1926 -2.0769 0.9167
-13.1993 -16.1662 -2.0036 0.9196
-12.1296 -16.1416 -1.9384 0.9221
-13.0704 -20.6693 -2.3478 0.9064
-10.4776 -22.0811 -2.3464 0.9065
-6.8252 -16.0194 -1.6717 0.9324
-6.0687 -16.0019 -1.6430 0.9335
-5.3208 -15.9376 -1.6131 0.9347
-3.9320 -15.9527 -1.5774 0.9361
-1.9314 -15.9066 -1.5383 0.9376
-1.2829 -15.8917 -1.5306 0.9379
-0.6398 -15.8769 -1.5255 0.9381
1.2782 -15.8327 -1.5250 0.9382
2.9439 -24.2453 -2.3448 0.9065
3.9181 -24.1091 -2.3450 0.9065
4.8862 -23.9341 -2.3452 0.9065
6.7979 -23.4691 -2.3458 0.9065
7.7386 -23.1798 -2.3461 0.9065
8.6671 -22.8531 -2.3465 0.9065
6.7107 -15.7506 -1.6437 0.9335
10.7904 -15.6325 -1.8236 0.9265
11.7168 -15.5923 -1.8725 0.9246
12.7120 -15.5693 -1.9297 0.9224
16.9714 -17.6690 -2.3521 0.9062
16.9609 -16.2912 -2.2578 0.9098
19.5486 -14.6898 -2.3476 0.9064
20.1242 -13.8907 -2.3476 0.9064
20.8819 -13.2049 -2.3720 0.9055
23.0574 -12.1015 -2.5000 0.9006
23.9564 -10.2069 -2.5000 0.9006
24.3480 -9.2341 -2.5000 0.9006
25.0121 -7.2449 -2.5000 0.9006
25.9557 -2.0954 -2.5000 0.9006
26.0190 -1.0485 -2.5000 0.9006
26.0402 0.0000 -2.5000 0.9006
26.0190 1.0485 -2.5000 0.9006
25.9557 2.0954 -2.5000 0.9006
24.1360 3.9225 -2.3476 0.9064
14.9511 7.0944 -1.5888 0.9357
14.9910 7.8679 -1.6254 0.9342
13.4749 7.7797 -1.4938 0.9394
13.4738 8.5203 -1.5305 0.9379
10.8609 8.1614 -1.3043 0.9469
10.3337 8.4372 -1.2808 0.9478
8.7937 8.4465 -1.1706 0.9522
6.6627 9.6526 -1.1260 0.9540
5.2133 8.2442 -0.9365 0.9616
4.3308 8.2517 -0.8947 0.9632
3.9504 8.3252 -0.8847 0.9636
3.8962 9.1447 -0.9543 0.9608
3.2507 8.5714 -0.8801 0.9638
2.7691 8.2945 -0.8395 0.9655
2.3531 8.1240 -0.8120 0.9666
2.0145 8.1730 -0.8081 0.9667
1.6797 8.2278 -0.8062 0.9668
1.3633 8.3890 -0.8160 0.9664
1.0436 8.5951 -0.8312 0.9658
0.7326 9.0750 -0.8741 0.9641
-0.0000 8.2166 -0.7888 0.9675
-1.6419 8.0427 -0.7881 0.9676
-2.3862 9.6811 -0.9573 0.9607
-2.8042 9.6811 -0.9676 0.9603
-3.2672 8.6149 -0.8846 0.9637
-4.3048 9.0723 -0.9641 0.9605
-5.2004 8.2238 -0.9341 0.9617
-5.6274 8.1527 -0.9511 0.9610
-6.2025 8.2541 -0.9912 0.9594
-17.7602 18.4904 -2.4614 0.9021
-18.4903 17.7602 -2.4614 0.9021
-19.8595 16.2147 -2.4614 0.9021
-20.4963 15.4019 -2.4614 0.9021
-22.7015 11.9147 -2.4614 0.9021
-23.1629 10.9909 -2.4614 0.9021
-23.5866 10.0493 -2.4614 0.9021
-23.9721 9.0914 -2.4614 0.9021
-24.6259 7.1330 -2.4614 0.9021
-24.8990 6.1371 -2.4620 0.9021
-25.2115 5.1470 -2.4704 0.9018
-25.8238 3.1356 -2.4974 0.9007
-25.9362 2.0938 -2.4981 0.9007
-26.0066 1.0480 -2.4988 0.9007
-21.0291 -0.8475 -2.5000 0.9187
-20.7736 -3.3760 -2.5000 0.9187
-19.3620 -8.2494 -2.5000 0.9187
-19.0141 -9.0223 -2.5000 0.9187
-17.3206 -11.9556 -2.5000 0.9187
-16.1669 -13.1999 -2.4792 0.9194
-14.9222 -13.2200 -2.3681 0.9228
-13.6904 -14.2532 -2.3476 0.9235
-13.1054 -14.7929 -2.3476 0.9235
-10.5671 -16.7105 -2.3486 0.9234
-9.1990 -17.5273 -2.3513 0.9234
-6.0687 -16.0019 -2.0329 0.9334
-3.9320 -15.9527 -1.9517 0.9360
-3.2536 -15.9371 -1.9321 0.9366
-1.9314 -15.9066 -1.9034 0.9375
0.0000 -15.8622 -1.8842 0.9381
1.9207 -15.8179 -1.8927 0.9378
2.5682 -15.8030 -1.9018 0.9375
4.5641 -15.7570 -1.9486 0.9361
5.9636 -15.7248 -1.9977 0.9345
6.7480 -15.8382 -2.0450 0.9330
8.4873 -17.8867 -2.3517 0.9233
9.1947 -17.5190 -2.3502 0.9234
10.5641 -16.7057 -2.3479 0.9235
13.1054 -14.7929 -2.3476 0.9235
14.2532 -13.6904 -2.3476 0.9235
14.9092 -13.2084 -2.3660 0.9229
16.1516 -13.1874 -2.4769 0.9194
17.3206 -11.9556 -2.5000 0.9187
17.7880 -11.2484 -2.5000 0.9187
19.0141 -9.0223 -2.5000 0.9187
19.3620 -8.2494 -2.5000 0.9187
19.9630 -6.6646 -2.5000 0.9187
20.2152 -5.8554 -2.5000 0.9187
20.4346 -5.0367 -2.5000 0.9187
20.6208 -4.2098 -2.5000 0.9187
20.7736 -3.3760 -2.5000 0.9187
20.8927 -2.5368 -2.5000 0.9187
20.9779 -1.6935 -2.5000 0.9187
21.0291 -0.8474 -2.5000 0.9187
21.0291 0.8475 -2.5000 0.9187
20.8927 2.5368 -2.5000 0.9187
19.1889 4.7296 -2.3476 0.9235
18.9829 5.4985 -2.3476 0.9235
18.4658 7.0032 -2.3459 0.9235
13.4762 7.0728 -1.8079 0.9405
13.4738 8.5203 -1.8937 0.9378
12.1876 8.4125 -1.7591 0.9421
10.8609 8.1614 -1.6138 0.9467
10.3337 8.4372 -1.5847 0.9477
10.1042 8.9515 -1.6035 0.9471
8.7937 8.4465 -1.4484 0.9521
8.1129 8.4465 -1.3912 0.9539
7.8811 9.6526 -1.4802 0.9510
3.8671 9.0765 -1.1719 0.9610
2.7691 8.2945 -1.0387 0.9654
1.3633 8.3890 -1.0096 0.9663
1.0515 8.6604 -1.0363 0.9655
-0.0000 8.0366 -0.9546 0.9681
-0.3862 9.5822 -1.1392 0.9621
-0.7732 9.5778 -1.1414 0.9620
-1.1575 9.5330 -1.1407 0.9621
-1.5395 9.4729 -1.1400 0.9621
-1.6369 8.0181 -0.9721 0.9676
-1.9743 8.0099 -0.9800 0.9673
-2.6731 9.2286 -1.1413 0.9620
-3.0443 9.1189 -1.1420 0.9620
-3.3905 7.9579 -1.0275 0.9658
-4.5267 8.6248 -1.1570 0.9615
-5.2004 8.2238 -1.1558 0.9616
-12.8939 14.5542 -2.3097 0.9247
-14.3541 14.9442 -2.4614 0.9199
-14.9442 14.3541 -2.4614 0.9199
-16.5655 12.4481 -2.4614 0.9199
-17.0533 11.7710 -2.4614 0.9199
-17.5134 11.0748 -2.4614 0.9199
-18.3478 9.6296 -2.4614 0.9199
-18.7206 8.8830 -2.4614 0.9199
-19.0632 8.1220 -2.4614 0.9199
-19.3774 7.3489 -2.4617 0.9199
-19.7288 6.5864 -2.4706 0.9196
-20.0139 5.7971 -2.4751 0.9195
-20.2684 4.9957 -2.4797 0.9194
-20.5451 4.1943 -2.4908 0.9190
-20.8827 2.5356 -2.4988 0.9188
-17.6298 -0.7105 -2.5000 0.9312
-17.1314 -4.2225 -2.5000 0.9312
-16.9475 -4.9089 -2.5000 0.9312
-16.7361 -5.5873 -2.5000 0.9312
-16.4976 -6.2567 -2.5000 0.9312
-15.6231 -8.1996 -2.5000 0.9312
-15.2803 -8.8221 -2.5000 0.9312
-14.9126 -9.4302 -2.5000 0.9312
-13.6673 -11.1589 -2.5000 0.9312
-13.2068 -11.7002 -2.5000 0.9312
-11.6895 -13.1947 -2.4977 0.9313
-10.7851 -13.2094 -2.4162 0.9334
-9.9534 -13.2456 -2.3476 0.9353
-9.4120 -13.6356 -2.3476 0.9353
-8.2843 -14.3488 -2.3476 0.9353
-5.8753 -15.4919 -2.3476 0.9353
-5.2470 -15.7167 -2.3477 0.9353
-3.9657 -16.0894 -2.3479 0.9352
-2.6583 -16.3573 -2.3481 0.9352
-1.3335 -16.5187 -2.3481 0.9352
0.6350 -15.7578 -2.2345 0.9383
2.6581 -16.3561 -2.3479 0.9352
3.3145 -16.2351 -2.3478 0.9352
3.9653 -16.0877 -2.3477 0.9353
5.2467 -15.7159 -2.3476 0.9353
7.1028 -14.9689 -2.3476 0.9353
8.8553 -14.0036 -2.3476 0.9353
9.4120 -13.6356 -2.3476 0.9353
11.6815 -13.1856 -2.4960 0.9313
12.2225 -12.7250 -2.5000 0.9312
12.7250 -12.2225 -2.5000 0.9312
13.2068 -11.7002 -2.5000 0.9312
15.2803 -8.8221 -2.5000 0.9312
15.9406 -7.5639 -2.5000 0.9312
16.7361 -5.5873 -2.5000 0.9312
16.9475 -4.9089 -2.5000 0.9312
17.2875 -3.5293 -2.5000 0.9312
17.4156 -2.8303 -2.5000 0.9312
17.5869 -1.4198 -2.5000 0.9312
17.6298 -0.7104 -2.5000 0.9312
17.5869 1.4198 -2.5000 0.9312
16.0871 3.9651 -2.3476 0.9353
15.7158 5.2467 -2.3476 0.9353
15.2427 6.4943 -2.3476 0.9353
13.5019 7.0864 -2.1606 0.9403
13.4736 8.5202 -2.2587 0.9376
10.8609 8.1614 -1.9249 0.9466
10.3337 8.4372 -1.8902 0.9475
8.7937 8.4465 -1.7276 0.9519
7.0109 7.9136 -1.4980 0.9582
7.3817 9.0410 -1.6538 0.9539
4.7417 8.2128 -1.3437 0.9624
4.3104 8.2128 -1.3142 0.9632
3.8962 9.1447 -1.4084 0.9606
3.4483 9.0923 -1.3778 0.9615
2.7691 8.2945 -1.2390 0.9653
2.3531 8.1240 -1.1984 0.9664
2.0010 8.1183 -1.1847 0.9668
0.7326 9.0750 -1.2900 0.9639
0.3878 9.6241 -1.3647 0.9618
-0.3594 8.9189 -1.2647 0.9646
-1.0750 8.8532 -1.2636 0.9646
-1.6011 7.8425 -1.1341 0.9682
-1.9306 7.8328 -1.1430 0.9679
-2.5376 8.7606 -1.2923 0.9638
-4.3085 9.0799 -1.4240 0.9602
-4.6087 8.7811 -1.4051 0.9607
-5.2004 8.2238 -1.3787 0.9615
-10.3303 12.6522 -2.3143 0.9361
-11.3114 11.7764 -2.3136 0.9362
-11.7700 11.3052 -2.3124 0.9362
-12.2092 10.8164 -2.3111 0.9362
-12.6284 10.3108 -2.3100 0.9363
-13.0279 9.7898 -2.3090 0.9363
-14.6825 9.2846 -2.4614 0.9322
-15.0444 8.6859 -2.4614 0.9322
-16.3237 6.1907 -2.4736 0.9319
-16.6091 5.5449 -2.4810 0.9317
-16.8444 4.8790 -2.4848 0.9316
-17.2800 3.5277 -2.4989 0.9312
-17.4106 2.8295 -2.4993 0.9312
-17.5136 2.1265 -2.4997 0.9312
-17.5869 1.4198 -2.5000 0.9312
-14.8687 -3.0355 -2.5000 0.9403
-14.5763 -4.2221 -2.5000 0.9403
-14.3944 -4.8056 -2.5000 0.9403
-12.1319 -9.1165 -2.5000 0.9403
-10.5124 -10.9445 -2.5000 0.9403
-10.0632 -11.3589 -2.5000 0.9403
-9.1165 -12.1319 -2.5000 0.9403
-8.6206 -12.4891 -2.5000 0.9403
-8.1107 -12.8261 -2.5000 0.9403
-7.5877 -13.1423 -2.5000 0.9403
-6.9281 -13.2005 -2.4560 0.9414
-5.0532 -13.3243 -2.3476 0.9439
-4.5126 -13.5169 -2.3476 0.9439
-3.9647 -13.6877 -2.3476 0.9439
-1.7177 -14.1464 -2.3476 0.9439
-1.1467 -14.2041 -2.3476 0.9439
1.1467 -14.2041 -2.3476 0.9439
1.7177 -14.1464 -2.3476 0.9439
2.2859 -14.0658 -2.3476 0.9439
2.8504 -13.9623 -2.3476 0.9439
3.9647 -13.6877 -2.3476 0.9439
5.0532 -13.3243 -2.3476 0.9439
6.2654 -13.2041 -2.4077 0.9425
6.9253 -13.1951 -2.4550 0.9414
7.5876 -13.1423 -2.5000 0.9403
8.6206 -12.4891 -2.5000 0.9403
9.5976 -11.7549 -2.5000 0.9403
10.9445 -10.5124 -2.5000 0.9403
12.8261 -8.1107 -2.5000 0.9403
13.1423 -7.5877 -2.5000 0.9403
13.4372 -7.0524 -2.5000 0.9403
13.9611 -5.9483 -2.5000 0.9403
14.1892 -5.3813 -2.5000 0.9403
14.5763 -4.2221 -2.5000 0.9403
14.8687 -3.0355 -2.5000 0.9403
15.1631 -0.6110 -2.5000 0.9403
15.1754 0.0000 -2.5000 0.9403
14.9789 2.4343 -2.5000 0.9403
13.9624 2.8504 -2.3476 0.9439
13.3243 5.0532 -2.3476 0.9439
13.1100 5.5856 -2.3476 0.9439
12.6180 6.6224 -2.3476 0.9439
12.2985 7.1005 -2.3395 0.9441
11.6818 8.0634 -2.3384 0.9441
10.3337 8.4372 -2.1977 0.9474
9.9825 8.8437 -2.1970 0.9474
8.1129 8.4465 -1.9294 0.9536
7.0405 7.9471 -1.7491 0.9579
6.2046 8.9890 -1.7994 0.9567
4.7417 8.2128 -1.5623 0.9623
3.8962 9.1447 -1.6375 0.9605
3.4483 9.0923 -1.6020 0.9613
2.7691 8.2945 -1.4406 0.9652
2.3969 8.2749 -1.4192 0.9657
2.0396 8.2749 -1.4040 0.9660
0.7326 9.0750 -1.4999 0.9638
0.3878 9.6241 -1.5868 0.9617
-1.3950 8.5838 -1.4326 0.9654
-1.8523 7.5149 -1.2750 0.9691
-3.2537 8.5792 -1.5115 0.9635
-5.2004 8.2238 -1.6029 0.9613
-9.3159 10.5154 -2.3143 0.9446
-9.7317 10.1318 -2.3143 0.9446
-10.1318 9.7317 -2.3143 0.9446
-11.8602 7.5000 -2.3117 0.9447
-12.4392 6.5286 -2.3143 0.9446
-12.7331 6.0419 -2.3218 0.9445
-14.3322 4.7848 -2.4892 0.9406
-14.5503 4.2145 -2.4955 0.9404
-14.7308 3.6308 -2.4994 0.9403
-14.9789 2.4343 -2.5000 0.9403
-15.0648 1.8292 -2.5000 0.9403
-15.1631 0.6111 -2.5000 0.9403
-13.2036 -1.6032 -2.5000 0.9473
-13.1283 -2.1336 -2.5000 0.9473
-13.0318 -2.6605 -2.5000 0.9473
-12.9141 -3.1830 -2.5000 0.9473
-12.0164 -5.7018 -2.5000 0.9473
-11.7771 -6.1811 -2.5000 0.9473
-11.2415 -7.1087 -2.5000 0.9473
-10.9462 -7.5556 -2.5000 0.9473
-9.9556 -8.8199 -2.5000 0.9473
-8.4119 -10.3027 -2.5000 0.9473
-6.6503 -11.5186 -2.5000 0.9473
-5.7018 -12.0164 -2.5000 0.9473
-4.7164 -12.4362 -2.5000 0.9473
-3.1830 -12.9141 -2.5000 0.9473
-2.6605 -13.0318 -2.5000 0.9473
-2.1335 -13.1283 -2.5000 0.9473
-1.6016 -13.1906 -2.4975 0.9474
-1.0650 -13.1923 -2.4877 0.9476
0.5316 -13.1927 -2.4817 0.9477
2.1335 -13.1283 -2.5000 0.9473
2.6604 -13.0318 -2.5000 0.9473
5.7018 -12.0164 -2.5000 0.9473
6.1811 -11.7771 -2.5000 0.9473
6.6503 -11.5186 -2.5000 0.9473
7.1087 -11.2415 -2.5000 0.9473
7.5556 -10.9461 -2.5000 0.9473
8.8199 -9.9556 -2.5000 0.9473
9.5924 -9.2136 -2.5000 0.9473
11.5186 -6.6503 -2.5000 0.9473
11.7771 -6.1811 -2.5000 0.9473
12.0164 -5.7018 -2.5000 0.9473
12.2362 -5.2134 -2.5000 0.9473
13.0318 -2.6605 -2.5000 0.9473
13.2574 -1.0703 -2.5000 0.9473
13.2898 -0.5356 -2.5000 0.9473
13.2898 0.5356 -2.5000 0.9473
13.2574 1.0702 -2.5000 0.9473
13.2036 1.6032 -2.5000 0.9473
11.4903 4.8956 -2.3476 0.9504
11.2839 5.3542 -2.3476 0.9504
11.0591 5.8043 -2.3476 0.9504
9.9304 7.4622 -2.3348 0.9507
8.9665 8.6124 -2.3369 0.9507
6.1332 8.1618 -1.9190 0.9593
3.9005 8.2201 -1.7102 0.9636
3.4483 9.0923 -1.8278 0.9612
2.0396 8.2749 -1.6019 0.9659
1.3633 8.3890 -1.5975 0.9660
1.0704 8.8161 -1.6692 0.9645
0.3878 9.6243 -1.8105 0.9616
0.0000 7.5353 -1.4163 0.9698
-1.5332 7.5100 -1.4407 0.9693
-1.8480 7.4977 -1.4515 0.9691
-2.4327 8.3986 -1.6435 0.9650
-2.8033 8.3971 -1.6640 0.9646
-3.1618 8.3370 -1.6759 0.9644
-4.5884 8.7425 -1.8558 0.9606
-4.8508 8.4019 -1.8235 0.9613
-5.2004 8.2238 -1.8289 0.9612
-5.6933 8.2482 -1.8838 0.9600
-6.1371 8.1670 -1.9202 0.9593
-7.7926 9.5442 -2.3159 0.9511
-9.5376 7.7872 -2.3143 0.9511
-10.1319 6.9935 -2.3140 0.9511
-10.4624 6.6160 -2.3267 0.9509
-11.4800 4.8912 -2.3455 0.9505
-12.6019 4.2071 -2.4972 0.9474
-13.0318 2.6605 -2.5000 0.9473
-13.2036 1.6032 -2.5000 0.9473
-13.2898 0.5355 -2.5000 0.9473
-11.8174 -0.4762 -2.5000 0.9528
-11.7886 -0.9517 -2.5000 0.9528
-11.7408 -1.4256 -2.5000 0.9528
-11.6738 -1.8972 -2.5000 0.9528
-11.5880 -2.3657 -2.5000 0.9528
-11.3600 -3.2905 -2.5000 0.9528
-11.2183 -3.7452 -2.5000 0.9528
-11.0584 -4.1939 -2.5000 0.9528
-10.6851 -5.0701 -2.5000 0.9528
-9.9960 -6.3211 -2.5000 0.9528
-9.7334 -6.7185 -2.5000 0.9528
-9.1613 -7.4799 -2.5000 0.9528
-8.8526 -7.8427 -2.5000 0.9528
-8.5296 -8.1928 -2.5000 0.9528
-7.8427 -8.8526 -2.5000 0.9528
-6.7185 -9.7334 -2.5000 0.9528
-6.3211 -9.9961 -2.5000 0.9528
-5.4963 -10.4723 -2.5000 0.9528
-5.0701 -10.6851 -2.5000 0.9528
-3.7454 -11.2183 -2.5000 0.9528
-3.2904 -11.3600 -2.5000 0.9528
-1.8972 -11.6738 -2.5000 0.9528
-1.4256 -11.7407 -2.5000 0.9528
-0.4762 -11.8174 -2.5000 0.9528
0.0000 -11.8270 -2.5000 0.9528
0.4762 -11.8174 -2.5000 0.9528
1.4256 -11.7407 -2.5000 0.9528
3.2905 -11.3600 -2.5000 0.9528
4.1939 -11.0584 -2.5000 0.9528
5.4964 -10.4722 -2.5000 0.9528
5.9135 -10.2425 -2.5000 0.9528
6.3211 -9.9960 -2.5000 0.9528
6.7184 -9.7334 -2.5000 0.9528
7.1050 -9.4550 -2.5000 0.9528
7.4799 -9.1612 -2.5000 0.9528
7.8427 -8.8526 -2.5000 0.9528
8.8526 -7.8427 -2.5000 0.9528
9.1612 -7.4799 -2.5000 0.9528
10.2425 -5.9135 -2.5000 0.9528
10.6851 -5.0701 -2.5000 0.9528
11.2183 -3.7452 -2.5000 0.9528
11.3600 -3.2905 -2.5000 0.9528
11.6738 -1.8972 -2.5000 0.9528
11.7407 -1.4256 -2.5000 0.9528
11.8174 0.4762 -2.5000 0.9528
11.7407 1.4256 -2.5000 0.9528
11.6738 1.8972 -2.5000 0.9528
11.0244 2.7173 -2.4001 0.9546
10.3843 3.9382 -2.3476 0.9556
10.2173 4.3532 -2.3476 0.9556
10.0337 4.7610 -2.3476 0.9556
9.8339 5.1612 -2.3476 0.9556
9.6181 5.5530 -2.3476 0.9556
9.3867 5.9358 -2.3476 0.9556
8.8786 6.6718 -2.3476 0.9556
7.9592 7.6449 -2.3328 0.9559
7.6468 7.9612 -2.3334 0.9559
7.0556 7.9641 -2.2491 0.9574
5.6885 8.2412 -2.1167 0.9599
5.9050 9.3380 -2.3354 0.9558
4.3104 8.2128 -1.9606 0.9628
2.3969 8.2749 -1.8210 0.9654
2.0396 8.2749 -1.8015 0.9658
1.3633 8.3890 -1.7965 0.9658
1.0635 8.7589 -1.8650 0.9646
0.3879 9.6245 -2.0361 0.9614
-0.3306 8.2043 -1.7356 0.9670
-0.9965 8.2070 -1.7475 0.9668
-2.3773 8.2075 -1.8062 0.9657
-3.3518 7.0638 -1.6527 0.9685
-5.2004 8.2238 -2.0567 0.9610
-7.5892 7.9012 -2.3158 0.9562
-8.1988 7.2635 -2.3153 0.9562
-8.6025 7.0237 -2.3475 0.9556
-9.1401 6.3089 -2.3476 0.9556
-10.0337 4.7611 -2.3476 0.9556
-10.2173 4.3532 -2.3476 0.9556
-11.3600 3.2905 -2.5000 0.9528
-11.4833 2.8304 -2.5000 0.9528
-11.5880 2.3657 -2.5000 0.9528
-11.7408 1.4256 -2.5000 0.9528
-10.6372 0.0000 -2.5000 0.9572
-10.6286 -0.4283 -2.5000 0.9572
-10.4222 -2.1277 -2.5000 0.9572
-10.3281 -2.5457 -2.5000 0.9572
-10.2172 -2.9595 -2.5000 0.9572
-9.9460 -3.7720 -2.5000 0.9572
-9.6102 -4.5601 -2.5000 0.9572
-9.2121 -5.3186 -2.5000 0.9572
-8.7542 -6.0426 -2.5000 0.9572
-8.5038 -6.3902 -2.5000 0.9572
-8.2396 -6.7274 -2.5000 0.9572
-7.9621 -7.0538 -2.5000 0.9572
-7.3686 -7.6716 -2.5000 0.9572
-7.0538 -7.9621 -2.5000 0.9572
-6.7275 -8.2396 -2.5000 0.9572
-6.0426 -8.7542 -2.5000 0.9572
-5.3186 -9.2121 -2.5000 0.9572
-4.9433 -9.4188 -2.5000 0.9572
-4.1694 -9.7860 -2.5000 0.9572
-3.7720 -9.9459 -2.5000 0.9572
-2.1277 -10.4222 -2.5000 0.9572
-0.8560 -10.6027 -2.5000 0.9572
0.0000 -10.6372 -2.5000 0.9572
0.4283 -10.6286 -2.5000 0.9572
1.7063 -10.4994 -2.5000 0.9572
2.5457 -10.3281 -2.5000 0.9572
3.3685 -10.0898 -2.5000 0.9572
3.7720 -9.9459 -2.5000 0.9572
4.1694 -9.7860 -2.5000 0.9572
4.5601 -9.6102 -2.5000 0.9572
5.3186 -9.2121 -2.5000 0.9572
6.0426 -8.7542 -2.5000 0.9572
6.3902 -8.5038 -2.5000 0.9572
7.6716 -7.3686 -2.5000 0.9572
8.5038 -6.3902 -2.5000 0.9572
8.7542 -6.0426 -2.5000 0.9572
8.9905 -5.6852 -2.5000 0.9572
9.6102 -4.5601 -2.5000 0.9572
9.9459 -3.7720 -2.5000 0.9572
10.2172 -2.9595 -2.5000 0.9572
10.3281 -2.5457 -2.5000 0.9572
10.4222 -2.1277 -2.5000 0.9572
10.4995 -1.7063 -2.5000 0.9572
10.5596 -1.2822 -2.5000 0.9572
10.6285 -0.4283 -2.5000 0.9572
10.6286 0.4283 -2.5000 0.9572
10.6027 0.8559 -2.5000 0.9572
10.4994 1.7063 -2.5000 0.9572
10.3281 2.5456 -2.5000 0.9572
9.1894 3.9152 -2.3476 0.9598
9.0243 4.2821 -2.3476 0.9598
8.4424 5.3386 -2.3476 0.9598
8.2206 5.6742 -2.3476 0.9598
7.7373 6.3173 -2.3476 0.9598
7.4767 6.6238 -2.3476 0.9598
5.9591 7.9301 -2.3313 0.9601
5.6357 8.1647 -2.3316 0.9601
5.3030 8.3860 -2.3319 0.9601
4.9615 8.5936 -2.3321 0.9600
4.6118 8.7870 -2.3323 0.9600
4.2544 8.9661 -2.3324 0.9600
3.8901 9.1304 -2.3325 0.9600
2.7691 8.2945 -2.0552 0.9647
1.6797 8.2278 -1.9736 0.9661
0.3879 9.6247 -2.2639 0.9612
-0.3231 8.0182 -1.8860 0.9676
-0.9739 8.0208 -1.8989 0.9673
-1.7416 7.0658 -1.7103 0.9705
-2.3084 7.9695 -1.9500 0.9665
-2.6275 7.8702 -1.9500 0.9665
-2.9726 7.8381 -1.9702 0.9661
-3.2661 7.6659 -1.9584 0.9663
-4.8508 8.4019 -2.2801 0.9609
-5.2004 8.2238 -2.2868 0.9608
-6.5377 7.3796 -2.3171 0.9603
-6.8781 7.1609 -2.3336 0.9600
-7.4767 6.6238 -2.3476 0.9598
-7.7373 6.3173 -2.3476 0.9598
-7.9854 6.0007 -2.3476 0.9598
-8.2206 5.6742 -2.3476 0.9598
-9.0243 4.2821 -2.3476 0.9598
-9.1894 3.9153 -2.3476 0.9598
-9.3396 3.5421 -2.3476 0.9598
-10.3281 2.5456 -2.5000 0.9572
-10.4222 2.1277 -2.5000 0.9572
-10.4994 1.7063 -2.5000 0.9572
-10.5596 1.2822 -2.5000 0.9572
-9.6555 0.0000 -2.5000 0.9609
-9.6477 -0.3888 -2.5000 0.9609
-9.6242 -0.7769 -2.5000 0.9609
-9.5851 -1.1638 -2.5000 0.9609
-9.2743 -2.6863 -2.5000 0.9609
-9.1586 -3.0576 -2.5000 0.9609
-8.8829 -3.7846 -2.5000 0.9609
-8.5496 -4.4871 -2.5000 0.9609
-7.7190 -5.8005 -2.5000 0.9609
-7.4792 -6.1066 -2.5000 0.9609
-7.2273 -6.4028 -2.5000 0.9609
-6.9636 -6.6886 -2.5000 0.9609
-6.6886 -6.9636 -2.5000 0.9609
-6.1066 -7.4792 -2.5000 0.9609
-5.8005 -7.7190 -2.5000 0.9609
-5.4850 -7.9463 -2.5000 0.9609
-5.1605 -8.1608 -2.5000 0.9609
-4.8278 -8.3619 -2.5000 0.9609
-3.0576 -9.1586 -2.5000 0.9609
-2.6863 -9.2743 -2.5000 0.9609
-2.3107 -9.3749 -2.5000 0.9609
-1.9314 -9.4604 -2.5000 0.9609
-1.5489 -9.5305 -2.5000 0.9609
-1.1638 -9.5851 -2.5000 0.9609
0.3888 -9.6477 -2.5000 0.9609
1.1638 -9.5851 -2.5000 0.9609
2.3107 -9.3749 -2.5000 0.9609
3.0575 -9.1586 -2.5000 0.9609
3.7846 -8.8829 -2.5000 0.9609
4.1392 -8.7233 -2.5000 0.9609
5.1605 -8.1608 -2.5000 0.9609
5.8005 -7.7190 -2.5000 0.9609
6.6886 -6.9636 -2.5000 0.9609
6.9636 -6.6886 -2.5000 0.9609
7.4792 -6.1066 -2.5000 0.9609
7.7190 -5.8005 -2.5000 0.9609
7.9463 -5.4850 -2.5000 0.9609
8.1607 -5.1605 -2.5000 0.9609
8.3619 -4.8278 -2.5000 0.9609
8.5495 -4.4871 -2.5000 0.9609
8.7233 -4.1392 -2.5000 0.9609
8.8829 -3.7846 -2.5000 0.9609
9.1586 -3.0576 -2.5000 0.9609
9.3749 -2.3107 -2.5000 0.9609
9.4604 -1.9313 -2.5000 0.9609
9.5851 -1.1639 -2.5000 0.9609
9.6242 -0.7769 -2.5000 0.9609
9.6477 -0.3888 -2.5000 0.9609
9.6242 0.7769 -2.5000 0.9609
9.3749 2.3107 -2.5000 0.9609
7.8522 4.5334 -2.3476 0.9632
7.6632 4.8459 -2.3476 0.9632
7.2485 5.4469 -2.3476 0.9632
6.7867 6.0125 -2.3476 0.9632
5.7243 7.0110 -2.3435 0.9633
5.4062 7.1942 -2.3300 0.9635
5.1112 7.4048 -2.3296 0.9635
4.4980 7.7907 -2.3292 0.9635
4.1809 7.9660 -2.3294 0.9635
3.8569 8.1283 -2.3295 0.9635
3.5266 8.2772 -2.3295 0.9635
3.1904 8.4125 -2.3295 0.9635
2.7691 8.2945 -2.2641 0.9645
2.3531 8.1240 -2.1899 0.9657
1.3633 8.3890 -2.2006 0.9655
0.3620 8.9821 -2.3275 0.9635
0.0000 8.9874 -2.3270 0.9635
-0.3158 7.8372 -2.0308 0.9681
-0.6328 7.8385 -2.0361 0.9680
-0.9519 7.8398 -2.0448 0.9679
-1.2743 7.8411 -2.0568 0.9677
-1.5405 7.5458 -1.9940 0.9687
-2.5568 7.6584 -2.0905 0.9672
-4.1632 7.9324 -2.3195 0.9637
-4.7868 7.5697 -2.3189 0.9637
-5.7342 7.0231 -2.3475 0.9632
-6.0125 6.7867 -2.3476 0.9632
-6.2809 6.5391 -2.3476 0.9632
-6.5391 6.2809 -2.3476 0.9632
-6.7867 6.0125 -2.3476 0.9632
-7.0233 5.7343 -2.3476 0.9632
-7.2485 5.4469 -2.3476 0.9632
-7.4619 5.1506 -2.3476 0.9632
-7.8522 4.5335 -2.3476 0.9632
-8.0284 4.2136 -2.3476 0.9632
-8.4777 3.2152 -2.3476 0.9632
-8.6003 2.8712 -2.3476 0.9632
-9.2743 2.6863 -2.5000 0.9609
-9.3750 2.3107 -2.5000 0.9609
-9.4604 1.9313 -2.5000 0.9609
-9.5305 1.5488 -2.5000 0.9609
-9.5851 1.1638 -2.5000 0.9609
-9.6242 0.7769 -2.5000 0.9609
-8.8310 0.0000 -2.5000 0.9640
-8.8238 -0.3556 -2.5000 0.9640
-8.7666 -1.0645 -2.5000 0.9640
-8.4823 -2.4569 -2.5000 0.9640
-8.3765 -2.7965 -2.5000 0.9640
-8.2571 -3.1315 -2.5000 0.9640
-8.1243 -3.4614 -2.5000 0.9640
-7.8194 -4.1040 -2.5000 0.9640
-7.2677 -5.0166 -2.5000 0.9640
-7.0599 -5.3051 -2.5000 0.9640
-6.1174 -6.3689 -2.5000 0.9640
-5.8560 -6.6101 -2.5000 0.9640
-5.0166 -7.2678 -2.5000 0.9640
-4.7199 -7.4638 -2.5000 0.9640
-4.4155 -7.6478 -2.5000 0.9640
-3.4614 -8.1243 -2.5000 0.9640
-3.1315 -8.2571 -2.5000 0.9640
-2.7965 -8.3765 -2.5000 0.9640
-2.1134 -8.5744 -2.5000 0.9640
-1.7664 -8.6525 -2.5000 0.9640
-1.4166 -8.7166 -2.5000 0.9640
-0.7106 -8.8023 -2.5000 0.9640
0.0000 -8.8310 -2.5000 0.9640
0.3556 -8.8238 -2.5000 0.9640
0.7106 -8.8023 -2.5000 0.9640
1.4166 -8.7166 -2.5000 0.9640
1.7664 -8.6525 -2.5000 0.9640
2.1134 -8.5744 -2.5000 0.9640
2.4569 -8.4823 -2.5000 0.9640
3.1315 -8.2571 -2.5000 0.9640
3.4614 -8.1243 -2.5000 0.9640
3.7858 -7.9783 -2.5000 0.9640
4.4155 -7.6479 -2.5000 0.9640
4.7199 -7.4638 -2.5000 0.9640
5.3051 -7.0599 -2.5000 0.9640
5.8560 -6.6101 -2.5000 0.9640
6.3689 -6.1174 -2.5000 0.9640
6.8405 -5.5851 -2.5000 0.9640
7.4638 -4.7199 -2.5000 0.9640
7.6478 -4.4155 -2.5000 0.9640
7.8195 -4.1040 -2.5000 0.9640
7.9783 -3.7858 -2.5000 0.9640
8.2571 -3.1315 -2.5000 0.9640
8.3765 -2.7965 -2.5000 0.9640
8.4823 -2.4569 -2.5000 0.9640
8.5744 -2.1134 -2.5000 0.9640
8.7666 -1.0645 -2.5000 0.9640
8.8238 -0.3556 -2.5000 0.9640
8.8238 0.3556 -2.5000 0.9640
8.8023 0.7106 -2.5000 0.9640
8.7166 1.4166 -2.5000 0.9640
8.5744 2.1134 -2.5000 0.9640
8.1224 2.7117 -2.4241 0.9650
7.7537 2.9406 -2.3476 0.9661
7.6290 3.2504 -2.3476 0.9661
7.4920 3.5550 -2.3476 0.9661
7.3428 3.8538 -2.3476 0.9661
7.1816 4.1463 -2.3476 0.9661
7.0088 4.4321 -2.3476 0.9661
6.6295 4.9817 -2.3476 0.9661
5.7445 5.9807 -2.3476 0.9661
5.4990 6.2071 -2.3476 0.9661
5.2446 6.4235 -2.3476 0.9661
4.4274 7.0013 -2.3451 0.9661
4.1220 7.1396 -2.3338 0.9663
3.8221 7.2823 -2.3283 0.9664
3.5252 7.4292 -2.3279 0.9664
3.2227 7.5639 -2.3275 0.9664
2.9150 7.6863 -2.3272 0.9664
2.6030 7.7969 -2.3270 0.9664
2.2869 7.8951 -2.3269 0.9664
1.9670 7.9804 -2.3268 0.9664
1.6440 8.0526 -2.3267 0.9664
1.3183 8.1116 -2.3265 0.9664
-0.3083 7.6511 -2.1677 0.9687
-0.6178 7.6524 -2.1734 0.9686
-0.9293 7.6536 -2.1826 0.9685
-1.7455 7.0819 -2.0648 0.9701
-2.1911 7.5645 -2.2295 0.9678
-2.8376 7.4820 -2.2653 0.9673
-3.1872 7.4806 -2.3019 0.9668
-4.1229 7.1411 -2.3343 0.9663
-4.4321 7.0087 -2.3475 0.9661
-4.7108 6.8247 -2.3476 0.9661
-5.2446 6.4235 -2.3476 0.9661
-5.4990 6.2071 -2.3476 0.9661
-5.7445 5.9807 -2.3476 0.9661
-5.9807 5.7445 -2.3476 0.9661
-6.2071 5.4990 -2.3476 0.9661
-6.4235 5.2446 -2.3476 0.9661
-6.6295 4.9817 -2.3476 0.9661
-6.8247 4.7108 -2.3476 0.9661
-7.0089 4.4321 -2.3476 0.9661
-7.1816 4.1463 -2.3476 0.9661
-7.4920 3.5550 -2.3476 0.9661
-8.6525 1.7664 -2.5000 0.9640
-8.7166 1.4166 -2.5000 0.9640
-8.7666 1.0644 -2.5000 0.9640
-8.8023 0.7106 -2.5000 0.9640
-8.1016 -0.6540 -2.5000 0.9666
-8.0227 -1.3038 -2.5000 0.9666
-7.8918 -1.9452 -2.5000 0.9666
-7.8071 -2.2613 -2.5000 0.9666
-7.3432 -3.4844 -2.5000 0.9666
-6.2960 -5.1405 -2.5000 0.9666
-6.0839 -5.3898 -2.5000 0.9666
-5.8619 -5.6304 -2.5000 0.9666
-4.8828 -6.4979 -2.5000 0.9666
-4.6172 -6.6892 -2.5000 0.9666
-4.3441 -6.8697 -2.5000 0.9666
-2.2613 -7.8071 -2.5000 0.9666
-1.9451 -7.8918 -2.5000 0.9666
-0.3273 -8.1214 -2.5000 0.9666
0.3273 -8.1214 -2.5000 0.9666
0.6540 -8.1016 -2.5000 0.9666
0.9797 -8.0687 -2.5000 0.9666
1.3038 -8.0227 -2.5000 0.9666
2.2613 -7.8071 -2.5000 0.9666
2.8822 -7.5998 -2.5000 0.9666
3.1859 -7.4776 -2.5000 0.9666
4.3441 -6.8697 -2.5000 0.9666
4.6172 -6.6892 -2.5000 0.9666
5.1405 -6.2960 -2.5000 0.9666
5.3898 -6.0839 -2.5000 0.9666
5.6304 -5.8619 -2.5000 0.9666
5.8619 -5.6304 -2.5000 0.9666
6.0839 -5.3898 -2.5000 0.9666
6.4978 -4.8828 -2.5000 0.9666
7.0390 -4.0640 -2.5000 0.9666
7.1969 -3.7773 -2.5000 0.9666
7.4775 -3.1859 -2.5000 0.9666
7.7097 -2.5739 -2.5000 0.9666
7.8071 -2.2613 -2.5000 0.9666
7.8918 -1.9452 -2.5000 0.9666
8.0687 -0.9797 -2.5000 0.9666
8.1016 0.6540 -2.5000 0.9666
8.0687 0.9797 -2.5000 0.9666
8.0227 1.3038 -2.5000 0.9666
7.8070 2.2613 -2.5000 0.9666
7.1808 2.7233 -2.3622 0.9684
6.7582 3.5470 -2.3476 0.9686
6.2814 4.3357 -2.3476 0.9686
5.9122 4.8271 -2.3476 0.9686
5.7130 5.0613 -2.3476 0.9686
5.2872 5.5046 -2.3476 0.9686
4.5851 6.1017 -2.3476 0.9686
2.9878 7.0126 -2.3446 0.9686
1.8098 7.3428 -2.3261 0.9688
1.5125 7.4086 -2.3257 0.9689
1.2128 7.4624 -2.3254 0.9689
0.3043 7.5510 -2.3244 0.9689
-0.3015 7.4805 -2.3027 0.9692
-0.9086 7.4830 -2.3185 0.9689
-1.2114 7.4541 -2.3228 0.9689
-1.7476 7.0902 -2.2461 0.9699
-2.3954 7.1749 -2.3266 0.9688
-2.6948 7.1056 -2.3374 0.9687
-2.9905 7.0190 -2.3467 0.9686
-3.8162 6.6099 -2.3476 0.9686
-4.3357 6.2814 -2.3476 0.9686
-4.5852 6.1017 -2.3476 0.9686
-5.0613 5.7130 -2.3476 0.9686
-5.2872 5.5045 -2.3476 0.9686
-5.7130 5.0612 -2.3476 0.9686
-5.9122 4.8271 -2.3476 0.9686
-6.1017 4.5851 -2.3476 0.9686
-6.2814 4.3357 -2.3476 0.9686
-6.4509 4.0793 -2.3476 0.9686
-6.6099 3.8162 -2.3476 0.9686
-6.7582 3.5470 -2.3476 0.9686
-6.8956 3.2720 -2.3476 0.9686
-7.1727 2.7202 -2.3595 0.9684
-7.8070 2.2613 -2.5000 0.9666
-7.8918 1.9451 -2.5000 0.9666
-7.9637 1.6258 -2.5000 0.9666
-8.0687 0.9797 -2.5000 0.9666
-8.1214 0.3273 -2.5000 0.9666
-7.5209 -0.0000 -2.5000 0.9688
-7.5148 -0.3028 -2.5000 0.9688
-7.4965 -0.6052 -2.5000 0.9688
-7.3023 -1.7999 -2.5000 0.9688
-7.2239 -2.0925 -2.5000 0.9688
-7.1338 -2.3816 -2.5000 0.9688
-7.0322 -2.6670 -2.5000 0.9688
-6.7947 -3.2241 -2.5000 0.9688
-6.6594 -3.4951 -2.5000 0.9688
-6.5133 -3.7605 -2.5000 0.9688
-6.3566 -4.0197 -2.5000 0.9688
-6.1896 -4.2724 -2.5000 0.9688
-5.8257 -4.7566 -2.5000 0.9688
-5.2099 -5.4241 -2.5000 0.9688
-4.9873 -5.6295 -2.5000 0.9688
-4.7566 -5.8257 -2.5000 0.9688
-4.2724 -6.1896 -2.5000 0.9688
-4.0197 -6.3566 -2.5000 0.9688
-3.4951 -6.6594 -2.5000 0.9688
-1.5044 -7.3689 -2.5000 0.9688
-1.2064 -7.4235 -2.5000 0.9688
-0.9065 -7.4660 -2.5000 0.9688
-0.6052 -7.4965 -2.5000 0.9688
-0.3028 -7.5148 -2.5000 0.9688
0.0000 -7.5209 -2.5000 0.9688
0.3028 -7.5148 -2.5000 0.9688
0.9065 -7.4661 -2.5000 0.9688
2.6669 -7.0322 -2.5000 0.9688
3.2241 -6.7948 -2.5000 0.9688
3.4951 -6.6594 -2.5000 0.9688
4.2724 -6.1896 -2.5000 0.9688
4.5181 -6.0125 -2.5000 0.9688
4.7565 -5.8257 -2.5000 0.9688
4.9873 -5.6295 -2.5000 0.9688
5.2099 -5.4241 -2.5000 0.9688
5.8257 -4.7566 -2.5000 0.9688
6.3566 -4.0197 -2.5000 0.9688
6.9191 -2.9479 -2.5000 0.9688
7.0321 -2.6670 -2.5000 0.9688
7.3023 -1.7999 -2.5000 0.9688
7.4235 -1.2064 -2.5000 0.9688
7.4661 -0.9065 -2.5000 0.9688
7.5148 -0.3028 -2.5000 0.9688
7.4235 1.2064 -2.5000 0.9688
7.3689 1.5044 -2.5000 0.9688
6.3805 3.0276 -2.3476 0.9707
6.2534 3.2821 -2.3476 0.9707
5.9691 3.7746 -2.3476 0.9707
5.8123 4.0119 -2.3476 0.9707
5.2863 4.6832 -2.3476 0.9707
4.8923 5.0934 -2.3476 0.9707
4.6832 5.2863 -2.3476 0.9707
4.4666 5.4706 -2.3476 0.9707
3.5312 6.1162 -2.3476 0.9707
3.0276 6.3805 -2.3476 0.9707
2.5044 6.6035 -2.3476 0.9707
2.2364 6.6990 -2.3476 0.9707
1.6901 6.8572 -2.3476 0.9707
0.8508 7.0067 -2.3462 0.9707
0.5674 7.0287 -2.3440 0.9707
0.0000 7.0467 -2.3424 0.9707
-0.5675 7.0299 -2.3444 0.9707
-1.4127 6.9197 -2.3476 0.9707
-1.9649 6.7836 -2.3476 0.9707
-2.2364 6.6990 -2.3476 0.9707
-2.5044 6.6035 -2.3476 0.9707
-3.0276 6.3805 -2.3476 0.9707
-3.7746 5.9691 -2.3476 0.9707
-4.2427 5.6460 -2.3476 0.9707
-4.4666 5.4706 -2.3476 0.9707
-4.6832 5.2863 -2.3476 0.9707
-5.0934 4.8923 -2.3476 0.9707
-5.6460 4.2427 -2.3476 0.9707
-6.1162 3.5312 -2.3476 0.9707
-6.2535 3.2821 -2.3476 0.9707
-7.0321 2.6669 -2.5000 0.9688
-7.1338 2.3816 -2.5000 0.9688
-7.3023 1.7999 -2.5000 0.9688
-7.5148 0.3028 -2.5000 0.9688
-6.9852 -0.2815 -2.5000 0.9707
-6.9399 -0.8427 -2.5000 0.9707
-6.9003 -1.1214 -2.5000 0.9707
-6.8496 -1.3984 -2.5000 0.9707
-6.7878 -1.6730 -2.5000 0.9707
-6.6311 -2.2138 -2.5000 0.9707
-6.4315 -2.7402 -2.5000 0.9707
-5.0418 -4.8427 -2.5000 0.9707
-4.8427 -5.0418 -2.5000 0.9707
-4.6358 -5.2327 -2.5000 0.9707
-4.4213 -5.4152 -2.5000 0.9707
-3.7364 -5.9086 -2.5000 0.9707
-3.2488 -6.1901 -2.5000 0.9707
-2.9969 -6.3159 -2.5000 0.9707
-2.7402 -6.4315 -2.5000 0.9707
-2.4790 -6.5366 -2.5000 0.9707
-2.2138 -6.6311 -2.5000 0.9707
-1.6730 -6.7877 -2.5000 0.9707
-1.3984 -6.8496 -2.5000 0.9707
-1.1214 -6.9003 -2.5000 0.9707
-0.5625 -6.9682 -2.5000 0.9707
-0.2815 -6.9852 -2.5000 0.9707
0.2815 -6.9852 -2.5000 0.9707
0.8426 -6.9399 -2.5000 0.9707
1.1214 -6.9003 -2.5000 0.9707
1.3983 -6.8496 -2.5000 0.9707
2.2138 -6.6311 -2.5000 0.9707
3.4954 -6.0543 -2.5000 0.9707
3.7364 -5.9086 -2.5000 0.9707
4.6358 -5.2327 -2.5000 0.9707
4.8427 -5.0418 -2.5000 0.9707
5.5888 -4.1997 -2.5000 0.9707
5.7534 -3.9713 -2.5000 0.9707
6.0543 -3.4954 -2.5000 0.9707
6.1901 -3.2488 -2.5000 0.9707
6.3159 -2.9969 -2.5000 0.9707
6.4315 -2.7402 -2.5000 0.9707
6.5366 -2.4790 -2.5000 0.9707
6.6311 -2.2138 -2.5000 0.9707
6.7877 -1.6730 -2.5000 0.9707
6.9399 -0.8427 -2.5000 0.9707
6.9852 -0.2815 -2.5000 0.9707
6.9852 0.2815 -2.5000 0.9707
6.9682 0.5625 -2.5000 0.9707
6.9399 0.8426 -2.5000 0.9707
6.9004 1.1214 -2.5000 0.9707
6.7877 1.6730 -2.5000 0.9707
6.5366 2.4790 -2.5000 0.9707
4.9138 4.3532 -2.3476 0.9725
4.5475 4.7345 -2.3476 0.9725
4.1518 5.0850 -2.3476 0.9725
3.9437 5.2481 -2.3476 0.9725
3.7292 5.4026 -2.3476 0.9725
3.2823 5.6852 -2.3476 0.9725
2.0788 6.2269 -2.3476 0.9725
1.0530 6.4797 -2.3476 0.9725
0.7913 6.5168 -2.3476 0.9725
0.2643 6.5594 -2.3476 0.9725
-0.2643 6.5594 -2.3476 0.9725
-1.0531 6.4797 -2.3476 0.9725
-1.3131 6.4320 -2.3476 0.9725
-1.8264 6.3055 -2.3476 0.9725
-2.3279 6.1381 -2.3476 0.9725
-2.8142 5.9309 -2.3476 0.9725
-3.0508 5.8128 -2.3476 0.9725
-3.7292 5.4026 -2.3476 0.9725
-3.9437 5.2481 -2.3476 0.9725
-4.1518 5.0850 -2.3476 0.9725
-5.0850 4.1518 -2.3476 0.9725
-5.2481 3.9437 -2.3476 0.9725
-5.5484 3.5086 -2.3476 0.9725
-5.8128 3.0508 -2.3476 0.9725
-6.3344 2.6988 -2.4622 0.9712
-6.5366 2.4790 -2.5000 0.9707
-6.6311 2.2138 -2.5000 0.9707
-6.7149 1.9450 -2.5000 0.9707
-6.7877 1.6730 -2.5000 0.9707
-6.9004 1.1214 -2.5000 0.9707
-6.9399 0.8426 -2.5000 0.9707
-6.9682 0.5625 -2.5000 0.9707
-3.5589 -0.1434 -1.3649 0.9849
-3.5687 -0.2881 -1.3720 0.9848
-6.0016 -2.5571 -2.5000 0.9724
-5.8938 -2.7967 -2.5000 0.9724
-5.5137 -3.4867 -2.5000 0.9724
-5.2153 -3.9190 -2.5000 0.9724
-5.0533 -4.1259 -2.5000 0.9724
-4.7049 -4.5191 -2.5000 0.9724
-4.5191 -4.7049 -2.5000 0.9724
-4.1259 -5.0533 -2.5000 0.9724
-3.9191 -5.2153 -2.5000 0.9724
-3.7059 -5.3689 -2.5000 0.9724
-3.4867 -5.5137 -2.5000 0.9724
-3.2618 -5.6496 -2.5000 0.9724
-3.0317 -5.7764 -2.5000 0.9724
-2.7967 -5.8938 -2.5000 0.9724
-2.3133 -6.0997 -2.5000 0.9724
-1.8150 -6.2661 -2.5000 0.9724
-1.3049 -6.3918 -2.5000 0.9724
-0.7863 -6.4761 -2.5000 0.9724
-0.2627 -6.5184 -2.5000 0.9724
0.5249 -6.5025 -2.5000 0.9724
0.7863 -6.4761 -2.5000 0.9724
1.0465 -6.4392 -2.5000 0.9724
1.3049 -6.3918 -2.5000 0.9724
1.5612 -6.3341 -2.5000 0.9724
2.3133 -6.0997 -2.5000 0.9724
3.4867 -5.5137 -2.5000 0.9724
3.7059 -5.3689 -2.5000 0.9724
3.9190 -5.2153 -2.5000 0.9724
4.1259 -5.0533 -2.5000 0.9724
4.3260 -4.8830 -2.5000 0.9724
4.5191 -4.7049 -2.5000 0.9724
4.8830 -4.3260 -2.5000 0.9724
5.0532 -4.1259 -2.5000 0.9724
5.2153 -3.9190 -2.5000 0.9724
5.8938 -2.7967 -2.5000 0.9724
6.1879 -2.0658 -2.5000 0.9724
6.3341 -1.5612 -2.5000 0.9724
6.3918 -1.3049 -2.5000 0.9724
6.4761 -0.7863 -2.5000 0.9724
6.5184 -0.2627 -2.5000 0.9724
6.5235 -0.0000 -2.5000 0.9724
6.5184 0.2627 -2.5000 0.9724
6.5025 0.5249 -2.5000 0.9724
6.4392 1.0465 -2.5000 0.9724
6.3341 1.5612 -2.5000 0.9724
6.1879 2.0658 -2.5000 0.9724
5.7130 2.7108 -2.4233 0.9733
5.3052 3.0630 -2.3476 0.9741
5.0416 3.4799 -2.3476 0.9741
4.8974 3.6801 -2.3476 0.9741
4.7452 3.8743 -2.3476 0.9741
4.5854 4.0623 -2.3476 0.9741
4.4181 4.2436 -2.3476 0.9741
4.0623 4.5854 -2.3476 0.9741
3.8743 4.7452 -2.3476 0.9741
3.0630 5.3053 -2.3476 0.9741
2.6261 5.5345 -2.3476 0.9741
2.1723 5.7279 -2.3476 0.9741
1.7043 5.8841 -2.3476 0.9741
0.0000 6.1260 -2.3476 0.9741
-0.2467 6.1210 -2.3476 0.9741
-0.7384 6.0813 -2.3476 0.9741
-1.2254 6.0022 -2.3476 0.9741
-1.9399 5.8107 -2.3476 0.9741
-2.6262 5.5345 -2.3476 0.9741
-3.0630 5.3053 -2.3476 0.9741
-3.8743 4.7452 -2.3476 0.9741
-4.0623 4.5854 -2.3476 0.9741
-4.2436 4.4181 -2.3476 0.9741
-4.7452 3.8743 -2.3476 0.9741
-4.8974 3.6801 -2.3476 0.9741
-5.0416 3.4800 -2.3476 0.9741
-5.1776 3.2741 -2.3476 0.9741
-5.4243 2.8469 -2.3476 0.9741
-5.7047 2.7069 -2.4198 0.9733
-6.0017 2.5570 -2.5000 0.9724
-6.0997 2.3133 -2.5000 0.9724
-6.2661 1.8150 -2.5000 0.9724
-6.3341 1.5612 -2.5000 0.9724
-3.5687 0.2881 -1.3720 0.9848
-2.8204 -0.1137 -1.1552 0.9879
-2.9323 -0.3560 -1.2089 0.9873
-3.0246 -0.4916 -1.2541 0.9868
-5.8672 -1.6995 -2.5000 0.9739
-5.7114 -2.1660 -2.5000 0.9739
-5.5186 -2.6186 -2.5000 0.9739
-5.1627 -3.2647 -2.5000 0.9739
-5.0271 -3.4699 -2.5000 0.9739
-4.7315 -3.8632 -2.5000 0.9739
-4.5721 -4.0506 -2.5000 0.9739
-3.8632 -4.7316 -2.5000 0.9739
-2.8387 -5.4087 -2.5000 0.9739
-2.6186 -5.5186 -2.5000 0.9739
-2.1661 -5.7114 -2.5000 0.9739
-1.9343 -5.7940 -2.5000 0.9739
-1.6995 -5.8672 -2.5000 0.9739
-1.2218 -5.9849 -2.5000 0.9739
-0.9799 -6.0292 -2.5000 0.9739
0.2460 -6.1034 -2.5000 0.9739
0.9799 -6.0292 -2.5000 0.9739
1.2218 -5.9849 -2.5000 0.9739
1.6995 -5.8672 -2.5000 0.9739
2.1660 -5.7114 -2.5000 0.9739
2.3942 -5.6195 -2.5000 0.9739
2.6186 -5.5186 -2.5000 0.9739
2.8387 -5.4087 -2.5000 0.9739
3.0542 -5.2900 -2.5000 0.9739
3.4699 -5.0271 -2.5000 0.9739
3.8632 -4.7316 -2.5000 0.9739
4.4053 -4.2314 -2.5000 0.9739
4.5721 -4.0506 -2.5000 0.9739
4.7315 -3.8632 -2.5000 0.9739
4.8833 -3.6695 -2.5000 0.9739
5.1627 -3.2647 -2.5000 0.9739
5.4087 -2.8387 -2.5000 0.9739
5.7114 -2.1661 -2.5000 0.9739
5.7940 -1.9343 -2.5000 0.9739
5.8672 -1.6995 -2.5000 0.9739
5.9308 -1.4618 -2.5000 0.9739
6.0292 -0.9799 -2.5000 0.9739
6.0638 -0.7363 -2.5000 0.9739
6.0885 -0.4915 -2.5000 0.9739
6.1034 -0.2460 -2.5000 0.9739
6.0885 0.4915 -2.5000 0.9739
6.0638 0.7363 -2.5000 0.9739
5.9849 1.2218 -2.5000 0.9739
5.7940 1.9343 -2.5000 0.9739
5.5186 2.6186 -2.5000 0.9739
5.1756 2.7164 -2.3923 0.9751
4.8480 3.0657 -2.3476 0.9755
4.5856 3.4458 -2.3476 0.9755
4.4431 3.6277 -2.3476 0.9755
3.4458 4.5856 -2.3476 0.9755
2.4590 5.1822 -2.3476 0.9755
2.2483 5.2770 -2.3476 0.9755
2.0340 5.3632 -2.3476 0.9755
1.8164 5.4408 -2.3476 0.9755
1.5959 5.5095 -2.3476 0.9755
1.3727 5.5693 -2.3476 0.9755
