ply
format ascii 1.0
element vertex 1587
property float32 x
property float32 y
property float32 z
property float32 I
end_header
3.2225 9.6526 -1.2088 0.9598
2.7959 9.6526 -1.1937 0.9603
2.3792 9.6526 -1.1809 0.9607
1.3347 8.2128 -0.9884 0.9670
0.9976 8.2159 -0.9831 0.9672
-0.6803 8.4265 -1.0042 0.9665
-1.0032 8.2620 -0.9886 0.9670
-1.6668 8.1643 -0.9898 0.9670
-3.2131 9.6243 -1.2053 0.9600
-3.7675 7.9399 -1.0439 0.9652
-4.6874 8.9311 -1.1981 0.9602
-5.1575 8.9330 -1.2253 0.9593
-5.2500 8.3022 -1.1668 0.9612
-6.5822 8.7593 -1.3015 0.9568
-6.9757 8.5437 -1.3102 0.9565
-6.9361 7.8292 -1.2425 0.9587
-9.3404 8.2749 -1.4823 0.9510
-16.0107 11.0514 -2.3109 0.9246
-16.4342 10.3924 -2.3097 0.9247
-17.9452 10.3606 -2.4614 0.9199
-18.3478 9.6296 -2.4614 0.9199
-19.0631 8.1220 -2.4614 0.9199
-19.6978 6.5761 -2.4668 0.9198
-20.0516 5.8080 -2.4798 0.9193
-20.3065 5.0051 -2.4843 0.9192
-20.5695 4.1993 -2.4938 0.9189
-20.8887 2.5363 -2.4995 0.9187
-20.9779 1.6935 -2.5000 0.9187
-21.0291 0.8475 -2.5000 0.9187
-17.6441 0.0000 -2.5000 0.9312
-17.1314 -4.2225 -2.5000 0.9312
-16.7361 -5.5873 -2.5000 0.9312
-15.9406 -7.5639 -2.5000 0.9312
-15.6231 -8.1996 -2.5000 0.9312
-14.5208 -10.0230 -2.5000 0.9312
-13.6672 -11.1589 -2.5000 0.9312
-13.2068 -11.7002 -2.5000 0.9312
-11.6882 -13.1932 -2.4974 0.9313
-9.9534 -13.2456 -2.3476 0.9353
-9.4120 -13.6356 -2.3476 0.9353
-7.6997 -14.6707 -2.3476 0.9353
-5.2467 -15.7159 -2.3476 0.9353
-4.6099 -15.9152 -2.3477 0.9353
-3.9655 -16.0886 -2.3478 0.9352
-2.6582 -16.3565 -2.3479 0.9352
-1.9974 -16.4506 -2.3480 0.9352
-1.3334 -16.5178 -2.3480 0.9352
-0.6672 -16.5582 -2.3480 0.9352
0.6673 -16.5579 -2.3480 0.9352
1.3334 -16.5172 -2.3479 0.9352
1.9974 -16.4496 -2.3479 0.9352
2.6580 -16.3553 -2.3478 0.9352
4.6096 -15.9144 -2.3476 0.9353
7.1028 -14.9688 -2.3476 0.9353
8.2843 -14.3488 -2.3476 0.9353
13.2068 -11.7002 -2.5000 0.9312
13.6672 -11.1589 -2.5000 0.9312
14.5208 -10.0230 -2.5000 0.9312
15.6231 -8.1996 -2.5000 0.9312
15.9406 -7.5639 -2.5000 0.9312
16.7361 -5.5873 -2.5000 0.9312
16.9475 -4.9089 -2.5000 0.9312
17.1314 -4.2225 -2.5000 0.9312
17.4157 -2.8303 -2.5000 0.9312
17.5155 -2.1268 -2.5000 0.9312
17.5155 2.1268 -2.5000 0.9312
16.7399 2.7205 -2.4030 0.9338
13.8387 3.4109 -2.0195 0.9440
15.2427 6.4943 -2.3459 0.9353
14.6550 7.6915 -2.3451 0.9353
13.0074 7.5098 -2.1281 0.9411
9.7660 7.9737 -1.7864 0.9503
9.7641 9.3785 -1.9183 0.9468
7.9244 8.2501 -1.6208 0.9548
6.8311 8.3665 -1.5304 0.9573
6.2578 9.0660 -1.5608 0.9565
4.4330 8.4465 -1.3516 0.9622
4.1072 8.6558 -1.3575 0.9620
3.5473 8.3258 -1.2823 0.9641
3.6607 9.6526 -1.4627 0.9592
3.2225 9.6526 -1.4419 0.9597
2.3792 9.6526 -1.4086 0.9606
1.6767 8.2128 -1.1877 0.9667
-0.6803 8.4266 -1.1978 0.9664
-1.0032 8.2620 -1.1792 0.9669
-2.0129 8.1667 -1.1918 0.9666
-2.4388 8.4198 -1.2420 0.9652
-3.6948 7.7866 -1.2212 0.9658
-4.9555 8.5832 -1.4043 0.9608
-5.7184 7.6099 -1.3487 0.9623
-7.1828 7.4781 -1.4692 0.9590
-15.3991 5.8401 -2.3335 0.9356
-15.6612 5.2285 -2.3394 0.9355
-16.8761 4.8882 -2.4895 0.9315
-17.1072 4.2166 -2.4965 0.9313
-17.2850 3.5288 -2.4996 0.9312
-15.1754 0.0000 -2.5000 0.9403
-15.1631 -0.6110 -2.5000 0.9403
-15.1262 -1.2211 -2.5000 0.9403
-14.8687 -3.0355 -2.5000 0.9403
-14.7344 -3.6317 -2.5000 0.9403
-14.1893 -5.3813 -2.5000 0.9403
-13.9611 -5.9482 -2.5000 0.9403
-13.7102 -6.5056 -2.5000 0.9403
-13.1423 -7.5877 -2.5000 0.9403
-12.1319 -9.1165 -2.5000 0.9403
-11.3590 -10.0632 -2.5000 0.9403
-10.9446 -10.5124 -2.5000 0.9403
-10.5124 -10.9445 -2.5000 0.9403
-10.0631 -11.3589 -2.5000 0.9403
-9.5976 -11.7549 -2.5000 0.9403
-8.6206 -12.4891 -2.5000 0.9403
-7.5875 -13.1423 -2.5000 0.9403
-6.9274 -13.1990 -2.4557 0.9414
-6.2671 -13.2075 -2.4083 0.9425
-4.5126 -13.5169 -2.3476 0.9439
0.0000 -14.2503 -2.3476 0.9439
1.7177 -14.1464 -2.3476 0.9439
3.4103 -13.8362 -2.3476 0.9439
4.5126 -13.5169 -2.3476 0.9439
5.6286 -13.2107 -2.3656 0.9434
6.2648 -13.2027 -2.4074 0.9425
8.1108 -12.8261 -2.5000 0.9403
8.6206 -12.4891 -2.5000 0.9403
9.5976 -11.7549 -2.5000 0.9403
11.3590 -10.0631 -2.5000 0.9403
12.4891 -8.6206 -2.5000 0.9403
13.1423 -7.5877 -2.5000 0.9403
13.4372 -7.0524 -2.5000 0.9403
13.7102 -6.5056 -2.5000 0.9403
13.9611 -5.9482 -2.5000 0.9403
14.1893 -5.3812 -2.5000 0.9403
14.3944 -4.8056 -2.5000 0.9403
15.0648 -1.8292 -2.5000 0.9403
15.1631 0.6111 -2.5000 0.9403
15.0648 1.8292 -2.5000 0.9403
14.9789 2.4343 -2.5000 0.9403
13.9624 2.8504 -2.3476 0.9439
13.6877 3.9647 -2.3476 0.9439
13.3243 5.0532 -2.3476 0.9439
12.8745 6.1090 -2.3476 0.9439
11.2803 7.1332 -2.1987 0.9473
11.0907 7.6554 -2.2201 0.9468
9.7666 7.3391 -2.0126 0.9517
9.7641 9.3786 -2.2303 0.9466
7.2208 8.1506 -1.7939 0.9568
6.8311 8.3665 -1.7794 0.9572
4.8766 8.4465 -1.6067 0.9612
3.3588 7.8835 -1.4117 0.9659
3.2225 9.6526 -1.6764 0.9596
2.7959 9.6526 -1.6555 0.9601
2.3792 9.6526 -1.6378 0.9605
1.6767 8.2128 -1.3809 0.9666
0.9972 8.2128 -1.3629 0.9670
0.6630 8.2128 -1.3574 0.9671
0.0000 14.1561 -2.3321 0.9442
-1.0032 8.2620 -1.3711 0.9668
-1.3448 8.2749 -1.3811 0.9666
-1.6893 8.2749 -1.3913 0.9663
-2.4388 8.4198 -1.4441 0.9651
-3.2131 9.6243 -1.6715 0.9597
-3.7332 7.8675 -1.4346 0.9653
-3.9621 7.5492 -1.4045 0.9660
-5.5280 7.3565 -1.5159 0.9634
-6.6992 8.2050 -1.7450 0.9580
-6.9737 7.2604 -1.6584 0.9600
-8.6822 8.3393 -1.9832 0.9524
-11.5673 7.9844 -2.3155 0.9446
-11.8785 7.5116 -2.3153 0.9446
-12.3033 7.1033 -2.3404 0.9440
-13.1100 5.5857 -2.3476 0.9439
-13.3243 5.0532 -2.3476 0.9439
-13.5169 4.5126 -2.3476 0.9439
-13.8362 3.4103 -2.3476 0.9439
-14.8687 3.0355 -2.5000 0.9403
-15.1262 1.2211 -2.5000 0.9403
-15.1631 0.6111 -2.5000 0.9403
-13.2898 -0.5356 -2.5000 0.9473
-13.2036 -1.6032 -2.5000 0.9473
-13.0318 -2.6605 -2.5000 0.9473
-12.9141 -3.1830 -2.5000 0.9473
-12.7754 -3.7004 -2.5000 0.9473
-12.6161 -4.2118 -2.5000 0.9473
-12.2362 -5.2134 -2.5000 0.9473
-12.0164 -5.7018 -2.5000 0.9473
-11.7771 -6.1811 -2.5000 0.9473
-9.9556 -8.8199 -2.5000 0.9473
-8.8199 -9.9556 -2.5000 0.9473
-7.9902 -10.6330 -2.5000 0.9473
-7.5556 -10.9461 -2.5000 0.9473
-6.1811 -11.7771 -2.5000 0.9473
-5.2129 -12.2362 -2.5000 0.9473
-3.7004 -12.7754 -2.5000 0.9473
-3.1830 -12.9141 -2.5000 0.9473
-2.1336 -13.1283 -2.5000 0.9473
-1.6014 -13.1892 -2.4973 0.9474
-1.0649 -13.1908 -2.4874 0.9476
0.0000 -13.1919 -2.4796 0.9477
1.0648 -13.1900 -2.4873 0.9476
2.1335 -13.1283 -2.5000 0.9473
3.1830 -12.9141 -2.5000 0.9473
3.7005 -12.7754 -2.5000 0.94733
13119 -12.6161 -2.5000 0.9473
5.2148 -12.2362 -2.5000 0.9473
5.7019 -12.0164 -2.5000 0.9473
6.6503 -11.5186 -2.5000 0.9473
8.8199 -9.9556 -2.5000 0.9473
9.2137 -9.5924 -2.5000 0.9473
9.9556 -8.8199 -2.5000 0.9473
10.6330 -7.9902 -2.5000 0.9473
10.9462 -7.5556 -2.5000 0.9473
11.2415 -7.1087 -2.5000 0.9473
11.5186 -6.6503 -2.5000 0.9473
12.2362 -5.2134 -2.5000 0.9473
12.6161 -4.2119 -2.5000 0.9473
12.9141 -3.1830 -2.5000 0.9473
13.0318 -2.6604 -2.5000 0.9473
13.2036 -1.6032 -2.5000 0.9473
13.2574 -1.0702 -2.5000 0.9473
13.3006 0.0000 -2.5000 0.9473
13.2036 1.6032 -2.5000 0.9473
13.0318 2.6605 -2.5000 0.9473
12.1268 2.9890 -2.3476 0.9504
11.6781 4.4289 -2.3476 0.9504
11.2839 5.3543 -2.3476 0.9504
11.0591 5.8043 -2.3476 0.9504
10.5562 6.6754 -2.3476 0.9504
10.2609 7.0826 -2.3435 0.9505
9.3206 8.2574 -2.3405 0.9506
7.2208 8.1506 -2.0467 0.9566
6.2844 9.1045 -2.0794 0.9560
5.3412 8.4465 -1.8784 0.9601
4.8766 8.4465 -1.8332 0.9611
4.4330 8.4465 -1.7930 0.9619
3.3630 7.8934 -1.6127 0.9657
2.9075 8.7091 -1.7258 0.9633
2.5226 8.7091 -1.7043 0.9638
2.3792 9.6526 -1.8686 0.9603
1.3347 8.2128 -1.5639 0.9667
0.9972 8.2128 -1.5550 0.9669
0.6630 8.2128 -1.5487 0.9670
0.3310 8.2128 -1.5449 0.9671
-0.3608 8.9540 -1.6844 0.9642
-0.6803 8.4266 -1.5890 0.9662
-1.0032 8.2620 -1.5643 0.9667
-1.3448 8.2749 -1.5758 0.9665
-1.6893 8.2749 -1.5874 0.9662
-2.0129 8.1667 -1.5810 0.9663
-2.4388 8.4198 -1.6476 0.9650
-3.2131 9.6244 -1.9072 0.9595
-3.6500 9.6244 -1.9347 0.9590
-3.7332 7.8676 -1.6368 0.9652
-3.7478 7.1407 -1.5158 0.9677
-4.7384 8.2071 -1.7813 0.9622
-5.3085 7.0643 -1.6609 0.9647
-8.6822 8.3393 -2.2628 0.9522
-9.5515 7.7985 -2.3177 0.9511
-9.8569 7.4070 -2.3175 0.9511
-10.5562 6.6754 -2.3476 0.9504
-10.8164 6.2449 -2.3476 0.9504
-11.8470 3.9551 -2.3476 0.9504
-11.9966 3.4749 -2.3476 0.9504
-12.1268 2.9890 -2.3476 0.9504
-13.0318 2.6605 -2.5000 0.9473
-13.2036 1.6032 -2.5000 0.9473
-13.2574 1.0702 -2.5000 0.9473
-13.2898 0.5356 -2.5000 0.9473
-11.8270 0.0000 -2.5000 0.9528
-11.7407 -1.4256 -2.5000 0.9528
-11.6738 -1.8972 -2.5000 0.9528
-11.5879 -2.3657 -2.5000 0.9528
-11.4833 -2.8304 -2.5000 0.9528
-11.2183 -3.7452 -2.5000 0.9528
-11.0584 -4.1939 -2.5000 0.9528
-10.8806 -4.6358 -2.5000 0.9528
-10.6851 -5.0701 -2.5000 0.9528
-10.4723 -5.4963 -2.5000 0.9528
-9.7334 -6.7185 -2.5000 0.9528
-9.1612 -7.4799 -2.5000 0.9528
-8.5296 -8.1928 -2.5000 0.9528
-7.8427 -8.8526 -2.5000 0.9528
-7.4799 -9.1612 -2.5000 0.9528
-6.7185 -9.7334 -2.5000 0.9528
-5.4962 -10.4722 -2.5000 0.9528
-5.0702 -10.6851 -2.5000 0.9528
-4.6357 -10.8806 -2.5000 0.9528
-3.7451 -11.2183 -2.5000 0.9528
-3.2905 -11.3600 -2.5000 0.9528
-2.3657 -11.5880 -2.5000 0.9528
-1.8972 -11.6738 -2.5000 0.9528
-1.4256 -11.7407 -2.5000 0.9528
-0.9517 -11.7886 -2.5000 0.9528
0.0000 -11.8270 -2.5000 0.9528
0.9517 -11.7886 -2.5000 0.9528
1.4256 -11.7407 -2.5000 0.9528
1.8972 -11.6738 -2.5000 0.9528
3.2905 -11.3600 -2.5000 0.9528
3.7452 -11.2183 -2.5000 0.9528
4.1939 -11.0584 -2.5000 0.9528
5.0701 -10.6851 -2.5000 0.9528
5.4963 -10.4722 -2.5000 0.9528
5.9135 -10.2425 -2.5000 0.9528
6.3212 -9.9960 -2.5000 0.9528
7.1051 -9.4550 -2.5000 0.9528
9.4550 -7.1050 -2.5000 0.9528
9.7334 -6.7185 -2.5000 0.9528
10.4723 -5.4963 -2.5000 0.9528
10.6851 -5.0701 -2.5000 0.9528
10.8806 -4.6358 -2.5000 0.9528
11.3600 -3.2905 -2.5000 0.9528
11.4833 -2.8304 -2.5000 0.9528
11.8270 0.0000 -2.5000 0.9528
11.8174 0.4762 -2.5000 0.9528
11.7887 0.9517 -2.5000 0.9528
11.7407 1.4256 -2.5000 0.9528
11.6738 1.8972 -2.5000 0.9528
11.5880 2.3657 -2.5000 0.9528
10.6675 3.0899 -2.3476 0.9556
10.5344 3.5169 -2.3476 0.9556
10.3843 3.9382 -2.3476 0.9556
10.2173 4.3532 -2.3476 0.9556
10.0337 4.7611 -2.3476 0.9556
9.8339 5.1612 -2.3476 0.9556
9.1400 6.3089 -2.3476 0.9556
8.5846 7.0091 -2.3426 0.9557
7.6612 7.9762 -2.3378 0.9558
7.2615 8.1966 -2.3147 0.9562
6.4938 8.6417 -2.2849 0.9568
6.2354 9.0335 -2.3202 0.9561
5.9162 9.3557 -2.3398 0.9558
5.0661 9.6526 -2.3043 0.9564
3.7546 7.9127 -1.8513 0.9648
3.3159 8.7432 -1.9766 0.9625
2.9075 8.7091 -1.9408 0.9632
2.4033 8.2972 -1.8260 0.9653
2.0552 8.3382 -1.8153 0.9655
1.6767 8.2128 -1.7718 0.9663
0.0000 11.0330 -2.3322 0.9559
-0.3581 8.8862 -1.8799 0.9643
-1.0032 8.2620 -1.7593 0.9665
-2.0129 8.1667 -1.7779 0.9662
-2.4388 8.4198 -1.8529 0.9648
-3.7320 8.7593 -2.0126 0.9618
-3.7331 7.8674 -1.8407 0.9650
-3.7342 7.1150 -1.6985 0.9677
-8.2128 7.2760 -2.3193 0.9561
-8.8786 6.6718 -2.3476 0.9556
-9.1401 6.3089 -2.3476 0.9556
-9.3867 5.9358 -2.3476 0.9556
-9.6181 5.5530 -2.3476 0.9556
-10.0337 4.7610 -2.3476 0.9556
-10.3843 3.9383 -2.3476 0.9556
-10.5344 3.5169 -2.3476 0.9556
-10.9988 2.7110 -2.3945 0.9547
-11.5879 2.3657 -2.5000 0.9528
-11.6738 1.8972 -2.5000 0.9528
-11.8174 0.4762 -2.5000 0.9528
-10.6372 0.0000 -2.5000 0.9572
-10.6286 -0.4283 -2.5000 0.9572
-10.6027 -0.8559 -2.5000 0.9572
-10.5596 -1.2822 -2.5000 0.9572
-10.4222 -2.1277 -2.5000 0.9572
-10.2172 -2.9594 -2.5000 0.9572
-10.0898 -3.3685 -2.5000 0.9572
-9.9460 -3.7720 -2.5000 0.9572
-9.7860 -4.1694 -2.5000 0.9572
-9.6102 -4.5601 -2.5000 0.9572
-9.4188 -4.9433 -2.5000 0.9572
-9.2121 -5.3186 -2.5000 0.9572
-8.9904 -5.6852 -2.5000 0.9572
-8.2396 -6.7274 -2.5000 0.9572
-7.9620 -7.0538 -2.5000 0.9572
-7.3686 -7.6716 -2.5000 0.9572
-7.0538 -7.9620 -2.5000 0.9572
-6.7274 -8.2396 -2.5000 0.9572
-6.0426 -8.7542 -2.5000 0.9572
-5.6852 -8.9904 -2.5000 0.9572
-5.3186 -9.2121 -2.5000 0.9572
-4.9433 -9.4188 -2.5000 0.9572
-3.7719 -9.9459 -2.5000 0.9572
-2.5456 -10.3281 -2.5000 0.9572
-2.1277 -10.4222 -2.5000 0.9572
-0.4282 -10.6285 -2.5000 0.9572
-0.0001 -10.6372 -2.5000 0.9572
0.4286 -10.6285 -2.5000 0.9572
0.8561 -10.6027 -2.5000 0.9572
1.2822 -10.5596 -2.5000 0.9572
2.1279 -10.4222 -2.5000 0.9572
2.5457 -10.3281 -2.5000 0.9572
2.9594 -10.2172 -2.5000 0.9572
3.3685 -10.0897 -2.5000 0.9572
4.9433 -9.4188 -2.5000 0.9572
5.3186 -9.2121 -2.5000 0.9572
6.3902 -8.5038 -2.5000 0.9572
8.2396 -6.7274 -2.5000 0.9572
8.7542 -6.0426 -2.5000 0.9572
10.2172 -2.9595 -2.5000 0.9572
10.4222 -2.1277 -2.5000 0.9572
10.4994 -1.7063 -2.5000 0.9572
10.6027 -0.8559 -2.5000 0.9572
10.6372 0.0000 -2.5000 0.9572
10.6286 0.4283 -2.5000 0.9572
10.6027 0.8559 -2.5000 0.9572
10.4222 2.1277 -2.5000 0.9572
10.3281 2.5457 -2.5000 0.9572
9.3396 3.5421 -2.3476 0.9598
8.2206 5.6743 -2.3476 0.9598
7.9854 6.0007 -2.3476 0.9598
7.4767 6.6238 -2.3476 0.9598
6.8841 7.1672 -2.3356 0.9600
5.6463 8.1801 -2.3360 0.9600
5.3130 8.4018 -2.3363 0.9600
4.9708 8.6097 -2.3365 0.9600
3.3716 7.9134 -2.0216 0.9653
2.7113 8.1212 -2.0122 0.9654
2.0357 8.2592 -1.9992 0.9657
1.3347 8.2128 -1.9555 0.9664
0.9972 8.2128 -1.9444 0.9666
0.6630 8.2128 -1.9365 0.9667
0.3310 8.2128 -1.9318 0.9668
-0.3608 8.9540 -2.1061 0.9638
-1.0032 8.2620 -1.9560 0.9664
-2.4388 8.4198 -2.0602 0.9646
-3.1364 9.3948 -2.3278 0.9601
-3.5114 9.2588 -2.3273 0.9601
-3.7318 8.7589 -2.2376 0.9616
-3.7330 7.8671 -2.0465 0.9649
-3.7345 7.1155 -1.8886 0.9675
-4.4473 7.7029 -2.0904 0.9641
-5.2493 7.6049 -2.1718 0.9627
-5.3228 7.0834 -2.0824 0.9642
-6.1104 7.4838 -2.2707 0.9611
-6.5489 7.3922 -2.3211 0.9602
-7.4767 6.6238 -2.3476 0.9598
-7.7373 6.3174 -2.3476 0.9598
-7.9854 6.0007 -2.3476 0.9598
-8.6505 4.9944 -2.3476 0.9598
-8.8446 4.6420 -2.3476 0.9598
-9.4747 3.1631 -2.3476 0.9598
-9.5944 2.7790 -2.3476 0.9598
-10.3281 2.5457 -2.5000 0.9572
-10.4995 1.7063 -2.5000 0.9572
-10.6027 0.8559 -2.5000 0.9572
-10.6286 0.4283 -2.5000 0.9572
-9.6242 -0.7770 -2.5000 0.9609
-9.5851 -1.1638 -2.5000 0.9609
-9.5305 -1.5489 -2.5000 0.9609
-9.4604 -1.9313 -2.5000 0.9609
-9.0281 -3.4239 -2.5000 0.9609
-8.8829 -3.7846 -2.5000 0.9609
-7.9463 -5.4850 -2.5000 0.9609
-7.7190 -5.8005 -2.5000 0.9609
-7.2272 -6.4028 -2.5000 0.9609
-6.1066 -7.4792 -2.5000 0.9609
-5.8005 -7.7190 -2.5000 0.9609
-5.1605 -8.1607 -2.5000 0.9609
-4.8278 -8.3619 -2.5000 0.9609
-4.1392 -8.7233 -2.5000 0.9609
-3.0576 -9.1586 -2.5000 0.9609
-2.3107 -9.3749 -2.5000 0.9609
-1.5489 -9.5305 -2.5000 0.9609
-1.1638 -9.5851 -2.5000 0.9609
-0.3888 -9.6477 -2.5000 0.9609
0.3888 -9.6477 -2.5000 0.9609
1.1639 -9.5851 -2.5000 0.9609
1.5488 -9.5305 -2.5000 0.9609
1.9314 -9.4604 -2.5000 0.9609
2.3107 -9.3749 -2.5000 0.9609
3.0576 -9.1586 -2.5000 0.9609
3.4238 -9.0281 -2.5000 0.9609
3.7846 -8.8829 -2.5000 0.9609
4.1393 -8.7233 -2.5000 0.9609
4.4872 -8.5495 -2.5000 0.9609
4.8278 -8.3619 -2.5000 0.9609
5.4850 -7.9463 -2.5000 0.9609
5.8005 -7.7190 -2.5000 0.9609
6.1066 -7.4792 -2.5000 0.9609
6.4028 -7.2273 -2.5000 0.9609
6.6886 -6.9636 -2.5000 0.9609
6.9636 -6.6886 -2.5000 0.9609
7.2272 -6.4028 -2.5000 0.9609
7.4792 -6.1066 -2.5000 0.9609
8.1608 -5.1605 -2.5000 0.9609
8.3619 -4.8278 -2.5000 0.9609
8.5496 -4.4871 -2.5000 0.9609
8.8829 -3.7846 -2.5000 0.9609
9.1586 -3.0576 -2.5000 0.9609
9.3749 -2.3107 -2.5000 0.9609
9.4604 -1.9313 -2.5000 0.9609
9.5305 -1.5488 -2.5000 0.9609
9.6242 -0.7769 -2.5000 0.9609
9.6555 0.0000 -2.5000 0.9609
9.6477 0.3888 -2.5000 0.9609
9.5851 1.1639 -2.5000 0.9609
9.3749 2.3107 -2.5000 0.9609
9.2743 2.6863 -2.5000 0.9609
8.4777 3.2152 -2.3476 0.9632
8.3414 3.5539 -2.3476 0.9632
8.0284 4.2136 -2.3476 0.9632
7.8522 4.5335 -2.3476 0.9632
7.4619 5.1506 -2.3476 0.9632
7.2485 5.4469 -2.3476 0.9632
6.7867 6.0125 -2.3476 0.9632
6.5391 6.2809 -2.3476 0.9632
5.1200 7.4175 -2.3336 0.9634
4.8166 7.6169 -2.3334 0.9634
3.7444 7.8911 -2.2615 0.9646
3.3761 7.9240 -2.2301 0.9650
3.1965 8.4283 -2.3339 0.9634
2.7101 8.1176 -2.2158 0.9653
1.6819 8.2386 -2.1771 0.9659
0.3330 8.2634 -2.1413 0.9664
-0.3498 8.6795 -2.2491 0.9647
-1.3340 8.2084 -2.1532 0.9662
-1.6634 8.1480 -2.1532 0.9662
-2.4479 8.4514 -2.2782 0.9643
-2.8462 8.5255 -2.3272 0.9635
-3.1861 8.4012 -2.3264 0.9636
-3.5206 8.2632 -2.3256 0.9636
-3.7328 7.8667 -2.2545 0.9647
-3.7348 7.1161 -2.0808 0.9673
-4.3196 7.4818 -2.2368 0.9649
-5.0958 7.3826 -2.3226 0.9636
-6.5391 6.2809 -2.3476 0.9632
-7.2485 5.4469 -2.3476 0.9632
-7.4619 5.1506 -2.3476 0.9632
-8.0284 4.2136 -2.3476 0.9632
-7.7894 3.3188 -2.1922 0.9656
-8.4777 3.2152 -2.3476 0.9632
-9.2743 2.6863 -2.5000 0.9609
-9.3749 2.3107 -2.5000 0.9609
-9.6242 0.7770 -2.5000 0.9609
-9.6477 0.3888 -2.5000 0.9609
-8.7666 -1.0645 -2.5000 0.9640
-8.7166 -1.4166 -2.5000 0.9640
-8.2571 -3.1315 -2.5000 0.9640
-8.1243 -3.4614 -2.5000 0.9640
-7.4638 -4.7199 -2.5000 0.9640
-7.0598 -5.3051 -2.5000 0.9640
-6.6101 -5.8560 -2.5000 0.9640
-6.3689 -6.1174 -2.5000 0.9640
-6.1174 -6.3689 -2.5000 0.9640
-5.5851 -6.8405 -2.5000 0.9640
-5.3051 -7.0599 -2.5000 0.9640
-5.0166 -7.2677 -2.5000 0.9640
-4.4155 -7.6478 -2.5000 0.9640
-4.1040 -7.8194 -2.5000 0.9640
-2.4569 -8.4823 -2.5000 0.9640
-2.1134 -8.5744 -2.5000 0.9640
-1.4166 -8.7166 -2.5000 0.9640
-1.0645 -8.7666 -2.5000 0.9640
-0.7106 -8.8023 -2.5000 0.9640
0.0000 -8.8310 -2.5000 0.9640
0.3556 -8.8238 -2.5000 0.9640
0.7106 -8.8023 -2.5000 0.9640
2.7965 -8.3765 -2.5000 0.9640
3.4615 -8.1243 -2.5000 0.9640
3.7858 -7.9783 -2.5000 0.9640
4.1040 -7.8194 -2.5000 0.9640
4.4155 -7.6478 -2.5000 0.9640
5.0166 -7.2677 -2.5000 0.9640
5.3051 -7.0598 -2.5000 0.9640
5.8560 -6.6101 -2.5000 0.9640
7.0599 -5.3051 -2.5000 0.9640
7.2678 -5.0166 -2.5000 0.9640
7.4639 -4.7198 -2.5000 0.9640
7.6479 -4.4155 -2.5000 0.9640
7.8194 -4.1040 -2.5000 0.9640
8.2571 -3.1315 -2.5000 0.9640
8.3765 -2.7965 -2.5000 0.9640
8.4823 -2.4569 -2.5000 0.9640
8.6525 -1.7664 -2.5000 0.9640
8.7666 -1.0645 -2.5000 0.9640
8.8238 0.3556 -2.5000 0.9640
8.8023 0.7106 -2.5000 0.9640
8.7666 1.0645 -2.5000 0.9640
8.7166 1.4166 -2.5000 0.9640
8.6525 1.7664 -2.5000 0.9640
8.4823 2.4569 -2.5000 0.9640
8.1262 2.7129 -2.4253 0.9650
7.6290 3.2504 -2.3476 0.9661
7.4920 3.5550 -2.3476 0.9661
7.3428 3.8538 -2.3476 0.9661
7.1816 4.1463 -2.3476 0.9661
6.6295 4.9817 -2.3476 0.9661
6.4235 5.2446 -2.3476 0.9661
6.2071 5.4990 -2.3476 0.9661
5.9807 5.7445 -2.3476 0.9661
5.4990 6.2071 -2.3476 0.9661
4.7107 6.8247 -2.3476 0.9661
4.4249 6.9975 -2.3438 0.9662
4.1201 7.1360 -2.3327 0.9663
3.8286 7.2948 -2.3323 0.9663
3.2282 7.5769 -2.3315 0.9663
2.9204 7.7003 -2.3314 0.9663
2.6079 7.8116 -2.3314 0.9663
1.9707 7.9954 -2.3312 0.9663
1.6471 8.0677 -2.3310 0.9663
0.9923 8.1725 -2.3306 0.9664
0.3314 8.2237 -2.3300 0.9664
0.0000 8.2291 -2.3296 0.9664
-0.9913 8.1643 -2.3282 0.9664
-1.3190 8.1159 -2.3277 0.9664
-1.6443 8.0543 -2.3271 0.9664
-2.2859 7.8917 -2.3259 0.9664
-3.2186 7.5543 -2.3246 0.9664
-3.7351 7.1167 -2.2753 0.9671
-4.1254 7.1454 -2.3357 0.9663
-4.4308 7.0068 -2.3469 0.9661
-4.7108 6.8247 -2.3476 0.9661
-4.9817 6.6295 -2.3476 0.9661
-5.4990 6.2071 -2.3476 0.9661
-5.7445 5.9807 -2.3476 0.9661
-6.4235 5.2446 -2.3476 0.9661
-6.8247 4.7108 -2.3476 0.9661
-7.0088 4.4321 -2.3476 0.9661
-7.1816 4.1463 -2.3476 0.9661
-7.3428 3.8538 -2.3476 0.9661
-8.4823 2.4569 -2.5000 0.9640
-8.5743 2.1134 -2.5000 0.9640
-8.6525 1.7664 -2.5000 0.9640
-8.8023 0.7106 -2.5000 0.9640
-8.1280 0.0000 -2.5000 0.9666
-8.1214 -0.3273 -2.5000 0.9666
-8.1016 -0.6540 -2.5000 0.9666
-8.0227 -1.3038 -2.5000 0.9666
-7.9637 -1.6258 -2.5000 0.9666
-7.7096 -2.5739 -2.5000 0.9666
-7.5997 -2.8822 -2.5000 0.9666
-7.4775 -3.1859 -2.5000 0.9666
-7.1970 -3.7772 -2.5000 0.9666
-7.0390 -4.0640 -2.5000 0.9666
-6.6892 -4.6172 -2.5000 0.9666
-6.4978 -4.8828 -2.5000 0.9666
-6.0839 -5.3898 -2.5000 0.9666
-5.8619 -5.6304 -2.5000 0.9666
-5.6304 -5.8619 -2.5000 0.9666
-5.3898 -6.0838 -2.5000 0.9666
-5.1405 -6.2960 -2.5000 0.9666
-4.8828 -6.4978 -2.5000 0.9666
-4.3441 -6.8697 -2.5000 0.9666
-2.5739 -7.7096 -2.5000 0.9666
-1.9451 -7.8918 -2.5000 0.9666
-1.6258 -7.9637 -2.5000 0.9666
-0.9797 -8.0687 -2.5000 0.9666
-0.6540 -8.1016 -2.5000 0.9666
-0.3273 -8.1214 -2.5000 0.9666
0.3273 -8.1214 -2.5000 0.9666
0.6540 -8.1016 -2.5000 0.9666
0.9797 -8.0687 -2.5000 0.9666
1.6258 -7.9637 -2.5000 0.9666
1.9452 -7.8918 -2.5000 0.9666
2.2613 -7.8071 -2.5000 0.9666
3.1859 -7.4775 -2.5000 0.9666
4.0640 -7.0390 -2.5000 0.9666
5.1405 -6.2959 -2.5000 0.9666
5.8619 -5.6304 -2.5000 0.9666
6.2960 -5.1405 -2.5000 0.9666
6.6892 -4.6172 -2.5000 0.9666
7.1970 -3.7772 -2.5000 0.9666
7.5998 -2.8822 -2.5000 0.9666
7.8071 -2.2613 -2.5000 0.9666
8.0687 -0.9797 -2.5000 0.9666
8.1016 -0.6540 -2.5000 0.9666
8.1016 0.6540 -2.5000 0.9666
8.0687 0.9797 -2.5000 0.9666
8.0227 1.3038 -2.5000 0.9666
7.9637 1.6258 -2.5000 0.9666
7.8918 1.9451 -2.5000 0.9666
7.7097 2.5739 -2.5000 0.9666
7.1829 2.7241 -2.3628 0.9684
7.0217 2.9917 -2.3476 0.9686
6.8956 3.2720 -2.3476 0.9686
5.2872 5.5046 -2.3476 0.9686
5.0613 5.7130 -2.3476 0.9686
4.5852 6.1017 -2.3476 0.9686
4.3358 6.2814 -2.3476 0.9686
4.0793 6.4509 -2.3476 0.9686
3.8162 6.6099 -2.3476 0.9686
3.5470 6.7582 -2.3476 0.9686
3.2720 6.8956 -2.3476 0.9686
2.9862 7.0087 -2.3432 0.9686
2.3994 7.1878 -2.3308 0.9688
2.1079 7.2775 -2.3304 0.9688
1.2148 7.4752 -2.3294 0.9688
-0.3047 7.5618 -2.3277 0.9688
-0.6089 7.5423 -2.3274 0.9688
-1.2135 7.4669 -2.3268 0.9688
-1.8099 7.3431 -2.3262 0.9688
-2.1039 7.2634 -2.3259 0.9688
-2.9888 7.0150 -2.3454 0.9686
-3.2720 6.8956 -2.3476 0.9686
-3.8162 6.6099 -2.3476 0.9686
-4.0793 6.4509 -2.3476 0.9686
-4.3357 6.2814 -2.3476 0.9686
-4.5852 6.1017 -2.3476 0.9686
-5.0613 5.7130 -2.3476 0.9686
-5.2872 5.5046 -2.3476 0.9686
-5.5046 5.2872 -2.3476 0.9686
-5.7130 5.0613 -2.3476 0.9686
-6.7582 3.5470 -2.3476 0.9686
-7.0217 2.9917 -2.3476 0.9686
-7.1748 2.7210 -2.3602 0.9684
-7.7097 2.5739 -2.5000 0.9666
-7.8918 1.9452 -2.5000 0.9666
-7.9637 1.6258 -2.5000 0.9666
-8.0227 1.3038 -2.5000 0.9666
-8.0687 0.9797 -2.5000 0.9666
-8.1016 0.6540 -2.5000 0.9666
-8.1214 0.3273 -2.5000 0.9666
-7.4965 -0.6052 -2.5000 0.9688
-7.4660 -0.9065 -2.5000 0.9688
-7.3023 -1.7999 -2.5000 0.9688
-7.2239 -2.0924 -2.5000 0.9688
-6.7947 -3.2241 -2.5000 0.9688
-6.6594 -3.4951 -2.5000 0.9688
-6.5133 -3.7604 -2.5000 0.9688
-6.1896 -4.2723 -2.5000 0.9688
-6.0125 -4.5181 -2.5000 0.9688
-5.8257 -4.7565 -2.5000 0.9688
-4.7565 -5.8257 -2.5000 0.9688
-4.5181 -6.0125 -2.5000 0.9688
-4.2723 -6.1896 -2.5000 0.9688
-3.2242 -6.7947 -2.5000 0.9688
-2.9479 -6.9191 -2.5000 0.9688
-2.6669 -7.0321 -2.5000 0.9688
-2.3816 -7.1338 -2.5000 0.9688
-1.7999 -7.3023 -2.5000 0.9688
-0.9065 -7.4661 -2.5000 0.9688
-0.6052 -7.4965 -2.5000 0.9688
0.3028 -7.5148 -2.5000 0.9688
0.6052 -7.4965 -2.5000 0.9688
1.5044 -7.3689 -2.5000 0.9688
1.7999 -7.3023 -2.5000 0.9688
2.3816 -7.1338 -2.5000 0.9688
2.9479 -6.9191 -2.5000 0.9688
3.2242 -6.7947 -2.5000 0.9688
3.7604 -6.5133 -2.5000 0.9688
4.7566 -5.8257 -2.5000 0.9688
5.8257 -4.7565 -2.5000 0.9688
6.0125 -4.5181 -2.5000 0.9688
6.1896 -4.2723 -2.5000 0.9688
6.5133 -3.7604 -2.5000 0.9688
6.6594 -3.4951 -2.5000 0.9688
6.9191 -2.9479 -2.5000 0.9688
7.1338 -2.3816 -2.5000 0.9688
7.3023 -1.7999 -2.5000 0.9688
7.3689 -1.5044 -2.5000 0.9688
7.4661 -0.9065 -2.5000 0.9688
7.5148 -0.3028 -2.5000 0.9688
7.3689 1.5044 -2.5000 0.9688
7.3023 1.7999 -2.5000 0.9688
7.2240 2.0924 -2.5000 0.9688
7.1338 2.3816 -2.5000 0.9688
6.3805 3.0276 -2.3476 0.9707
6.2535 3.2821 -2.3476 0.9707
5.8122 4.0119 -2.3476 0.9707
5.4706 4.4666 -2.3476 0.9707
5.0934 4.8923 -2.3476 0.9707
4.8923 5.0934 -2.3476 0.9707
4.2427 5.6460 -2.3476 0.9707
4.0119 5.8123 -2.3476 0.9707
3.5312 6.1162 -2.3476 0.9707
3.2821 6.2535 -2.3476 0.9707
3.0276 6.3805 -2.3476 0.9707
2.7682 6.4973 -2.3476 0.9707
2.5044 6.6035 -2.3476 0.9707
2.2364 6.6990 -2.3476 0.9707
1.9649 6.7836 -2.3476 0.9707
1.6902 6.8572 -2.3476 0.9707
1.4125 6.9197 -2.3476 0.9707
0.5671 7.0248 -2.3427 0.9707
0.0000 7.0428 -2.3411 0.9707
-0.5672 7.0260 -2.3431 0.9707
-1.4127 6.9197 -2.3476 0.9707
-1.6902 6.8572 -2.3476 0.9707
-1.9649 6.7836 -2.3476 0.9707
-2.5043 6.6035 -2.3476 0.9707
-3.2821 6.2535 -2.3476 0.9707
-3.7746 5.9691 -2.3476 0.9707
-4.0119 5.8123 -2.3476 0.9707
-4.8923 5.0934 -2.3476 0.9707
-5.4706 4.4666 -2.3476 0.9707
-5.8122 4.0119 -2.3476 0.9707
-6.1162 3.5312 -2.3476 0.9707
-6.2534 3.2821 -2.3476 0.9707
-6.4973 2.7682 -2.3476 0.9707
-7.1338 2.3816 -2.5000 0.9688
-7.2239 2.0925 -2.5000 0.9688
-7.3024 1.7999 -2.5000 0.9688
-7.3689 1.5044 -2.5000 0.9688
-7.4235 1.2064 -2.5000 0.9688
-7.4660 0.9065 -2.5000 0.9688
-6.9852 -0.2815 -2.5000 0.9707
-6.9682 -0.5625 -2.5000 0.9707
-6.9399 -0.8426 -2.5000 0.9707
-6.9003 -1.1214 -2.5000 0.9707
-6.8496 -1.3984 -2.5000 0.9707
-6.4315 -2.7402 -2.5000 0.9707
-6.3159 -2.9969 -2.5000 0.9707
-6.1901 -3.2488 -2.5000 0.9707
-5.9086 -3.7364 -2.5000 0.9707
-5.7534 -3.9713 -2.5000 0.9707
-5.0418 -4.8427 -2.5000 0.9707
-4.8427 -5.0418 -2.5000 0.9707
-4.1997 -5.5888 -2.5000 0.9707
-3.7364 -5.9086 -2.5000 0.9707
-3.4954 -6.0543 -2.5000 0.9707
-3.2488 -6.1901 -2.5000 0.9707
-2.9969 -6.3159 -2.5000 0.9707
-2.7402 -6.4314 -2.5000 0.9707
-2.4790 -6.5366 -2.5000 0.9707
-2.2138 -6.6311 -2.5000 0.9707
-1.6730 -6.7877 -2.5000 0.9707
-1.3984 -6.8496 -2.5000 0.9707
-1.1214 -6.9003 -2.5000 0.9707
-0.5625 -6.9682 -2.5000 0.9707
-0.2815 -6.9852 -2.5000 0.9707
0.0000 -6.9909 -2.5000 0.9707
0.8427 -6.9399 -2.5000 0.9707
1.1214 -6.9003 -2.5000 0.9707
1.3984 -6.8496 -2.5000 0.9707
1.6730 -6.7877 -2.5000 0.9707
2.7402 -6.4315 -2.5000 0.9707
2.9969 -6.3159 -2.5000 0.9707
4.1997 -5.5888 -2.5000 0.9707
4.4213 -5.4152 -2.5000 0.9707
4.8428 -5.0418 -2.5000 0.9707
5.4152 -4.4213 -2.5000 0.9707
5.7534 -3.9713 -2.5000 0.9707
6.0543 -3.4954 -2.5000 0.9707
6.3159 -2.9969 -2.5000 0.9707
6.6311 -2.2138 -2.5000 0.9707
6.7877 -1.6730 -2.5000 0.9707
6.8496 -1.3983 -2.5000 0.9707
6.9003 -1.1214 -2.5000 0.9707
6.9399 -0.8427 -2.5000 0.9707
6.9682 -0.5625 -2.5000 0.9707
6.9852 -0.2815 -2.5000 0.9707
6.9909 0.0000 -2.5000 0.9707
6.9682 0.5625 -2.5000 0.9707
6.9399 0.8427 -2.5000 0.9707
6.9004 1.1214 -2.5000 0.9707
5.9309 2.8142 -2.3476 0.9725
5.8128 3.0508 -2.3476 0.9725
5.5484 3.5086 -2.3476 0.9725
5.2481 3.9437 -2.3476 0.9725
5.0851 4.1518 -2.3476 0.9725
4.7345 4.5475 -2.3476 0.9725
4.5475 4.7345 -2.3476 0.9725
4.3532 4.9138 -2.3476 0.9725
3.2823 5.6852 -2.3476 0.9725
3.0508 5.8128 -2.3476 0.9725
2.5731 6.0394 -2.3476 0.9725
2.3279 6.1381 -2.3476 0.9725
2.0788 6.2269 -2.3476 0.9725
1.5710 6.3739 -2.3476 0.9725
1.3131 6.4320 -2.3476 0.9725
0.7913 6.5169 -2.3476 0.9725
0.2643 6.5594 -2.3476 0.9725
0.0000 6.5647 -2.3476 0.9725
-0.2643 6.5594 -2.3476 0.9725
-0.5282 6.5434 -2.3476 0.9725
-1.8264 6.3055 -2.3476 0.9725
-2.0788 6.2269 -2.3476 0.9725
-2.3279 6.1381 -2.3476 0.9725
-2.5731 6.0394 -2.3476 0.9725
-2.8142 5.9309 -2.3476 0.9725
-3.0507 5.8128 -2.3476 0.9725
-3.2823 5.6852 -2.3476 0.9725
-3.5086 5.5484 -2.3476 0.9725
-3.7292 5.4026 -2.3476 0.9725
-3.9437 5.2481 -2.3476 0.9725
-4.3532 4.9138 -2.3476 0.9725
-4.5475 4.7345 -2.3476 0.9725
-4.7345 4.5475 -2.3476 0.9725
-4.9137 4.3532 -2.3476 0.9725
-5.2481 3.9437 -2.3476 0.9725
-5.4026 3.7292 -2.3476 0.9725
-5.8128 3.0508 -2.3476 0.9725
-5.9309 2.8142 -2.3476 0.9725
-6.3373 2.7001 -2.4634 0.9712
-6.5366 2.4790 -2.5000 0.9707
-6.7148 1.9450 -2.5000 0.9707
-6.8496 1.3984 -2.5000 0.9707
-6.9003 1.1214 -2.5000 0.9707
-6.9399 0.8427 -2.5000 0.9707
-6.9852 0.2815 -2.5000 0.9707
-3.5588 -0.1434 -1.3649 0.9849
-3.5687 -0.2881 -1.3720 0.9848
-6.4392 -1.0465 -2.5000 0.9724
-6.3918 -1.3049 -2.5000 0.9724
-6.1879 -2.0658 -2.5000 0.9724
-6.0016 -2.5570 -2.5000 0.9724
-5.8938 -2.7966 -2.5000 0.9724
-5.7764 -3.0317 -2.5000 0.9724
-5.5137 -3.4867 -2.5000 0.9724
-5.3689 -3.7058 -2.5000 0.9724
-5.2153 -3.9190 -2.5000 0.9724
-4.8830 -4.3260 -2.5000 0.9724
-4.3260 -4.8830 -2.5000 0.9724
-3.9191 -5.2153 -2.5000 0.9724
-3.7058 -5.3688 -2.5000 0.9724
-3.2618 -5.6496 -2.5000 0.9724
-2.5571 -6.0016 -2.5000 0.9724
-2.3133 -6.0997 -2.5000 0.9724
-2.0658 -6.1879 -2.5000 0.9724
-1.0465 -6.4392 -2.5000 0.9724
-0.5249 -6.5025 -2.5000 0.9724
0.5249 -6.5025 -2.5000 0.9724
1.0465 -6.4392 -2.5000 0.9724
1.5612 -6.3341 -2.5000 0.9724
1.8150 -6.2661 -2.5000 0.9724
2.0658 -6.1879 -2.5000 0.9724
2.3133 -6.0997 -2.5000 0.9724
2.5571 -6.0016 -2.5000 0.9724
2.7967 -5.8938 -2.5000 0.9724
3.0317 -5.7764 -2.5000 0.9724
3.9190 -5.2153 -2.5000 0.9724
4.7049 -4.5191 -2.5000 0.9724
5.0533 -4.1258 -2.5000 0.9724
5.8938 -2.7966 -2.5000 0.9724
6.0016 -2.5571 -2.5000 0.9724
6.0997 -2.3133 -2.5000 0.9724
6.1879 -2.0658 -2.5000 0.9724
6.2661 -1.8150 -2.5000 0.9724
6.3341 -1.5612 -2.5000 0.9724
6.4761 -0.7863 -2.5000 0.9724
6.4761 0.7863 -2.5000 0.9724
6.3918 1.3049 -2.5000 0.9724
6.3341 1.5612 -2.5000 0.9724
6.1879 2.0658 -2.5000 0.9724
6.0016 2.5571 -2.5000 0.9724
5.4243 2.8469 -2.3476 0.9741
5.0416 3.4800 -2.3476 0.9741
4.7452 3.8743 -2.3476 0.9741
4.2436 4.4181 -2.3476 0.9741
4.0623 4.5854 -2.3476 0.9741
3.4800 5.0416 -2.3476 0.9741
2.8469 5.4243 -2.3476 0.9741
2.4012 5.6358 -2.3476 0.9741
2.1723 5.7279 -2.3476 0.9741
1.7044 5.8841 -2.3476 0.9741
1.4660 5.9480 -2.3476 0.9741
1.2254 6.0022 -2.3476 0.9741
0.9827 6.0467 -2.3476 0.9741
0.7384 6.0813 -2.3476 0.9741
0.0000 6.1260 -2.3476 0.9741
-0.7384 6.0813 -2.3476 0.9741
-1.2254 6.0022 -2.3476 0.9741
-1.9399 5.8107 -2.3476 0.9741
-2.4012 5.6358 -2.3476 0.9741
-2.6262 5.5345 -2.3476 0.9741
-2.8469 5.4243 -2.3476 0.9741
-3.2741 5.1776 -2.3476 0.9741
-3.4800 5.0416 -2.3476 0.9741
-4.0623 4.5854 -2.3476 0.9741
-4.2436 4.4181 -2.3476 0.9741
-4.4181 4.2436 -2.3476 0.9741
-4.5854 4.0623 -2.3476 0.9741
-4.8974 3.6801 -2.3476 0.9741
-5.0416 3.4800 -2.3476 0.9741
-5.7074 2.7082 -2.4209 0.9733
-6.0016 2.5571 -2.5000 0.9724
-6.1879 2.0658 -2.5000 0.9724
-6.2661 1.8150 -2.5000 0.9724
-6.3918 1.3049 -2.5000 0.9724
-6.4392 1.0465 -2.5000 0.9724
-3.5921 0.4362 -1.3867 0.9846
-3.0070 -0.6139 -1.2561 0.9868
-5.8671 -1.6994 -2.5000 0.9739
-5.7940 -1.9343 -2.5000 0.9739
-5.7114 -2.1660 -2.5000 0.9739
-5.6195 -2.3943 -2.5000 0.9739
-5.2900 -3.0542 -2.5000 0.9739
-5.0271 -3.4699 -2.5000 0.9739
-4.7315 -3.8632 -2.5000 0.9739
-4.5721 -4.0506 -2.5000 0.9739
-4.4053 -4.2314 -2.5000 0.9739
-3.8632 -4.7315 -2.5000 0.9739
-3.6695 -4.8833 -2.5000 0.9739
-3.4699 -5.0270 -2.5000 0.9739
-3.0542 -5.2900 -2.5000 0.9739
-2.8387 -5.4087 -2.5000 0.9739
-2.6186 -5.5186 -2.5000 0.9739
-2.3942 -5.6195 -2.5000 0.9739
-2.1660 -5.7114 -2.5000 0.9739
-1.9343 -5.7940 -2.5000 0.9739
-0.4915 -6.0885 -2.5000 0.9739
0.0000 -6.1083 -2.5000 0.9739
0.4915 -6.0885 -2.5000 0.9739
0.7363 -6.0638 -2.5000 0.9739
1.2219 -5.9849 -2.5000 0.9739
1.6995 -5.8672 -2.5000 0.9739
1.9343 -5.7940 -2.5000 0.9739
2.1660 -5.7114 -2.5000 0.9739
2.8387 -5.4087 -2.5000 0.9739
3.0542 -5.2900 -2.5000 0.9739
3.2647 -5.1627 -2.5000 0.9739
4.0506 -4.5721 -2.5000 0.9739
4.4054 -4.2314 -2.5000 0.9739
5.0271 -3.4699 -2.5000 0.9739
5.2900 -3.0542 -2.5000 0.9739
5.8672 -1.6994 -2.5000 0.9739
5.9309 -1.4618 -2.5000 0.9739
6.0292 -0.9798 -2.5000 0.9739
6.0885 -0.4915 -2.5000 0.9739
6.1034 -0.2459 -2.5000 0.9739
6.1083 0.0000 -2.5000 0.9739
6.0638 0.7363 -2.5000 0.9739
6.0292 0.9798 -2.5000 0.9739
5.9308 1.4618 -2.5000 0.9739
5.8672 1.6994 -2.5000 0.9739
5.7940 1.9343 -2.5000 0.9739
5.7114 2.1660 -2.5000 0.9739
5.6195 2.3943 -2.5000 0.9739
5.5186 2.6186 -2.5000 0.9739
4.9675 2.8680 -2.3476 0.9755
4.7206 3.2584 -2.3476 0.9755
4.4431 3.6277 -2.3476 0.9755
3.9734 4.1368 -2.3476 0.9755
3.6277 4.4431 -2.3476 0.9755
3.4458 4.5856 -2.3476 0.9755
3.2584 4.7206 -2.3476 0.9755
3.0657 4.8480 -2.3476 0.9755
2.8680 4.9675 -2.3476 0.9755
2.2483 5.2770 -2.3476 0.9755
1.8164 5.4408 -2.3476 0.9755
1.5958 5.5095 -2.3476 0.9755
0.6914 5.6942 -2.3476 0.9755
0.4616 5.7174 -2.3476 0.9755
0.2310 5.7313 -2.3476 0.9755
0.0000 5.7360 -2.3476 0.9755
-0.9201 5.6617 -2.3476 0.9755
-1.1473 5.6200 -2.3476 0.9755
-1.3727 5.5693 -2.3476 0.9755
-1.5958 5.5095 -2.3476 0.9755
-2.0340 5.3632 -2.3476 0.9755
-2.2483 5.2770 -2.3476 0.9755
-2.4590 5.1822 -2.3476 0.9755
-2.6656 5.0790 -2.3476 0.9755
-3.0657 4.8480 -2.3476 0.9755
-3.8036 4.2934 -2.3476 0.9755
-3.9734 4.1368 -2.3476 0.9755
-4.1368 3.9734 -2.3476 0.9755
-4.2934 3.8037 -2.3476 0.9755
-4.4431 3.6277 -2.3476 0.9755
-4.7206 3.2584 -2.3476 0.9755
-4.8480 3.0657 -2.3476 0.9755
-4.9674 2.8680 -2.3476 0.9755
-5.1712 2.7141 -2.3903 0.9751
-5.5186 2.6186 -2.5000 0.9739
-5.6195 2.3943 -2.5000 0.9739
-5.7114 2.1661 -2.5000 0.9739
-5.7940 1.9343 -2.5000 0.9739
-5.8672 1.6995 -2.5000 0.9739
-2.9322 0.3560 -1.2089 0.9873
-2.8096 0.2268 -1.1536 0.9879
-2.8203 0.1137 -1.1552 0.9879
-2.3650 0.0000 -1.0307 0.9897
-2.3670 -0.0954 -1.0324 0.9897
-2.3649 -0.1909 -1.0340 0.9897
-2.3794 -0.2889 -1.0446 0.9896
-2.4021 -0.3904 -1.0606 0.9894
-2.4207 -0.4942 -1.0767 0.9893
-5.5696 -1.3728 -2.5000 0.9753
-5.5098 -1.5959 -2.5000 0.9753
-5.4411 -1.8165 -2.5000 0.9753
-5.3635 -2.0341 -2.5000 0.9753
-5.2773 -2.2484 -2.5000 0.9753
-4.7209 -3.2586 -2.5000 0.9753
-4.5858 -3.4460 -2.5000 0.9753
-4.4434 -3.6279 -2.5000 0.9753
-4.2937 -3.8039 -2.5000 0.9753
-4.1370 -3.9737 -2.5000 0.9753
-3.9737 -4.1370 -2.5000 0.9753
-3.4460 -4.5859 -2.5000 0.9753
-1.3728 -5.5696 -2.5000 0.9753
-1.1474 -5.6204 -2.5000 0.9753
-0.9202 -5.6620 -2.5000 0.9753
0.0000 -5.7363 -2.5000 0.9753
0.9202 -5.6620 -2.5000 0.9753
1.5960 -5.5098 -2.5000 0.9753
1.8165 -5.4411 -2.5000 0.9753
2.0341 -5.3636 -2.5000 0.9753
2.4591 -5.1825 -2.5000 0.9753
3.2586 -4.7209 -2.5000 0.9753
3.9737 -4.1370 -2.5000 0.9753
4.2937 -3.8039 -2.5000 0.9753
4.4434 -3.6279 -2.5000 0.9753
4.5859 -3.4460 -2.5000 0.9753
4.7209 -3.2586 -2.5000 0.9753
4.9678 -2.8682 -2.5000 0.9753
5.0793 -2.6658 -2.5000 0.9753
5.1825 -2.4591 -2.5000 0.9753
5.3636 -2.0341 -2.5000 0.9753
5.5098 -1.5959 -2.5000 0.9753
5.6620 -0.9202 -2.5000 0.9753
5.6945 -0.6914 -2.5000 0.9753
5.7317 -0.2310 -2.5000 0.9753
5.7316 0.2310 -2.5000 0.9753
5.6945 0.6914 -2.5000 0.9753
5.6620 0.9202 -2.5000 0.9753
5.5696 1.3728 -2.5000 0.9753
5.5098 1.5959 -2.5000 0.9753
5.4411 1.8165 -2.5000 0.9753
5.2773 2.2484 -2.5000 0.9753
5.1825 2.4591 -2.5000 0.9753
5.0793 2.6658 -2.5000 0.9753
4.4331 3.0600 -2.3476 0.9768
4.3063 3.2360 -2.3476 0.9768
3.8849 3.7315 -2.3476 0.9768
3.5720 4.0320 -2.3476 0.9768
3.4067 4.1725 -2.3476 0.9768
2.5033 4.7696 -2.3476 0.9768
2.3092 4.8666 -2.3476 0.9768
2.1114 4.9556 -2.3476 0.9768
1.9101 5.0366 -2.3476 0.9768
1.7058 5.1094 -2.3476 0.9768
1.4987 5.1740 -2.3476 0.9768
0.4334 5.3692 -2.3476 0.9768
-0.4334 5.3692 -2.3476 0.9768
-0.6493 5.3474 -2.3476 0.9768
-1.0775 5.2778 -2.3476 0.9768
-1.4987 5.1740 -2.3476 0.9768
-1.7058 5.1094 -2.3476 0.9768
-2.3092 4.8666 -2.3476 0.9768
-2.5033 4.7696 -2.3476 0.9768
-3.0600 4.4331 -2.3476 0.9768
-3.4067 4.1725 -2.3476 0.9768
-3.7314 3.8849 -2.3476 0.9768
-4.0319 3.5720 -2.3476 0.9768
-4.1725 3.4067 -2.3476 0.9768
-4.4331 3.0600 -2.3476 0.9768
-4.5598 2.8834 -2.3512 0.9767
-5.1825 2.4591 -2.5000 0.9753
-5.5098 1.5959 -2.5000 0.9753
-5.5696 1.3728 -2.5000 0.9753
-2.4021 0.3904 -1.0606 0.9894
-2.3794 0.2889 -1.0446 0.9896
-2.3649 0.1909 -1.0340 0.9897
-2.2030 0.0000 -1.0198 0.9903
-2.2008 -0.1777 -1.0220 0.9903
-2.3851 -0.5879 -1.1371 0.9892
-5.1876 -1.5026 -2.5000 0.9765
-5.1229 -1.7103 -2.5000 0.9765
-5.0499 -1.9152 -2.5000 0.9765
-4.8794 -2.3153 -2.5000 0.9765
-4.7822 -2.5099 -2.5000 0.9765
-4.6773 -2.7004 -2.5000 0.9765
-4.5648 -2.8866 -2.5000 0.9765
-4.1835 -3.4157 -2.5000 0.9765
-4.0426 -3.5814 -2.5000 0.9765
-3.8951 -3.7413 -2.5000 0.9765
-3.5814 -4.0426 -2.5000 0.9765
-3.4158 -4.1835 -2.5000 0.9765
-3.2445 -4.3177 -2.5000 0.9765
-3.0680 -4.4448 -2.5000 0.9765
-2.7004 -4.6773 -2.5000 0.9765
-2.5099 -4.7822 -2.5000 0.9765
-2.3153 -4.8794 -2.5000 0.9765
-2.1170 -4.9687 -2.5000 0.9765
-1.9152 -5.0499 -2.5000 0.9765
-1.7103 -5.1229 -2.5000 0.9765
-1.2925 -5.2439 -2.5000 0.9765
-1.0803 -5.2917 -2.5000 0.9765
-0.8663 -5.3309 -2.5000 0.9765
0.0000 -5.4009 -2.5000 0.9765
0.2175 -5.3965 -2.5000 0.9765
0.4346 -5.3834 -2.5000 0.9765
0.6510 -5.3615 -2.5000 0.9765
0.8664 -5.3309 -2.5000 0.9765
1.2925 -5.2439 -2.5000 0.9765
1.7103 -5.1229 -2.5000 0.9765
1.9152 -5.0499 -2.5000 0.9765
2.1170 -4.9687 -2.5000 0.9765
2.3153 -4.8794 -2.5000 0.9765
2.5099 -4.7822 -2.5000 0.9765
3.0681 -4.4448 -2.5000 0.9765
3.2445 -4.3177 -2.5000 0.9765
3.4158 -4.1835 -2.5000 0.9765
3.7413 -3.8951 -2.5000 0.9765
4.4448 -3.0680 -2.5000 0.9765
4.5648 -2.8866 -2.5000 0.9765
4.6773 -2.7004 -2.5000 0.9765
5.0499 -1.9152 -2.5000 0.9765
5.1229 -1.7103 -2.5000 0.9765
5.1876 -1.5026 -2.5000 0.9765
5.2917 -1.0803 -2.5000 0.9765
5.3309 -0.8664 -2.5000 0.9765
5.3834 -0.4346 -2.5000 0.9765
5.3834 0.4346 -2.5000 0.9765
5.3615 0.6510 -2.5000 0.9765
5.3309 0.8664 -2.5000 0.9765
5.2439 1.2925 -2.5000 0.9765
5.1876 1.5026 -2.5000 0.9765
5.1230 1.7103 -2.5000 0.9765
4.9687 2.1170 -2.5000 0.9765
4.8794 2.3153 -2.5000 0.9765
4.3099 2.7254 -2.3604 0.9778
4.0545 3.0467 -2.3476 0.9779
3.9285 3.2075 -2.3476 0.9779
3.7962 3.3631 -2.3476 0.9779
3.5132 3.6577 -2.3476 0.9779
3.3631 3.7962 -2.3476 0.9779
2.8810 4.1739 -2.3476 0.9779
1.9879 4.6658 -2.3476 0.9779
1.4110 4.8714 -2.3476 0.9779
1.2137 4.9243 -2.3476 0.9779
0.8135 5.0060 -2.3476 0.9779
0.6113 5.0347 -2.3476 0.9779
0.4081 5.0552 -2.3476 0.9779
0.2042 5.0675 -2.3476 0.9779
-0.2042 5.0675 -2.3476 0.9779
-0.4081 5.0552 -2.3476 0.9779
-0.6113 5.0347 -2.3476 0.9779
-1.6060 4.8106 -2.3476 0.9779
-1.7984 4.7421 -2.3476 0.9779
-2.1742 4.5820 -2.3476 0.9779
-2.3569 4.4907 -2.3476 0.9779
-2.5358 4.3922 -2.3476 0.9779
-2.8810 4.1739 -2.3476 0.9779
-3.2075 3.9285 -2.3476 0.9779
-3.3631 3.7962 -2.3476 0.9779
-3.6577 3.5133 -2.3476 0.9779
-3.7962 3.3631 -2.3476 0.9779
-3.9285 3.2075 -2.3476 0.9779
-4.0545 3.0468 -2.3476 0.9779
-4.1788 2.8844 -2.3504 0.9779
-4.7822 2.5099 -2.5000 0.9765
-4.8794 2.3153 -2.5000 0.9765
-2.2466 0.4587 -1.0614 0.9899
-2.2080 0.2681 -1.0295 0.9902
-2.2008 0.1777 -1.0220 0.9903
-2.2037 0.0888 -1.0209 0.9903
-2.0595 -0.0830 -1.0111 0.9909
-2.0571 -0.1661 -1.0123 0.9908
-2.0897 -0.4266 -1.0462 0.9905
-2.9436 -0.8526 -1.5032 0.9864
-4.7654 -1.8073 -2.5000 0.9775
-4.6887 -1.9977 -2.5000 0.9775
-4.4137 -2.5483 -2.5000 0.9775
-4.0744 -3.0617 -2.5000 0.9775
-3.9478 -3.2233 -2.5000 0.9775
-3.5305 -3.6756 -2.5000 0.9775
-3.3796 -3.8148 -2.5000 0.9775
-2.7239 -4.3076 -2.5000 0.9775
-2.1849 -4.6045 -2.5000 0.9775
-1.9977 -4.6887 -2.5000 0.9775
-1.8073 -4.7654 -2.5000 0.9775
-1.6139 -4.8343 -2.5000 0.9775
-0.6143 -5.0594 -2.5000 0.9775
-0.2052 -5.0924 -2.5000 0.9775
0.0000 -5.0966 -2.5000 0.9775
0.2052 -5.0924 -2.5000 0.9775
0.6143 -5.0594 -2.5000 0.9775
0.8176 -5.0306 -2.5000 0.9775
1.0195 -4.9936 -2.5000 0.9775
1.6139 -4.8343 -2.5000 0.9775
1.8073 -4.7654 -2.5000 0.9775
1.9977 -4.6887 -2.5000 0.9775
2.1849 -4.6045 -2.5000 0.9775
2.3685 -4.5128 -2.5000 0.9775
2.5483 -4.4137 -2.5000 0.9775
2.7239 -4.3076 -2.5000 0.9775
2.8952 -4.1944 -2.5000 0.9775
3.2233 -3.9478 -2.5000 0.9775
3.3796 -3.8148 -2.5000 0.9775
3.6757 -3.5305 -2.5000 0.9775
3.8148 -3.3796 -2.5000 0.9775
3.9478 -3.2233 -2.5000 0.9775
4.0744 -3.0617 -2.5000 0.9775
4.1944 -2.8952 -2.5000 0.9775
4.4137 -2.5483 -2.5000 0.9775
4.5128 -2.3685 -2.5000 0.9775
4.6045 -2.1849 -2.5000 0.9775
4.7654 -1.8073 -2.5000 0.9775
4.8343 -1.6139 -2.5000 0.9775
4.9485 -1.2197 -2.5000 0.9775
4.9936 -1.0194 -2.5000 0.9775
5.0306 -0.8175 -2.5000 0.9775
5.0594 -0.6143 -2.5000 0.9775
5.0924 -0.2052 -2.5000 0.9775
5.0966 0.0000 -2.5000 0.9775
5.0924 0.2052 -2.5000 0.9775
5.0800 0.4101 -2.5000 0.9775
5.0594 0.6143 -2.5000 0.9775
4.9485 1.2197 -2.5000 0.9775
4.8953 1.4180 -2.5000 0.9775
4.8343 1.6139 -2.5000 0.9775
4.6887 1.9977 -2.5000 0.9775
4.6045 2.1849 -2.5000 0.9775
4.4137 2.5483 -2.5000 0.9775
3.7072 3.0268 -2.3476 0.9789
3.1736 3.5823 -2.3476 0.9789
2.8751 3.8260 -2.3476 0.9789
2.7187 3.9387 -2.3476 0.9789
2.5579 4.0450 -2.3476 0.9789
2.3929 4.1447 -2.3476 0.9789
2.2241 4.2377 -2.3476 0.9789
2.0517 4.3238 -2.3476 0.9789
1.8759 4.4029 -2.3476 0.9789
1.3315 4.5969 -2.3476 0.9789
0.9573 4.6892 -2.3476 0.9789
0.7677 4.7239 -2.3476 0.9789
0.5769 4.7510 -2.3476 0.9789
0.1927 4.7820 -2.3476 0.9789
-0.3851 4.7704 -2.3476 0.9789
-0.5769 4.7510 -2.3476 0.9789
-1.1453 4.6468 -2.3476 0.9789
-1.3315 4.5969 -2.3476 0.9789
-1.5155 4.5396 -2.3476 0.9789
-1.6971 4.4749 -2.3476 0.9789
-1.8759 4.4029 -2.3476 0.9789
-2.0517 4.3238 -2.3476 0.9789
-2.7187 3.9387 -2.3476 0.9789
-2.8751 3.8260 -2.3476 0.9789
-3.0268 3.7072 -2.3476 0.9789
-3.3153 3.4516 -2.3476 0.9789
-3.5823 3.1736 -2.3476 0.9789
-3.7072 3.0268 -2.3476 0.9789
-3.8350 2.8818 -2.3531 0.9789
-3.9513 2.7274 -2.3551 0.9788
-4.2673 2.6985 -2.4766 0.9778
-4.5128 2.3685 -2.5000 0.9775
-4.6045 2.1849 -2.5000 0.9775
-4.6887 1.9977 -2.5000 0.9775
-4.7654 1.8073 -2.5000 0.9775
-4.8343 1.6139 -2.5000 0.9775
-2.1007 0.5178 -1.0613 0.9904
-2.0897 0.4266 -1.0462 0.9905
-2.0750 0.3372 -1.0312 0.9907
-2.0571 0.1661 -1.0123 0.9908
-1.9479 0.0000 -1.0105 0.9913
-1.9494 -0.0786 -1.0121 0.9912
-1.9473 -0.1572 -1.0135 0.9912
-1.9520 -0.3172 -1.0259 0.9911
-1.9687 -0.4852 -1.0519 0.9909
-4.5710 -1.5260 -2.5000 0.9785
-4.4333 -1.8889 -2.5000 0.9785
-4.3537 -2.0658 -2.5000 0.9785
-4.2670 -2.2395 -2.5000 0.9785
-4.1733 -2.4095 -2.5000 0.9785
-4.0729 -2.5756 -2.5000 0.9785
-3.9659 -2.7375 -2.5000 0.9785
-3.4755 -3.3382 -2.5000 0.9785
-3.1956 -3.6071 -2.5000 0.9785
-3.0478 -3.7328 -2.5000 0.9785
-2.7375 -3.9659 -2.5000 0.9785
-2.4095 -4.1733 -2.5000 0.9785
-2.2395 -4.2670 -2.5000 0.9785
-1.7088 -4.5058 -2.5000 0.9785
-1.3407 -4.6287 -2.5000 0.9785
-0.9639 -4.7216 -2.5000 0.9785
-0.1940 -4.8151 -2.5000 0.9785
0.0000 -4.8190 -2.5000 0.9785
0.1941 -4.8151 -2.5000 0.9785
0.3878 -4.8033 -2.5000 0.9785
0.5809 -4.7838 -2.5000 0.9785
0.7730 -4.7566 -2.5000 0.9785
1.1533 -4.6789 -2.5000 0.9785
1.5260 -4.5710 -2.5000 0.9785
1.8889 -4.4333 -2.5000 0.9785
2.2395 -4.2670 -2.5000 0.9785
2.4095 -4.1733 -2.5000 0.9785
2.8950 -3.8525 -2.5000 0.9785
3.0477 -3.7328 -2.5000 0.9785
3.4755 -3.3382 -2.5000 0.9785
3.7328 -3.0477 -2.5000 0.9785
4.1734 -2.4095 -2.5000 0.9785
4.3537 -2.0658 -2.5000 0.9785
4.6287 -1.3407 -2.5000 0.9785
4.7216 -0.9639 -2.5000 0.9785
4.7566 -0.7730 -2.5000 0.9785
4.8151 -0.1940 -2.5000 0.9785
4.8151 0.1941 -2.5000 0.9785
4.8033 0.3878 -2.5000 0.9785
4.7566 0.7730 -2.5000 0.9785
4.6789 1.1533 -2.5000 0.9785
4.5710 1.5260 -2.5000 0.9785
4.5058 1.7088 -2.5000 0.9785
4.3537 2.0659 -2.5000 0.9785
4.2670 2.2395 -2.5000 0.9785
4.1734 2.4095 -2.5000 0.9785
3.6315 2.7289 -2.3566 0.9797
3.5053 2.8620 -2.3476 0.9798
3.3872 3.0008 -2.3476 0.9798
3.2636 3.1347 -2.3476 0.9798
3.1347 3.2636 -2.3476 0.9798
2.8619 3.5053 -2.3476 0.9798
1.9399 4.0883 -2.3476 0.9798
1.4330 4.2923 -2.3476 0.9798
1.0830 4.3937 -2.3476 0.9798
0.3641 4.5105 -2.3476 0.9798
0.1822 4.5215 -2.3476 0.9798
0.0000 4.5252 -2.3476 0.9798
-0.1822 4.5215 -2.3476 0.9798
-0.3641 4.5105 -2.3476 0.9798
-0.7259 4.4666 -2.3476 0.9798
-0.9052 4.4338 -2.3476 0.9798
-1.0829 4.3937 -2.3476 0.9798
-1.2590 4.3466 -2.3476 0.9798
-1.7737 4.1631 -2.3476 0.9798
-1.9399 4.0883 -2.3476 0.9798
-2.1030 4.0069 -2.3476 0.9798
-2.5706 3.7242 -2.3476 0.9798
-2.7185 3.6176 -2.3476 0.9798
-2.8619 3.5053 -2.3476 0.9798
-3.1347 3.2636 -2.3476 0.9798
-3.2636 3.1347 -2.3476 0.9798
-3.6295 2.7274 -2.3553 0.9797
-4.0729 2.5756 -2.5000 0.9785
-4.3537 2.0659 -2.5000 0.9785
-4.4333 1.8889 -2.5000 0.9785
-4.5058 1.7088 -2.5000 0.9785
-2.3248 0.6734 -1.2557 0.9892
-1.9687 0.4853 -1.0519 0.9909
-1.9494 0.0786 -1.0121 0.9912
-1.8480 -0.0745 -1.0130 0.9916
-1.8462 -0.1490 -1.0145 0.9916
-1.8418 -0.2236 -1.0162 0.9916
-1.8480 -0.3003 -1.0254 0.9915
-1.8512 -0.3779 -1.0348 0.9914
-1.8515 -0.4563 -1.0444 0.9913
-1.9096 -0.5531 -1.0889 0.9910
-2.7121 -0.9054 -1.5660 0.9870
-4.1238 -1.9568 -2.5000 0.9794
-4.0416 -2.1212 -2.5000 0.9794
-3.7565 -2.5929 -2.5000 0.9794
-3.6490 -2.7421 -2.5000 0.9794
-3.5357 -2.8868 -2.5000 0.9794
-3.4165 -3.0268 -2.5000 0.9794
-3.2919 -3.1619 -2.5000 0.9794
-3.0268 -3.4166 -2.5000 0.9794
-2.8868 -3.5357 -2.5000 0.9794
-2.7421 -3.6490 -2.5000 0.9794
-2.4396 -3.8579 -2.5000 0.9794
-2.1212 -4.0416 -2.5000 0.9794
-1.4454 -4.3296 -2.5000 0.9794
-1.2699 -4.3843 -2.5000 0.9794
-1.0923 -4.4318 -2.5000 0.9794
-0.3673 -4.5497 -2.5000 0.9794
-0.1838 -4.5608 -2.5000 0.9794
0.0000 -4.5645 -2.5000 0.9794
0.1838 -4.5608 -2.5000 0.9794
0.3673 -4.5497 -2.5000 0.9794
0.9130 -4.4722 -2.5000 0.9794
1.0924 -4.4318 -2.5000 0.9794
1.2699 -4.3843 -2.5000 0.9794
1.6186 -4.2679 -2.5000 0.9794
1.9568 -4.1238 -2.5000 0.9794
2.4396 -3.8579 -2.5000 0.9794
2.7421 -3.6490 -2.5000 0.9794
2.8868 -3.5357 -2.5000 0.9794
3.2919 -3.1619 -2.5000 0.9794
3.5357 -2.8868 -2.5000 0.9794
3.7565 -2.5929 -2.5000 0.9794
3.8579 -2.4396 -2.5000 0.9794
3.9530 -2.2822 -2.5000 0.9794
4.0417 -2.1212 -2.5000 0.9794
4.1993 -1.7891 -2.5000 0.9794
4.2679 -1.6186 -2.5000 0.9794
4.3843 -1.2699 -2.5000 0.9794
4.5645 0.0000 -2.5000 0.9794
4.5608 0.1838 -2.5000 0.9794
4.3843 1.2699 -2.5000 0.9794
4.2679 1.6186 -2.5000 0.9794
4.1992 1.7891 -2.5000 0.9794
4.1238 1.9568 -2.5000 0.9794
3.9530 2.2822 -2.5000 0.9794
3.8579 2.4396 -2.5000 0.9794
3.5980 2.7037 -2.4650 0.9797
3.2083 2.8423 -2.3476 0.9806
3.0913 2.9692 -2.3476 0.9806
2.9692 3.0912 -2.3476 0.9806
2.7108 3.3201 -2.3476 0.9806
2.4349 3.5275 -2.3476 0.9806
2.1431 3.7120 -2.3476 0.9806
1.9919 3.7953 -2.3476 0.9806
1.8375 3.8724 -2.3476 0.9806
1.3573 4.0657 -2.3476 0.9806
0.8574 4.1996 -2.3476 0.9806
0.6876 4.2307 -2.3476 0.9806
0.5167 4.2550 -2.3476 0.9806
0.1726 4.2828 -2.3476 0.9806
0.0000 4.2862 -2.3476 0.9806
-0.8573 4.1996 -2.3476 0.9806
-1.0258 4.1617 -2.3476 0.9806
-1.3573 4.0657 -2.3476 0.9806
-1.5199 4.0077 -2.3476 0.9806
-1.6801 3.9433 -2.3476 0.9806
-1.8375 3.8724 -2.3476 0.9806
-2.2908 3.6227 -2.3476 0.9806
-2.8423 3.2083 -2.3476 0.9806
-3.0912 2.9692 -2.3476 0.9806
-3.2082 2.8423 -2.3476 0.9806
-3.7565 2.5929 -2.5000 0.9794
-4.2679 1.6186 -2.5000 0.9794
-1.8512 0.3779 -1.0348 0.9914
-1.8480 0.3003 -1.0254 0.9915
-1.8418 0.2236 -1.0162 0.9916
-1.8462 0.1491 -1.0145 0.9916
-1.8480 0.0745 -1.0130 0.9916
-1.7547 0.0000 -1.0131 0.9919
-1.7558 -0.0707 -1.0145 0.9919
-1.7547 -0.1417 -1.0164 0.9919
-1.7512 -0.2126 -1.0185 0.9919
-1.7550 -0.2852 -1.0265 0.9918
-1.7575 -0.4332 -1.0450 0.9917
-1.7546 -0.5082 -1.0546 0.9916
-4.0487 -1.5355 -2.5000 0.9802
-3.7500 -2.1650 -2.5000 0.9802
-3.5636 -2.4598 -2.5000 0.9802
-3.3541 -2.7386 -2.5000 0.9802
-3.1229 -2.9996 -2.5000 0.9802
-2.9996 -3.1229 -2.5000 0.9802
-2.6013 -3.4617 -2.5000 0.9802
-2.3143 -3.6598 -2.5000 0.9802
-2.1651 -3.7500 -2.5000 0.9802
-1.3712 -4.1073 -2.5000 0.9802
-1.2047 -4.1591 -2.5000 0.9802
-0.5219 -4.2985 -2.5000 0.9802
-0.3484 -4.3160 -2.5000 0.9802
0.3484 -4.3161 -2.5000 0.9802
0.5219 -4.2985 -2.5000 0.9802
0.6946 -4.2740 -2.5000 0.9802
0.8661 -4.2426 -2.5000 0.9802
1.2047 -4.1591 -2.5000 0.9802
1.3712 -4.1073 -2.5000 0.9802
1.8563 -3.9120 -2.5000 0.9802
2.1651 -3.7500 -2.5000 0.9802
2.3143 -3.6598 -2.5000 0.9802
2.4598 -3.5636 -2.5000 0.9802
2.6013 -3.4617 -2.5000 0.9802
2.7386 -3.3541 -2.5000 0.9802
2.9996 -3.1229 -2.5000 0.9802
3.6597 -2.3143 -2.5000 0.9802
3.7500 -2.1650 -2.5000 0.9802
3.8341 -2.0123 -2.5000 0.9802
3.9836 -1.6972 -2.5000 0.9802
4.0487 -1.5355 -2.5000 0.9802
4.1591 -1.2047 -2.5000 0.9802
4.2043 -1.0362 -2.5000 0.9802
4.2426 -0.8661 -2.5000 0.9802
4.2740 -0.6946 -2.5000 0.9802
4.2985 -0.5219 -2.5000 0.9802
4.3266 -0.1743 -2.5000 0.9802
4.3301 0.0000 -2.5000 0.9802
4.3267 0.1744 -2.5000 0.9802
4.3161 0.3484 -2.5000 0.9802
4.2426 0.8661 -2.5000 0.9802
4.1073 1.3712 -2.5000 0.9802
3.9836 1.6973 -2.5000 0.9802
3.9120 1.8563 -2.5000 0.9802
3.7500 2.1650 -2.5000 0.9802
3.6598 2.3143 -2.5000 0.9802
3.3108 2.7032 -2.4677 0.9805
3.0717 2.7213 -2.3693 0.9812
2.8167 2.9325 -2.3476 0.9814
2.6964 3.0436 -2.3476 0.9814
2.5716 3.1496 -2.3476 0.9814
1.8896 3.6004 -2.3476 0.9814
1.7431 3.6736 -2.3476 0.9814
1.5938 3.7408 -2.3476 0.9814
1.4419 3.8019 -2.3476 0.9814
1.2876 3.8569 -2.3476 0.9814
0.9731 3.9480 -2.3476 0.9814
0.6523 4.0135 -2.3476 0.9814
0.4901 4.0365 -2.3476 0.9814
0.3272 4.0529 -2.3476 0.9814
0.1637 4.0629 -2.3476 0.9814
0.0000 4.0661 -2.3476 0.9814
-0.1637 4.0628 -2.3476 0.9814
-0.3272 4.0530 -2.3476 0.9814
-0.4901 4.0365 -2.3476 0.9814
-0.6523 4.0135 -2.3476 0.9814
-1.1313 3.9056 -2.3476 0.9814
-1.5938 3.7408 -2.3476 0.9814
-1.8896 3.6004 -2.3476 0.9814
-2.0330 3.5214 -2.3476 0.9814
-2.5716 3.1497 -2.3476 0.9814
-2.6963 3.0435 -2.3476 0.9814
-2.8167 2.9325 -2.3476 0.9814
-3.3080 2.7009 -2.4656 0.9805
-3.4617 2.6013 -2.5000 0.9802
-3.8341 2.0123 -2.5000 0.9802
-3.9120 1.8563 -2.5000 0.9802
