ply
format ascii 1.0
element vertex 1570
property float32 x
property float32 y
property float32 z
property float32 I
end_header
3.8672 8.1500 1.5906 0.9640
3.2337 8.5266 1.6080 0.9636
2.3590 9.5711 1.7382 0.9608
1.8986 9.3001 1.6737 0.9622
1.1619 9.5689 1.6997 0.9616
0.7724 9.5679 1.6926 0.9618
0.3855 9.5668 1.6882 0.9619
-0.0000 9.5679 1.6871 0.9619
-0.3856 9.5691 1.6887 0.9618
-2.1908 8.8883 1.6141 0.9635
-2.4703 8.5283 1.5656 0.9646
-3.4492 8.0956 1.5516 0.9649
-3.6596 7.7124 1.5052 0.9659
-23.1734 26.1574 6.1619 0.8677
-24.5641 25.5739 6.2526 0.8659
-22.3313 12.8930 4.5468 0.9006
-41.6937 -24.0719 7.3753 0.8230
-17.8776 -18.6125 3.9536 0.9008
-21.0821 -23.7967 4.8704 0.8793
-15.8701 -19.4373 3.8441 0.9034
-15.6521 -20.8291 3.9914 0.8999
-17.1270 -24.8126 4.6187 0.8851
-18.7995 -29.7290 5.3885 0.8673
-10.1756 -17.6246 3.1174 0.9209
-13.6421 -28.7500 4.8750 0.8792
-16.3082 -43.0011 7.0454 0.8302
-4.4328 -27.2759 4.2333 0.8942
0.0000 -21.5412 3.3000 0.9165
4.1185 -25.3424 3.9332 0.9013
5.2549 -25.7403 4.0246 0.8991
13.2726 -31.1519 5.1874 0.8719
8.3903 -17.6822 2.9983 0.9239
8.9070 -16.9709 2.9362 0.9254
9.8801 -17.1128 3.0272 0.9232
15.6508 -22.6740 4.2207 0.8945
17.7022 -21.6812 4.2879 0.8929
24.5011 -7.0968 3.9077 0.9019
26.0010 7.5313 4.1469 0.8962
20.2587 8.6314 3.3735 0.9147
19.7933 9.3921 3.3563 0.9152
18.4974 9.7082 3.2003 0.9189
12.1168 9.1052 2.3219 0.9405
9.6885 9.3060 2.0580 0.9471
8.4712 8.8194 1.8734 0.9517
7.2045 8.1322 1.6644 0.9570
7.3872 9.0477 1.7894 0.9538
4.7125 8.1624 1.4439 0.9626
4.2705 8.1369 1.4078 0.9635
3.5561 8.3465 1.3898 0.9640
3.2532 8.5780 1.4054 0.9636
2.9838 8.9375 1.4435 0.9626
1.8943 9.2787 1.4508 0.9624
1.1622 9.5714 1.4771 0.9617
0.7727 9.5714 1.4711 0.9619
-0.0000 9.5714 1.4663 0.9620
-0.7727 9.5714 1.4711 0.9619
-1.9540 9.5714 1.4965 0.9612
-2.4862 8.5832 1.3689 0.9645
-2.7917 8.3621 1.3505 0.9650
-3.1145 8.2122 1.3455 0.9651
-3.4746 8.1552 1.3580 0.9648
-23.1460 26.1264 5.3472 0.8683
-24.0000 24.9866 5.3075 0.8692
-22.0546 15.2232 4.1054 0.8972
-21.8997 13.8485 3.9694 0.9005
-22.9179 13.2317 4.0540 0.8984
-43.4823 14.5166 7.0227 0.8307
-43.0904 -22.6156 6.3371 0.8218
-41.8848 -24.1822 6.2981 0.8228
-19.5878 -17.3532 3.4077 0.8998
-17.8355 -25.8392 4.0885 0.8810
-18.9801 -30.0146 4.6244 0.8665
-10.1740 -17.6218 2.6494 0.9212
-13.0565 -27.5159 3.9661 0.8844
-12.1708 -28.5659 4.0434 0.8823
-16.5828 -43.7252 6.0897 0.8281
-0.8382 -20.8001 2.7108 0.9195
-0.0000 -20.5257 2.6729 0.9205
0.9863 -24.4739 3.1896 0.9059
3.0350 -24.9955 3.2788 0.9034
3.8438 -18.8282 2.5024 0.9254
5.6636 -19.5529 2.6509 0.9212
7.9646 -18.6937 2.6460 0.9213
8.4577 -17.8242 2.5691 0.9235
8.3679 -15.9436 2.3448 0.9299
12.1301 -17.5735 2.7807 0.9175
16.3585 -21.7692 3.5460 0.8960
25.7229 -24.7072 4.6445 0.8660
24.5284 -12.8735 3.6073 0.8943
20.2839 8.6422 2.8711 0.9149
18.4131 9.6639 2.7079 0.9195
16.8150 9.7082 2.5284 0.9247
12.3607 8.5320 1.9558 0.9412
10.2975 8.4077 1.7311 0.9478
9.5439 8.4551 1.6604 0.9499
8.5903 9.6965 1.6869 0.9491
7.2898 10.5612 1.6711 0.9496
6.8435 10.8221 1.6674 0.9497
4.7438 8.2166 1.2355 0.9625
4.2768 8.1488 1.1984 0.9636
3.5611 8.3582 1.1831 0.9640
1.9552 9.5774 1.2729 0.9613
1.5566 9.5785 1.2637 0.9616
1.1632 9.5797 1.2566 0.9618
0.7734 9.5808 1.2517 0.9620
-0.0000 9.5808 1.2476 0.9621
-0.7733 9.5786 1.2514 0.9620
-1.1629 9.5775 1.2563 0.9618
-1.5642 9.6248 1.2698 0.9614
-2.2138 8.9816 1.2046 0.9634
-2.4738 8.5404 1.1579 0.9648
-3.0957 8.1628 1.1368 0.9654
-3.4537 8.1061 1.1474 0.9651
-4.4387 8.4571 1.2438 0.9622
-22.7440 25.6726 4.4663 0.8708
-23.7961 24.7743 4.4733 0.8706
-23.0808 13.3257 3.4706 0.8981
-31.3041 13.3374 4.4310 0.8717
-31.5154 7.7679 4.2268 0.8773
-41.7844 8.5304 5.5534 0.8420
-41.1429 -23.7539 5.1015 0.8260
-21.1024 -18.6951 3.0274 0.8928
-17.4350 -18.1517 2.7027 0.9037
-17.5899 -19.8548 2.8484 0.8988
-15.4975 -20.6234 2.7702 0.9014
-14.6727 -21.2570 2.7736 0.9013
-13.1661 -27.7470 3.2979 0.8838
-12.0922 -28.3814 3.3127 0.8833
-9.3988 -38.1322 4.2172 0.8539
-1.7503 -21.6813 2.3357 0.9162
-0.8629 -21.4109 2.3010 0.9174
0.7165 -17.7807 1.9109 0.9309
2.2787 -18.7665 2.0300 0.9268
2.9826 -18.3527 1.9966 0.9279
7.8521 -18.4296 2.1511 0.9226
8.3418 -17.5800 2.0895 0.9247
10.6066 -16.7729 2.1310 0.9233
12.5588 -16.7127 2.2449 0.9193
26.0010 7.5313 2.9068 0.8968
20.2583 8.6312 2.3646 0.9152
19.7933 9.3921 2.3526 0.9156
18.4974 9.7082 2.2432 0.9194
12.3605 8.5319 1.6128 0.9414
12.0137 9.0277 1.6137 0.9413
11.8716 10.5174 1.7031 0.9382
7.7091 8.0260 1.1950 0.9562
7.8699 8.8833 1.2744 0.9534
7.5150 9.2042 1.2760 0.9533
7.4737 9.9457 1.3359 0.9512
7.0226 10.1740 1.3275 0.9515
4.7105 8.1589 1.0116 0.9628
4.3430 8.2749 1.0035 0.9631
3.0265 9.0656 1.0263 0.9623
2.7878 9.6247 1.0760 0.9605
1.9649 9.6248 1.0548 0.9613
1.5733 9.6811 1.0532 0.9613
1.1755 9.6811 1.0472 0.9615
0.3878 9.6247 1.0344 0.9620
-0.3902 9.6811 1.0404 0.9618
-0.7816 9.6811 1.0430 0.9617
-1.1687 9.6248 1.0411 0.9617
-3.8859 8.1893 0.9734 0.9642
-24.0250 41.6124 5.1597 0.8242
-21.5205 26.3579 3.6539 0.8721
-22.7531 25.6830 3.6845 0.8711
-23.7271 24.7025 3.6780 0.8713
-22.8748 17.1893 3.0726 0.8913
-22.2650 14.0796 2.8288 0.8994
-23.0880 13.3299 2.8628 0.8983
-31.8439 13.5674 3.7169 0.8700
-35.6278 13.5118 4.0917 0.8579
-43.5039 14.5237 4.9250 0.8315
-31.3316 7.7226 3.4651 0.8783
-31.8403 6.5003 3.4896 0.8774
-39.7516 6.4603 4.3246 0.8504
-42.8402 -22.4842 4.0957 0.8235
-41.6136 -24.0256 4.0677 0.8246
-25.1475 -20.5322 2.7482 0.8778
-19.7777 -18.9967 2.3215 0.8958
-18.4157 -19.1727 2.2504 0.8988
-20.3163 -22.9323 2.5935 0.8843
-16.5884 -20.3170 2.2203 0.9001
-14.8197 -21.4701 2.2084 0.9006
-17.4687 -27.6246 2.7668 0.8770
-10.1721 -17.6185 1.7222 0.9216
-14.4130 -27.4617 2.6254 0.8829
-14.8299 -44.4207 3.9644 0.8286
-10.7639 -37.1613 3.2751 0.8562
-5.5779 -27.3222 2.3606 0.8941
-0.8040 -19.9504 1.6902 0.9230
-0.0000 -33.6080 2.8450 0.8738
2.8749 -17.6899 1.5171 0.9306
3.7607 -18.4212 1.5916 0.9273
4.5960 -18.6468 1.6257 0.9258
8.8501 -18.6512 1.7476 0.9205
8.3552 -15.9195 1.5220 0.9304
15.5211 -22.4861 2.3129 0.8961
11.9537 -15.9074 1.6844 0.9232
26.0010 7.5313 2.2915 0.8970
20.1416 8.5816 1.8534 0.9159
12.4131 8.5682 1.2768 0.9412
9.2539 8.8885 1.0862 0.9498
11.8716 12.3597 1.4507 0.9335
8.5813 10.5102 1.1486 0.9470
7.2304 9.6220 1.0189 0.9528
7.2750 10.5396 1.0841 0.9499
4.7105 8.1589 0.7975 0.9629
4.3430 8.2749 0.7911 0.9632
3.0265 9.0656 0.8091 0.9624
1.9649 9.6248 0.8316 0.9613
1.5733 9.6811 0.8303 0.9614
1.1772 9.6951 0.8267 0.9616
0.7815 9.6811 0.8222 0.9618
-0.0000 9.6811 0.8195 0.9619
-0.7816 9.6811 0.8222 0.9618
-1.1687 9.6248 0.8207 0.9618
-1.5642 9.6248 0.8255 0.9616
-1.9649 9.6247 0.8316 0.9613
-2.2421 9.0966 0.7931 0.9631
-2.5095 8.6637 0.7636 0.9644
-3.0957 8.1628 0.7390 0.9656
-3.5142 8.2482 0.7590 0.9646
-3.8859 8.1893 0.7673 0.9643
-4.4207 8.4229 0.8053 0.9625
-10.2198 17.7013 1.7303 0.9212
-22.0049 24.8384 2.8091 0.8753
-25.6404 24.6279 3.0096 0.8670
-30.2455 26.7952 3.4206 0.8503
-22.0470 18.0008 2.4094 0.8920
-20.7816 15.6163 2.2006 0.9009
-21.0362 14.5202 2.1638 0.9025
-21.3420 13.4959 2.1376 0.9036
-21.6947 12.5255 2.1206 0.9043
-29.7445 14.1139 2.7870 0.8762
-41.1125 -23.7363 2.9438 0.8267
-21.3483 -17.4304 1.7090 0.8954
-17.7552 -21.7461 1.7409 0.8936
-15.3182 -20.3847 1.5812 0.9029
-17.5926 -27.8205 2.0412 0.8764
-14.6582 -27.9289 1.9559 0.8813
-10.9546 -28.8849 1.9157 0.8836
-5.4802 -26.8436 1.6989 0.8960
-3.3698 -20.7353 1.3027 0.9193
-1.7174 -21.2739 1.3235 0.9180
2.9627 -24.4000 1.5242 0.9062
9.4288 -38.2541 2.4431 0.8539
10.5997 -16.7620 1.2298 0.9236
12.7759 -17.0016 1.3188 0.9183
13.5592 -16.6070 1.3295 0.9177
18.4965 -20.8782 1.7297 0.8942
25.7188 -24.7032 2.2114 0.8668
26.0010 7.5313 1.6786 0.8972
20.2033 8.6078 1.3618 0.9158
19.8037 9.3970 1.3593 0.9159
18.2518 9.5793 1.2782 0.9207
16.6705 9.6247 1.1937 0.9258
12.9634 8.1976 0.9511 0.9404
12.4843 8.6173 0.9407 0.9410
12.1217 9.1089 0.9402 0.9410
11.9345 9.7442 0.9554 0.9401
11.9345 10.5730 0.9887 0.9381
12.0396 11.5642 1.0352 0.9353
8.5123 9.6084 0.7960 0.9499
8.0204 10.6733 0.8279 0.9479
7.2181 11.4146 0.8375 0.9473
4.7105 8.1589 0.5842 0.9629
4.3430 8.2749 0.5795 0.9632
3.8722 8.1605 0.5601 0.9644
3.5611 8.3582 0.5634 0.9642
3.2969 8.6933 0.5765 0.9634
3.0265 9.0656 0.5927 0.9624
2.7878 9.6247 0.6214 0.9606
2.3723 9.6248 0.6147 0.9611
1.5733 9.6811 0.6082 0.9615
0.7815 9.6811 0.6023 0.9618
-0.0000 9.6811 0.6003 0.9619
-0.3902 9.6811 0.6008 0.9619
-0.7816 9.6811 0.6023 0.9618
-1.1687 9.6248 0.6012 0.9619
-1.5642 9.6248 0.6047 0.9617
-1.9649 9.6247 0.6091 0.9614
-2.7917 8.3621 0.5467 0.9653
-3.8859 8.1893 0.5621 0.9643
-23.9701 41.5173 2.9728 0.8252
-23.1434 28.3456 2.2692 0.8636
-22.6852 25.6062 2.1213 0.8719
-25.1445 24.1516 2.1620 0.8696
-30.3636 26.8998 2.5155 0.8500
-22.9551 17.2496 1.7806 0.8913
-22.8831 13.2116 1.6385 0.8995
-23.2318 12.1930 1.6270 0.9002
-23.0730 10.9483 1.5837 0.9027
-35.7217 13.5475 2.3690 0.8580
-30.7955 8.9200 1.9881 0.8794
-39.0674 6.3491 2.4544 0.8533
-41.5458 5.0446 2.5952 0.8456
-42.7458 -22.4347 1.9036 0.8243
-39.7381 -22.9428 1.8093 0.8322
-21.5068 -17.5597 1.0948 0.8948
-18.0413 -18.7829 1.0269 0.9010
-18.6278 -21.0264 1.1077 0.8936
-19.4984 -23.8811 1.2157 0.8839
-14.2734 -20.6785 0.9908 0.9043
-10.1701 -17.6151 0.8020 0.9218
-17.4226 -33.1960 1.4783 0.8606
-11.0288 -29.0804 1.2264 0.8829
-14.8117 -44.3663 1.8443 0.8292
-0.8448 -20.9626 0.8272 0.9194
-0.0000 -21.3843 0.8432 0.9180
0.8974 -22.2680 0.8788 0.9147
1.9559 -24.2278 0.9584 0.9073
2.8476 -23.4519 0.9315 0.9098
6.5737 -26.6704 1.0831 0.8959
7.1316 -24.6213 1.0107 0.9025
6.9108 -20.7004 0.8605 0.9163
8.3010 -17.4941 0.7635 0.9254
8.7130 -16.6012 0.7393 0.9277
10.1798 -16.0980 0.7510 0.9266
10.4835 -15.1879 0.7277 0.9288
12.2713 -16.3302 0.8055 0.9215
19.3839 -20.1807 1.1034 0.8940
25.7174 -24.7019 1.4063 0.8670
26.0010 7.5313 1.0674 0.8973
21.6096 8.1954 0.9113 0.9116
20.2939 8.6464 0.8698 0.9155
12.1217 9.1089 0.5979 0.9411
11.9345 9.7442 0.6075 0.9402
7.6477 10.1773 0.5020 0.9503
7.3470 10.6440 0.5100 0.9495
9.0470 14.3068 0.6675 0.9345
3.5611 8.3582 0.3582 0.9643
3.2969 8.6933 0.3666 0.9635
1.5733 9.6811 0.3867 0.9615
0.7815 9.6811 0.3830 0.9619
0.3878 9.6247 0.3798 0.9622
-0.0000 9.6811 0.3817 0.9620
-0.7823 9.6901 0.3833 0.9618
-1.1687 9.6248 0.3823 0.9619
-1.9649 9.6247 0.3873 0.9614
-3.5144 8.2485 0.3535 0.9647
-4.4207 8.4229 0.3751 0.9626
-23.7924 24.7705 1.3543 0.8715
-30.2454 26.7951 1.5933 0.8506
-21.1045 17.2313 1.0743 0.8967
-21.5734 14.8910 1.0336 0.9004
-29.8046 14.1425 1.3008 0.8763
-31.8402 13.5658 1.3647 0.8706
-34.6446 13.1389 1.4610 0.8622
-41.6520 13.9055 1.7315 0.8388
-30.9699 6.3226 1.2464 0.8811
-40.0117 6.5025 1.5984 0.8502
-41.9210 -22.0018 0.7997 0.8275
-41.0281 -23.6876 0.8002 0.8273
-40.1937 -25.4170 0.8033 0.8268
-21.2277 -15.9515 0.4485 0.8992
-21.8075 -17.8053 0.4756 0.8935
-20.1444 -17.8464 0.4546 0.8979
-18.4793 -19.2390 0.4506 0.8988
-15.3546 -20.4332 0.4317 0.9028
-14.0297 -20.3255 0.4172 0.9059
-13.9285 -22.0261 0.4402 0.9010
-10.1684 -17.6121 0.3435 0.9219
-17.3415 -36.5463 0.6833 0.8506
-15.6264 -36.6765 0.6734 0.8526
-11.1804 -29.4803 0.5326 0.8815
-8.3417 -24.9865 0.4450 0.9000
-13.3336 -46.0328 0.8095 0.8255
-6.3269 -25.6691 0.4466 0.8996
-4.3328 -26.6608 0.4563 0.8976
-0.0000 -20.8037 0.3514 0.9201
2.9201 -24.0494 0.4092 0.9076
5.0628 -24.7995 0.4275 0.9037
6.0558 -24.5694 0.4274 0.9037
7.8467 -18.4170 0.3382 0.9230
8.4712 -17.8528 0.3338 0.9240
8.1127 -15.4575 0.2949 0.9325
10.5972 -16.7582 0.3349 0.9237
11.4018 -15.1730 0.3206 0.9269
17.2875 -19.5134 0.4404 0.9010
20.3650 -21.2022 0.4966 0.8890
25.7152 -24.6997 0.6023 0.8671
26.0010 7.5313 0.4573 0.8974
21.6096 8.1954 0.3904 0.9117
20.2939 8.6464 0.3726 0.9155
19.8037 9.3970 0.3703 0.9160
16.7816 9.6889 0.3273 0.9254
12.9634 8.1976 0.2591 0.9405
12.4843 8.6173 0.2562 0.9411
12.1217 9.1089 0.2561 0.9411
11.9345 9.7442 0.2603 0.9402
11.9345 10.5730 0.2693 0.9382
7.3060 9.7225 0.2054 0.9525
6.9821 10.1153 0.2076 0.9520
4.7105 8.1589 0.1591 0.9630
4.3430 8.2749 0.1579 0.9633
3.8722 8.1605 0.1526 0.9645
3.2969 8.6933 0.1571 0.9635
3.0265 9.0656 0.1614 0.9625
2.3723 9.6248 0.1674 0.9611
0.7815 9.6811 0.1641 0.9619
0.3878 9.6247 0.1627 0.9622
-0.0000 9.6811 0.1635 0.9620
-0.7823 9.6903 0.1642 0.9619
-1.1687 9.6248 0.1638 0.9620
-1.9649 9.6247 0.1659 0.9615
-2.7917 8.3621 0.1489 0.9653
-3.5144 8.2485 0.1515 0.9648
-3.8859 8.1893 0.1531 0.9644
-30.6170 34.5595 0.7799 0.8313
-31.3436 32.6321 0.7643 0.8344
-31.2732 30.0383 0.7325 0.8407
-32.3125 26.3823 0.7046 0.8463
-10.2447 7.6984 0.2165 0.9500
-29.7550 14.1189 0.5563 0.8766
-31.8696 13.5784 0.5852 0.8706
-35.7217 13.5475 0.6453 0.8583
-41.8402 13.9684 0.7451 0.8382
-31.1957 9.0360 0.5486 0.8782
-30.3730 7.4863 0.5284 0.8824
-31.5333 6.4376 0.5436 0.8792
-40.3308 4.8970 0.6863 0.8500
-39.3052 -20.6289 -0.2499 0.8373
-41.6377 -24.0395 -0.2707 0.8250
-36.4121 -23.0257 -0.2426 0.8417
-19.2399 -17.0451 -0.1447 0.9023
-17.8617 -18.5960 -0.1452 0.9020
-13.3386 -21.0933 -0.1405 0.9050
-21.9114 -41.7487 -0.2655 0.8281
-20.8498 -43.9401 -0.2738 0.8232
-15.5258 -36.4405 -0.2230 0.8535
-9.3505 -24.6552 -0.1485 0.8999
-7.5426 -22.5927 -0.1341 0.9091
-5.7422 -23.2971 -0.1351 0.9085
-3.2608 -15.9725 -0.0918 0.9369
-4.1581 -25.5860 -0.1459 0.9015
-3.2452 -26.7263 -0.1516 0.8979
-2.2247 -27.5579 -0.1557 0.8953
0.0000 -23.3223 -0.1313 0.9109
1.9155 -23.7280 -0.1340 0.9092
3.0533 -25.1462 -0.1426 0.9036
6.3883 -39.3091 -0.2242 0.8527
8.2097 -40.2135 -0.2311 0.8486
10.5739 -36.5053 -0.2140 0.8590
10.0787 -26.5753 -0.1600 0.8925
8.4049 -19.7272 -0.1207 0.9178
8.2621 -17.4120 -0.1085 0.9258
8.8069 -16.7801 -0.1067 0.9270
9.0518 -15.6783 -0.1019 0.9301
13.0669 -18.9306 -0.1295 0.9121
14.3624 -19.1129 -0.1346 0.9088
17.8915 -20.1953 -0.1519 0.8977
25.7123 -24.6970 -0.2007 0.8671
26.0591 -19.5822 -0.1835 0.8778
26.0010 7.5313 -0.1524 0.8974
21.6096 8.1954 -0.1301 0.9117
19.8037 9.3970 -0.1234 0.9161
18.4458 9.6811 -0.1173 0.9200
16.7682 9.6811 -0.1090 0.9255
12.9634 8.1976 -0.0864 0.9405
12.4843 8.6173 -0.0854 0.9411
10.0494 9.6526 -0.0785 0.9458
8.5514 9.6526 -0.0726 0.9497
7.8811 9.6526 -0.0702 0.9514
7.2534 9.6526 -0.0680 0.9529
6.6627 9.6526 -0.0660 0.9542
6.0522 9.5708 -0.0638 0.9557
3.8722 8.1605 -0.0509 0.9645
3.2969 8.6933 -0.0523 0.9635
3.0265 9.0656 -0.0538 0.9625
1.1755 9.6811 -0.0549 0.9617
0.3878 9.6247 -0.0542 0.9622
-0.7816 9.6811 -0.0547 0.9619
-1.1687 9.6248 -0.0546 0.9620
-1.5642 9.6248 -0.0549 0.9617
-3.0957 8.1628 -0.0492 0.9657
-3.8859 8.1893 -0.0510 0.9644
-4.4207 8.4229 -0.0536 0.9627
-31.3296 32.6175 -0.2546 0.8345
-10.2447 7.6984 -0.0721 0.9500
-30.9467 21.3610 -0.2117 0.8604
-30.8895 17.8341 -0.2008 0.8670
-29.7550 14.1189 -0.1854 0.8766
-31.8696 13.5784 -0.1950 0.8706
-29.3370 11.1261 -0.1767 0.8821
-29.3370 9.7942 -0.1741 0.8836
-29.4566 6.0136 -0.1693 0.8867
-47.1528 5.7254 -0.2674 0.8270
-44.4161 -16.8448 -1.3375 0.8269
-39.4798 -16.8208 -1.2084 0.8422
-35.2434 -16.7232 -1.0984 0.8555
-31.5551 -16.5614 -1.0035 0.8671
-36.6216 -23.1582 -1.2201 0.8408
-24.0866 -19.6661 -0.8756 0.8830
-19.6329 -17.3933 -0.7386 0.9004
-18.3598 -17.6348 -0.7168 0.9031
-19.5857 -22.1076 -0.8317 0.8885
-18.2806 -22.3897 -0.8139 0.8908
-21.9064 -41.7391 -1.3273 0.8281
-10.3189 -24.2192 -0.7413 0.9000
-8.5387 -22.5148 -0.6780 0.9081
-7.5153 -22.5111 -0.6683 0.9094
-6.5422 -22.5861 -0.6621 0.9102
-4.3225 -26.5972 -0.7587 0.8978
-3.5214 -29.0009 -0.8226 0.8897
-2.1617 -26.7775 -0.7564 0.8981
1.0176 -25.2513 -0.7116 0.9038
2.0129 -24.9341 -0.7044 0.9047
3.3483 -27.5758 -0.7822 0.8948
6.4827 -19.4181 -0.5764 0.9213
9.0255 -15.6327 -0.5083 0.9303
9.6576 -15.2723 -0.5088 0.9302
16.7017 -18.8523 -0.7092 0.9041
14.9910 -15.6073 -0.6094 0.9170
25.7095 -24.6943 -1.0038 0.8671
26.0236 -21.2476 -0.9460 0.8742
26.0010 7.5313 -0.7622 0.8973
20.2939 8.6464 -0.6211 0.9155
17.1297 8.9904 -0.5447 0.9255
12.3293 8.5103 -0.4218 0.9418
11.7221 9.5708 -0.4261 0.9412
10.0494 9.6526 -0.3924 0.9458
7.8811 9.6526 -0.3509 0.9514
7.2534 9.6526 -0.3400 0.9528
4.3430 8.2749 -0.2631 0.9633
3.5611 8.3582 -0.2558 0.9643
3.0145 9.0296 -0.2680 0.9626
2.3723 9.6248 -0.2791 0.9611
1.9649 9.6248 -0.2766 0.9615
1.5733 9.6811 -0.2762 0.9615
1.1758 9.6835 -0.2747 0.9617
0.7815 9.6811 -0.2735 0.9619
-0.0000 9.6811 -0.2726 0.9620
-0.3904 9.6872 -0.2730 0.9619
-0.7821 9.6874 -0.2737 0.9619
-1.1687 9.6248 -0.2730 0.9619
-1.5642 9.6248 -0.2746 0.9617
-1.9649 9.6248 -0.2766 0.9615
-2.5229 8.7101 -0.2553 0.9644
-2.7917 8.3621 -0.2482 0.9653
-3.8859 8.1893 -0.2552 0.9644
-31.2722 30.0374 -1.2210 0.8407
-30.2926 26.8369 -1.1396 0.8505
-32.3125 26.3823 -1.1746 0.8463
-10.2447 7.6984 -0.3608 0.9500
-29.8862 17.2548 -0.9717 0.8710
-29.5356 15.5015 -0.9392 0.8750
-29.3370 11.1261 -0.8835 0.8820
-29.3370 9.7942 -0.8709 0.8836
-29.3370 8.4976 -0.8600 0.8850
-29.3370 7.2310 -0.8508 0.8861
-37.5261 6.0986 -1.0705 0.8589
-49.2955 0.0000 -2.5000 0.8208
-49.2555 -1.9849 -2.5000 0.8208
-49.1356 -3.9666 -2.5000 0.8208
-48.2993 -9.8604 -2.5000 0.8208
-43.3184 -16.4285 -2.3495 0.8306
-40.6574 -17.3225 -2.2413 0.8378
-35.2434 -16.7232 -1.9784 0.8554
-28.7045 -16.5726 -1.6809 0.8757
-20.0822 -16.3966 -1.3148 0.9014
-14.3204 -16.1644 -1.0952 0.9171
-13.3820 -16.3899 -1.0731 0.9187
-19.5167 -28.2748 -1.7424 0.8714
-24.5365 -38.8012 -2.3282 0.8320
-10.2554 -24.0704 -1.3269 0.9005
-6.4300 -22.1987 -1.1721 0.9116
-3.2508 -15.9234 -0.8242 0.9370
-1.8434 -45.7430 -2.3217 0.8325
1.0715 -26.5893 -1.3496 0.8989
3.6844 -45.6388 -2.3221 0.8324
5.5197 -45.4588 -2.3223 0.8324
7.3468 -45.2065 -2.3227 0.8324
10.9650 -44.4865 -2.3236 0.8323
9.4508 -28.3085 -1.5135 0.8873
12.5365 -26.4201 -1.4831 0.8895
24.6839 -39.0345 -2.3422 0.8311
10.7587 -15.5867 -0.9605 0.9270
11.6964 -15.5651 -0.9874 0.9250
25.6204 -24.6087 -1.8016 0.8674
20.5444 -15.4381 -1.3033 0.9022
43.6492 -22.9089 -2.5000 0.8208
44.4623 -21.0976 -2.4958 0.8211
45.3455 -15.1385 -2.4244 0.8257
47.0770 -13.6360 -2.4856 0.8218
48.2992 -9.8603 -2.5000 0.8208
49.1356 -3.9667 -2.5000 0.8208
49.2555 -1.9850 -2.5000 0.8208
46.7670 3.7754 -2.3795 0.8287
45.3552 9.2594 -2.3476 0.8308
44.9706 11.0843 -2.3489 0.8307
44.0772 14.7152 -2.3566 0.8302
18.8152 8.0164 -1.0372 0.9214
17.0899 8.1093 -0.9593 0.9270
15.5730 8.1734 -0.8919 0.9320
12.9634 8.1976 -0.7778 0.9404
12.4843 8.6173 -0.7693 0.9411
11.0745 9.0421 -0.7251 0.9443
9.2714 9.6526 -0.6788 0.9478
6.6627 9.6526 -0.5948 0.9541
5.4756 8.6591 -0.5196 0.9598
4.2514 8.1004 -0.4639 0.9640
3.8722 8.1605 -0.4581 0.9645
3.5611 8.3582 -0.4608 0.9643
2.9664 8.8855 -0.4751 0.9632
2.7878 9.6247 -0.5082 0.9607
1.8930 9.2725 -0.4799 0.9628
1.5733 9.6811 -0.4974 0.9615
1.1758 9.6835 -0.4947 0.9617
-0.0000 9.6811 -0.4910 0.9620
-0.3902 9.6827 -0.4915 0.9619
-1.1313 9.3168 -0.4760 0.9631
-3.4537 8.1061 -0.4469 0.9653
-3.8652 8.1456 -0.4572 0.9645
-24.3495 38.5056 -2.3105 0.8332
-28.9327 35.4361 -2.3200 0.8326
-29.1517 32.9055 -2.2295 0.8386
-28.9235 30.1125 -2.1175 0.8460
-31.2731 30.0382 -2.1991 0.8406
-10.2447 7.6984 -0.6499 0.9500
-23.6032 14.9258 -1.4163 0.8942
-29.4784 15.4715 -1.6884 0.8752
-29.7550 14.1189 -1.6703 0.8764
-29.3370 11.1261 -1.5912 0.8819
-29.3370 8.4976 -1.5490 0.8849
-29.3370 7.2310 -1.5323 0.8860
-46.1528 3.7258 -2.3482 0.8307
-34.0959 0.0000 -2.5000 0.8722
-33.9854 -2.7436 -2.5000 0.8722
-33.8473 -4.1098 -2.5000 0.8722
-32.7498 -9.4861 -2.5000 0.8722
-32.3412 -10.7971 -2.5000 0.8722
-31.0009 -13.2082 -2.4708 0.8736
-28.3553 -14.8820 -2.3480 0.8795
-27.7391 -16.0152 -2.3485 0.8794
-27.0825 -17.1259 -2.3495 0.8794
-26.3738 -18.2045 -2.3497 0.8794
-15.6548 -16.2983 -1.6570 0.9133
-14.3899 -16.2428 -1.5911 0.9166
-11.1603 -16.1684 -1.4405 0.9242
-9.2827 -16.0781 -1.3613 0.9282
-8.4531 -16.1061 -1.3337 0.9296
-7.6335 -16.0872 -1.3056 0.9311
-6.8464 -16.0691 -1.2807 0.9323
-6.0876 -16.0516 -1.2587 0.9335
-3.9442 -16.0022 -1.2084 0.9360
-3.2526 -15.9321 -1.1923 0.9369
-1.2869 -15.9410 -1.1726 0.9379
0.6406 -15.8966 -1.1665 0.9382
1.9266 -15.8670 -1.1719 0.9379
3.8997 -15.8215 -1.1948 0.9367
4.5782 -15.8059 -1.2066 0.9361
10.1911 -26.8716 -2.1072 0.8911
8.2512 -15.7213 -1.3018 0.9313
9.0390 -15.6561 -1.3255 0.9301
9.9173 -15.6829 -1.3605 0.9283
14.9611 -15.5762 -1.5836 0.9170
16.1775 -15.5387 -1.6447 0.9140
23.9778 -21.2425 -2.3488 0.8794
18.9532 -15.4748 -1.7941 0.9065
20.5444 -15.4381 -1.8843 0.9021
27.0610 -17.1123 -2.3476 0.8795
30.1904 -15.8452 -2.5000 0.8722
30.8041 -14.6167 -2.5000 0.8722
31.3676 -13.3645 -2.5000 0.8722
31.8803 -12.0906 -2.5000 0.8722
32.3413 -10.7971 -2.5000 0.8722
32.7498 -9.4861 -2.5000 0.8722
33.4069 -6.8201 -2.5000 0.8722
33.6544 -5.4694 -2.5000 0.8722
33.8474 -4.1098 -2.5000 0.8722
34.0683 1.3729 -2.5000 0.8722
33.9853 2.7436 -2.5000 0.8722
33.8473 4.1098 -2.5000 0.8722
33.4070 6.8201 -2.5000 0.8722
32.3414 10.7972 -2.5000 0.8722
17.2491 7.3492 -1.3748 0.9276
17.1287 8.1277 -1.3901 0.9268
15.6105 9.0127 -1.3217 0.9303
11.2402 8.4465 -1.0309 0.9452
10.3517 8.4519 -0.9799 0.9478
9.9531 8.8177 -0.9750 0.9481
6.9665 8.5325 -0.8077 0.9568
6.4599 8.5967 -0.7885 0.9578
6.0876 8.8195 -0.7858 0.9579
6.0522 9.5708 -0.8303 0.9556
4.3430 8.2749 -0.6852 0.9632
3.8722 8.1605 -0.6623 0.9644
3.5611 8.3582 -0.6661 0.9642
3.0265 9.0655 -0.7008 0.9624
1.8928 9.2716 -0.6938 0.9628
1.5733 9.6811 -0.7192 0.9614
-0.0000 9.6811 -0.7098 0.9619
-0.7824 9.6909 -0.7129 0.9618
-1.1311 9.3151 -0.6880 0.9631
-2.2421 9.0966 -0.6869 0.9631
-2.5229 8.7101 -0.6649 0.9643
-3.0957 8.1628 -0.6401 0.9656
-3.5144 8.2485 -0.6574 0.9647
-17.9419 28.3727 -2.4614 0.8740
-19.0697 27.6272 -2.4614 0.8740
-21.2309 26.0032 -2.4614 0.8740
-22.2608 25.1272 -2.4614 0.8740
-23.4326 22.5074 -2.3823 0.8778
-23.5721 20.8831 -2.3091 0.8813
-24.4176 19.9363 -2.3113 0.8812
-25.2246 18.9551 -2.3135 0.8811
-28.8067 13.6689 -2.3379 0.8800
-29.3556 12.5072 -2.3396 0.8799
-29.3370 9.7942 -2.2678 0.8833
-29.3370 7.2310 -2.2154 0.8859
-29.4567 6.0136 -2.2044 0.8864
-34.0683 1.3729 -2.5000 0.8722
-26.0307 0.0000 -2.4991 0.9007
-26.0168 -1.0484 -2.4998 0.9007
-25.9557 -2.0954 -2.5000 0.9006
-25.2835 -6.2318 -2.5000 0.9006
-25.0120 -7.2448 -2.5000 0.9006
-24.7000 -8.2461 -2.5000 0.9006
-23.9564 -10.2069 -2.5000 0.9006
-23.5260 -11.1632 -2.5000 0.9006
-23.0575 -12.1014 -2.5000 0.9006
-22.5515 -13.0201 -2.5000 0.9006
-20.9088 -13.2219 -2.3750 0.9054
-20.1243 -13.8908 -2.3476 0.9064
-12.2663 -16.3235 -1.9603 0.9212
-13.0699 -20.6684 -2.3477 0.9064
-9.2827 -16.0781 -1.7824 0.9281
-8.4531 -16.1061 -1.7463 0.9295
-7.6335 -16.0872 -1.7095 0.9309
-4.6397 -16.0182 -1.6010 0.9352
-3.2520 -15.9294 -1.5608 0.9368
-2.5956 -15.9712 -1.5534 0.9370
-2.9435 -24.2416 -2.3444 0.9065
-1.9649 -24.3398 -2.3443 0.9065
-0.9833 -24.3990 -2.3443 0.9065
0.0000 -24.4191 -2.3444 0.9065
1.9651 -24.3417 -2.3445 0.9065
2.9438 -24.2443 -2.3447 0.9065
3.9179 -24.1080 -2.3449 0.9065
3.2331 -15.8369 -1.5518 0.9371
4.5782 -15.8059 -1.5798 0.9360
9.5816 -22.4888 -2.3468 0.9064
7.5357 -15.8812 -1.6876 0.9318
8.2512 -15.7213 -1.7046 0.9311
9.9173 -15.6829 -1.7814 0.9281
11.7532 -15.6407 -1.8783 0.9244
12.7514 -15.6176 -1.9357 0.9222
14.9979 -15.6145 -2.0786 0.9167
17.6373 -16.9409 -2.3478 0.9064
18.3033 -16.2152 -2.3476 0.9064
20.1242 -13.8907 -2.3476 0.9064
22.5515 -13.0201 -2.5000 0.9006
23.5260 -11.1632 -2.5000 0.9006
23.9564 -10.2068 -2.5000 0.9006
25.0120 -7.2448 -2.5000 0.9006
25.7029 -4.1771 -2.5000 0.9006
25.8503 -3.1388 -2.5000 0.9006
25.9557 -2.0953 -2.5000 0.9006
26.0401 0.0000 -2.5000 0.9006
25.9557 2.0954 -2.5000 0.9006
24.2805 2.9482 -2.3482 0.9064
23.9585 4.8912 -2.3476 0.9064
23.4873 6.8032 -2.3476 0.9064
23.2021 7.7460 -2.3484 0.9064
15.6104 9.0127 -1.7305 0.9301
12.9634 8.1976 -1.4725 0.9402
12.4843 8.6173 -1.4564 0.9409
11.2402 8.4465 -1.3498 0.9451
10.3450 8.4465 -1.2822 0.9477
10.0494 9.6526 -1.3378 0.9455
9.2714 9.6526 -1.2849 0.9476
6.0335 8.7410 -1.0197 0.9582
6.0522 9.5708 -1.0871 0.9555
4.7105 8.1589 -0.9045 0.9629
4.2514 8.1004 -0.8783 0.9639
3.8722 8.1605 -0.8672 0.9644
3.2380 8.5380 -0.8767 0.9640
1.9816 8.0395 -0.7949 0.9673
1.5733 9.6811 -0.9416 0.9614
0.7815 9.6811 -0.9325 0.9617
-0.7816 9.6811 -0.9325 0.9617
-1.9649 9.6246 -0.9431 0.9613
-2.1948 8.9047 -0.8805 0.9638
-2.4738 8.5404 -0.8536 0.9649
-3.4537 8.1061 -0.8459 0.9652
-4.4207 8.4229 -0.9132 0.9625
-10.2504 17.7541 -1.9682 0.9209
-13.7028 21.6692 -2.4614 0.9021
-15.4020 20.4963 -2.4614 0.9021
-17.0013 19.1904 -2.4614 0.9021
-18.4904 17.7602 -2.4614 0.9021
-21.0998 14.5642 -2.4614 0.9021
-21.6692 13.7028 -2.4614 0.9021
-22.7015 11.9146 -2.4614 0.9021
-22.9701 10.8994 -2.4409 0.9029
-22.9350 9.7717 -2.3934 0.9047
-22.8738 7.6364 -2.3151 0.9076
-23.1012 6.6914 -2.3090 0.9079
-26.0190 1.0485 -2.5000 0.9006
-21.0291 -0.8474 -2.5000 0.9187
-20.9779 -1.6935 -2.5000 0.9187
-20.8927 -2.5368 -2.5000 0.9187
-20.6208 -4.2098 -2.5000 0.9187
-20.4346 -5.0367 -2.5000 0.9187
-18.6354 -9.7806 -2.5000 0.9187
-18.2265 -10.5230 -2.5000 0.9187
-14.9232 -13.2208 -2.3683 0.9228
-13.1054 -14.7929 -2.3476 0.9235
-12.4991 -15.3086 -2.3476 0.9235
-10.5674 -16.7110 -2.3486 0.9234
-9.1986 -17.5265 -2.3512 0.9234
-6.0876 -16.0516 -2.0392 0.9332
-5.3532 -16.0347 -2.0080 0.9342
-4.6397 -16.0182 -1.9810 0.9350
-3.9442 -16.0022 -1.9577 0.9358
-1.9522 -16.0773 -1.9238 0.9368
2.5762 -15.8520 -1.9077 0.9374
5.2715 -15.7899 -1.9774 0.9351
7.7587 -18.2103 -2.3513 0.9234
9.1965 -17.5225 -2.3507 0.9234
9.0148 -15.6140 -2.1417 0.9299
10.5644 -16.7062 -2.3479 0.9235
11.2270 -16.2650 -2.3476 0.9235
11.8726 -15.7996 -2.3476 0.9235
12.4991 -15.3086 -2.3476 0.9235
13.6904 -14.2532 -2.3476 0.9235
14.2532 -13.6904 -2.3476 0.9235
16.8252 -12.6433 -2.5000 0.9187
17.3206 -11.9556 -2.5000 0.9187
19.3620 -8.2494 -2.5000 0.9187
19.6785 -7.4630 -2.5000 0.9187
20.2152 -5.8554 -2.5000 0.9187
20.6208 -4.2098 -2.5000 0.9187
20.8927 -2.5368 -2.5000 0.9187
20.9779 -1.6935 -2.5000 0.9187
21.0291 -0.8474 -2.5000 0.9187
21.0461 0.0000 -2.5000 0.9187
20.9779 1.6935 -2.5000 0.9187
19.5072 3.1702 -2.3476 0.9235
19.1889 4.7296 -2.3476 0.9235
18.9829 5.4985 -2.3476 0.9235
17.1268 7.2971 -2.2114 0.9278
15.6114 8.1935 -2.0943 0.9314
15.6104 9.0127 -2.1412 0.9300
12.4843 8.6173 -1.8019 0.9407
10.0494 9.6526 -1.6552 0.9454
7.2759 8.2128 -1.3033 0.9568
6.1715 8.2128 -1.2203 0.9595
4.7438 8.2166 -1.1270 0.9625
4.2614 8.1195 -1.0893 0.9637
3.5611 8.3582 -1.0792 0.9641
3.2581 8.5911 -1.0914 0.9637
2.7878 9.6247 -1.1903 0.9604
1.1578 9.5357 -1.1410 0.9620
0.3238 8.0361 -0.9554 0.9681
-0.3868 9.5978 -1.1410 0.9620
-1.3042 8.0248 -0.9657 0.9678
-2.4902 8.5972 -1.0632 0.9646
-2.7917 8.3621 -1.0472 0.9651
-9.7346 16.8608 -2.3127 0.9246
-10.3975 16.4423 -2.3109 0.9246
-11.0427 15.9980 -2.3091 0.9247
-13.7408 15.5101 -2.4614 0.9199
-14.3542 14.9442 -2.4614 0.9199
-14.9442 14.3541 -2.4614 0.9199
-16.0508 13.1051 -2.4614 0.9199
-17.0533 11.7710 -2.4614 0.9199
-17.5134 11.0748 -2.4614 0.9199
-18.7206 8.8830 -2.4614 0.9199
-19.0632 8.1221 -2.4614 0.9199
-20.2464 4.9903 -2.4770 0.9194
-20.7558 3.3731 -2.4978 0.9188
-20.9690 1.6928 -2.4989 0.9188
-21.0248 0.8473 -2.4995 0.9187
-17.6441 0.0000 -2.5000 0.9312
-17.6298 -0.7105 -2.5000 0.9312
-16.9475 -4.9089 -2.5000 0.9312
-16.7361 -5.5873 -2.5000 0.9312
-16.4976 -6.2567 -2.5000 0.9312
-16.2322 -6.9159 -2.5000 0.9312
-15.9406 -7.5639 -2.5000 0.9312
-15.2803 -8.8221 -2.5000 0.9312
-14.5208 -10.0230 -2.5000 0.9312
-14.1055 -10.5996 -2.5000 0.9312
-13.6673 -11.1589 -2.5000 0.9312
-13.2068 -11.7002 -2.5000 0.9312
-12.2225 -12.7250 -2.5000 0.9312
-10.7858 -13.2102 -2.4164 0.9334
-9.9534 -13.2456 -2.3476 0.9353
-8.2843 -14.3488 -2.3476 0.9353
-6.4943 -15.2427 -2.3476 0.9353
-5.8754 -15.4922 -2.3476 0.9353
-5.2472 -15.7171 -2.3478 0.9352
-3.9658 -16.0899 -2.3480 0.9352
-3.2453 -15.8964 -2.2988 0.9366
-1.9976 -16.4519 -2.3482 0.9352
-1.3336 -16.5191 -2.3482 0.9352
0.6673 -16.5592 -2.3482 0.9352
1.3335 -16.5185 -2.3481 0.9352
1.9975 -16.4510 -2.3480 0.9352
3.3145 -16.2356 -2.3479 0.9352
5.2468 -15.7159 -2.3476 0.9353
7.6998 -14.6707 -2.3476 0.9353
8.8553 -14.0036 -2.3476 0.9353
9.9534 -13.2456 -2.3476 0.9353
10.7790 -13.2019 -2.4149 0.9335
11.6822 -13.1864 -2.4961 0.9313
12.2225 -12.7250 -2.5000 0.9312
13.2068 -11.7002 -2.5000 0.9312
14.1054 -10.5996 -2.5000 0.9312
14.9126 -9.4302 -2.5000 0.9312
15.2802 -8.8221 -2.5000 0.9312
15.6231 -8.1996 -2.5000 0.9312
15.9406 -7.5639 -2.5000 0.9312
16.2322 -6.9159 -2.5000 0.9312
17.1314 -4.2225 -2.5000 0.9312
17.2875 -3.5293 -2.5000 0.9312
7.3989 0.0000 -1.0483 0.9706
7.4174 0.2989 -1.0518 0.9705
17.5155 2.1268 -2.5000 0.9312
16.7275 2.7185 -2.4012 0.9338
16.2337 3.3142 -2.3476 0.9353
15.4918 5.8753 -2.3476 0.9353
15.2427 6.4943 -2.3476 0.9353
14.2995 8.2558 -2.3395 0.9355
11.3775 8.5497 -2.0165 0.9441
9.1611 8.1160 -1.7342 0.9518
8.3652 8.7091 -1.7110 0.9524
6.7055 8.2128 -1.5023 0.9581
6.1715 8.2128 -1.4556 0.9593
6.0335 8.7410 -1.5049 0.9580
6.0522 9.5708 -1.6045 0.9553
4.7105 8.1589 -1.3349 0.9627
2.7878 9.6247 -1.4198 0.9603
1.9306 7.8329 -1.1430 0.9679
1.7880 8.7581 -1.2665 0.9645
1.0750 8.8534 -1.2636 0.9646
0.6346 7.8608 -1.1174 0.9686
0.3169 7.8629 -1.1150 0.9687
-0.0000 8.9149 -1.2632 0.9646
-1.0760 8.8617 -1.2648 0.9646
-1.2512 7.6990 -1.1052 0.9690
-1.9649 9.6246 -1.3918 0.9611
-2.2421 9.0966 -1.3275 0.9629
-3.0957 8.1628 -1.2370 0.9653
-3.4537 8.1061 -1.2484 0.9650
-3.8859 8.1893 -1.2843 0.9640
-4.4207 8.4229 -1.3478 0.9623
-8.1669 14.1455 -2.3143 0.9361
-9.2755 13.4378 -2.3135 0.9362
-9.8029 13.0453 -2.3121 0.9362
-10.3140 12.6323 -2.3107 0.9362
-10.8079 12.1996 -2.3093 0.9363
-13.4563 10.9867 -2.4614 0.9322
-14.2967 9.8683 -2.4614 0.9322
-15.0444 8.6859 -2.4614 0.9322
-15.3820 8.0731 -2.4614 0.9322
-16.3305 6.1933 -2.4747 0.9319
-16.8261 4.8737 -2.4821 0.9317
-17.0752 4.2087 -2.4918 0.9314
-17.2770 3.5271 -2.4985 0.9312
-17.4077 2.8290 -2.4988 0.9312
-15.1754 0.0000 -2.5000 0.9403
-15.1631 -0.6111 -2.5000 0.9403
-15.1262 -1.2211 -2.5000 0.9403
-15.0648 -1.8292 -2.5000 0.9403
-14.9789 -2.4343 -2.5000 0.9403
-14.1893 -5.3813 -2.5000 0.9403
-13.9611 -5.9483 -2.5000 0.9403
-13.7102 -6.5056 -2.5000 0.9403
-13.1423 -7.5877 -2.5000 0.9403
-12.1319 -9.1165 -2.5000 0.9403
-11.7550 -9.5976 -2.5000 0.9403
-10.5124 -10.9445 -2.5000 0.9403
-9.5976 -11.7550 -2.5000 0.9403
-9.1165 -12.1319 -2.5000 0.9403
-8.1108 -12.8261 -2.5000 0.9403
-7.5878 -13.1423 -2.5000 0.9403
-5.6314 -13.2173 -2.3668 0.9434
-4.5126 -13.5169 -2.3476 0.9439
-3.9647 -13.6877 -2.3476 0.9439
-3.4104 -13.8362 -2.3476 0.9439
-1.7177 -14.1464 -2.3476 0.9439
-1.1467 -14.2041 -2.3476 0.9439
-0.5738 -14.2387 -2.3476 0.9439
-0.0000 -14.2503 -2.3476 0.9439
0.5738 -14.2387 -2.3476 0.9439
1.1467 -14.2041 -2.3476 0.9439
2.8504 -13.9623 -2.3476 0.9439
3.9647 -13.6877 -2.3476 0.9439
4.5126 -13.5169 -2.3476 0.9439
6.2658 -13.2050 -2.4079 0.9425
6.9258 -13.1959 -2.4551 0.9414
8.1107 -12.8261 -2.5000 0.9403
9.5976 -11.7549 -2.5000 0.9403
10.0632 -11.3589 -2.5000 0.9403
10.5124 -10.9445 -2.5000 0.9403
10.9445 -10.5124 -2.5000 0.9403
11.3589 -10.0632 -2.5000 0.9403
11.7549 -9.5976 -2.5000 0.9403
12.8261 -8.1107 -2.5000 0.9403
13.1423 -7.5877 -2.5000 0.9403
13.4371 -7.0524 -2.5000 0.9403
14.1892 -5.3813 -2.5000 0.9403
14.5762 -4.2221 -2.5000 0.9403
15.0647 -1.8292 -2.5000 0.9403
7.1272 -0.5754 -1.1780 0.9714
7.0438 -0.2838 -1.1613 0.9718
7.0310 0.0000 -1.1583 0.9719
7.0417 0.2838 -1.1610 0.9718
14.9789 2.4343 -2.5000 0.9403
13.9623 2.8504 -2.3476 0.9439
13.6877 3.9647 -2.3476 0.9439
13.3243 5.0532 -2.3476 0.9439
12.8744 6.1090 -2.3476 0.9439
12.6180 6.6225 -2.3476 0.9439
8.4886 8.1535 -1.9390 0.9534
7.2759 8.2128 -1.8076 0.9565
6.7055 8.2128 -1.7467 0.9579
6.1715 8.2128 -1.6924 0.9592
6.0335 8.7410 -1.7497 0.9579
6.0522 9.5708 -1.8655 0.9551
4.7105 8.1589 -1.5520 0.9625
4.3290 8.2483 -1.5346 0.9629
3.8722 8.1605 -1.4880 0.9640
3.5611 8.3582 -1.4967 0.9638
3.2808 8.6509 -1.5242 0.9632
3.0265 9.0655 -1.5745 0.9620
2.7878 9.6247 -1.6507 0.9602
1.8886 7.6625 -1.3001 0.9685
1.3946 8.5811 -1.4322 0.9654
1.0421 8.5826 -1.4243 0.9656
0.6211 7.6936 -1.2716 0.9692
0.3101 7.6959 -1.2688 0.9693
-0.0000 8.5837 -1.4141 0.9658
-0.3459 8.5823 -1.4150 0.9658
-0.6927 8.5809 -1.4182 0.9657
-1.9649 9.6246 -1.6182 0.9610
-2.2288 9.0424 -1.5342 0.9629
-3.5144 8.2485 -1.4771 0.9643
-3.8859 8.1893 -1.4933 0.9639
-7.5084 11.8736 -2.3143 0.9446
-7.9804 11.5616 -2.3143 0.9446
-9.3111 10.5100 -2.3131 0.9447
-9.7219 10.1216 -2.3120 0.9447
-10.4951 9.2978 -2.3099 0.9447
-11.9446 8.9758 -2.4614 0.9412
-12.2963 8.4876 -2.4614 0.9412
-12.6281 7.9855 -2.4614 0.9412
-13.2352 6.9464 -2.4624 0.9412
-13.5389 6.4243 -2.4687 0.9411
-14.0914 5.3441 -2.4827 0.9407
-14.5403 4.2117 -2.4938 0.9405
-14.8641 3.0345 -2.4992 0.9404
-14.9765 2.4339 -2.4996 0.9403
-15.0647 1.8292 -2.5000 0.9403
-15.1262 1.2211 -2.5000 0.9403
-15.1631 0.6111 -2.5000 0.9403
-13.2575 -1.0703 -2.5000 0.9473
-13.2036 -1.6032 -2.5000 0.9473
-12.7754 -3.7004 -2.5000 0.9473
-12.6161 -4.2119 -2.5000 0.9473
-12.0164 -5.7018 -2.5000 0.9473
-11.7771 -6.1811 -2.5000 0.9473
-11.2415 -7.1087 -2.5000 0.9473
-10.9462 -7.5556 -2.5000 0.9473
-9.9556 -8.8199 -2.5000 0.9473
-7.9902 -10.6330 -2.5000 0.9473
-7.5556 -10.9461 -2.5000 0.9473
-6.6503 -11.5186 -2.5000 0.9473
-6.1811 -11.7771 -2.5000 0.9473
-5.7019 -12.0164 -2.5000 0.9473
-5.2130 -12.2362 -2.5000 0.9473
-3.1831 -12.9141 -2.5000 0.9473
-0.0000 -13.1941 -2.4800 0.9477
0.5317 -13.1936 -2.4819 0.9477
1.6016 -13.1902 -2.4975 0.9474
2.1335 -13.1283 -2.5000 0.9473
2.6604 -13.0318 -2.5000 0.9473
3.1830 -12.9141 -2.5000 0.9473
5.2147 -12.2362 -2.5000 0.9473
6.1811 -11.7771 -2.5000 0.9473
6.6503 -11.5186 -2.5000 0.9473
7.5556 -10.9461 -2.5000 0.9473
7.9902 -10.6330 -2.5000 0.9473
8.4121 -10.3026 -2.5000 0.9473
8.8199 -9.9556 -2.5000 0.9473
9.5925 -9.2136 -2.5000 0.9473
10.3027 -8.4119 -2.5000 0.9473
10.6330 -7.9902 -2.5000 0.9473
11.2415 -7.1087 -2.5000 0.9473
11.5186 -6.6503 -2.5000 0.9473
11.7771 -6.1811 -2.5000 0.9473
12.0164 -5.7018 -2.5000 0.9473
12.7754 -3.7004 -2.5000 0.9473
12.9141 -3.1830 -2.5000 0.9473
13.1283 -2.1336 -2.5000 0.9473
13.2036 -1.6032 -2.5000 0.9473
6.7636 -0.5460 -1.2754 0.9728
6.7395 -0.2716 -1.2678 0.9729
6.7261 0.0000 -1.2643 0.9730
6.7385 0.2716 -1.2676 0.9729
13.2036 1.6032 -2.5000 0.9473
13.1283 2.1336 -2.5000 0.9473
13.0317 2.6605 -2.5000 0.9473
11.9966 3.4749 -2.3476 0.9504
11.8470 3.9551 -2.3476 0.9504
11.4903 4.8956 -2.3476 0.9504
10.8164 6.2449 -2.3476 0.9504
10.2471 7.0731 -2.3403 0.9506
9.1901 8.1418 -2.3078 0.9513
7.9185 8.2441 -2.1486 0.9545
6.0522 9.5708 -2.1284 0.9550
3.8722 8.1605 -1.6978 0.9639
3.5611 8.3582 -1.7077 0.9637
3.2969 8.6933 -1.7476 0.9629
2.7878 9.6247 -1.8834 0.9600
1.7140 8.3959 -1.6106 0.9657
1.3647 8.3973 -1.5991 0.9660
0.2945 7.3081 -1.3748 0.9707
-1.0194 8.3956 -1.5896 0.9662
-1.9649 9.6246 -1.8464 0.9608
-2.2421 9.0966 -1.7610 0.9626
-2.5229 8.7101 -1.7045 0.9638
-3.8859 8.1893 -1.7038 0.9638
-4.4207 8.4229 -1.7880 0.9620
-6.1590 10.6677 -2.3153 0.9511
-6.9945 10.1333 -2.3143 0.9511
-8.1649 9.2163 -2.3143 0.9511
-8.5294 8.8801 -2.3143 0.9511
-8.8791 8.5285 -2.3141 0.9511
-9.5291 7.7803 -2.3123 0.9512
-9.8311 7.3875 -2.3114 0.9512
-10.4020 6.5779 -2.3133 0.9511
-10.6859 6.1695 -2.3192 0.9510
-12.1687 5.1846 -2.4862 0.9476
-12.5933 4.2043 -2.4955 0.9474
-13.0309 2.6603 -2.4998 0.9473
-13.1283 2.1336 -2.5000 0.9473
-13.2575 1.0703 -2.5000 0.9473
-13.2898 0.5356 -2.5000 0.9473
-11.8174 -0.4762 -2.5000 0.9528
-11.5880 -2.3657 -2.5000 0.9528
-11.0584 -4.1939 -2.5000 0.9528
-10.8806 -4.6358 -2.5000 0.9528
-10.4723 -5.4962 -2.5000 0.9528
-9.9961 -6.3211 -2.5000 0.9528
-9.7334 -6.7185 -2.5000 0.9528
-9.4550 -7.1050 -2.5000 0.9528
-9.1613 -7.4799 -2.5000 0.9528
-8.8526 -7.8427 -2.5000 0.9528
-8.5297 -8.1928 -2.5000 0.9528
-8.1928 -8.5296 -2.5000 0.9528
-5.0701 -10.6851 -2.5000 0.9528
-3.7453 -11.2183 -2.5000 0.9528
-3.2905 -11.3600 -2.5000 0.9528
-2.8304 -11.4833 -2.5000 0.9528
-1.8974 -11.6738 -2.5000 0.9528
-0.9517 -11.7886 -2.5000 0.9528
-0.4762 -11.8174 -2.5000 0.9528
0.0000 -11.8270 -2.5000 0.9528
1.8972 -11.6738 -2.5000 0.9528
2.3657 -11.5880 -2.5000 0.9528
3.2904 -11.3600 -2.5000 0.9528
3.7452 -11.2183 -2.5000 0.9528
4.1939 -11.0584 -2.5000 0.9528
4.6360 -10.8805 -2.5000 0.9528
5.4962 -10.4723 -2.5000 0.9528
5.9134 -10.2425 -2.5000 0.9528
6.3211 -9.9960 -2.5000 0.9528
6.7186 -9.7334 -2.5000 0.9528
7.1049 -9.4550 -2.5000 0.9528
8.5296 -8.1928 -2.5000 0.9528
9.7334 -6.7185 -2.5000 0.9528
9.9960 -6.3211 -2.5000 0.9528
10.2425 -5.9135 -2.5000 0.9528
10.8806 -4.6358 -2.5000 0.9528
11.2183 -3.7452 -2.5000 0.9528
11.4833 -2.8304 -2.5000 0.9528
11.6738 -1.8972 -2.5000 0.9528
6.4397 -0.5199 -1.3656 0.9739
7.0127 0.8515 -1.4932 0.9715
11.5879 2.3657 -2.5000 0.9528
11.0215 2.7165 -2.3994 0.9547
10.6675 3.0899 -2.3476 0.9556
10.5344 3.5169 -2.3476 0.9556
10.3843 3.9383 -2.3476 0.9556
9.8339 5.1612 -2.3476 0.9556
9.6180 5.5530 -2.3476 0.9556
9.3867 5.9358 -2.3476 0.9556
9.1400 6.3089 -2.3476 0.9556
8.8786 6.6718 -2.3476 0.9556
7.6385 7.9526 -2.3309 0.9559
7.3138 8.2556 -2.3314 0.9559
4.7105 8.1589 -1.9914 0.9622
3.8722 8.1605 -1.9093 0.9637
3.2969 8.6933 -1.9653 0.9627
3.0265 9.0655 -2.0202 0.9617
1.6750 8.2048 -1.7701 0.9663
1.3336 8.2062 -1.7574 0.9666
0.5771 7.1482 -1.5159 0.9711
-0.0000 8.2085 -1.7351 0.9670
-0.3308 8.2072 -1.7362 0.9670
-0.6625 8.2058 -1.7402 0.9669
-0.9962 8.2045 -1.7470 0.9668
-2.5229 8.7101 -1.9168 0.9636
-3.0957 8.1628 -1.8454 0.9649
-3.8859 8.1893 -1.9161 0.9636
-4.4207 8.4229 -2.0107 0.9619
-6.2217 9.0137 -2.3151 0.9562
-6.9245 8.4809 -2.3143 0.9562
-8.1952 7.2603 -2.3143 0.9562
-9.5775 5.5296 -2.3377 0.9558
-10.0134 4.7514 -2.3428 0.9557
-10.8498 4.6226 -2.4929 0.9529
-11.0445 4.1886 -2.4968 0.9529
-11.2152 3.7442 -2.4993 0.9528
-11.3588 3.2901 -2.4997 0.9528
-11.5880 2.3657 -2.5000 0.9528
-11.6738 1.8972 -2.5000 0.9528
-11.7886 0.9517 -2.5000 0.9528
-10.6286 -0.4283 -2.5000 0.9572
-10.6027 -0.8559 -2.5000 0.9572
-10.5597 -1.2822 -2.5000 0.9572
-10.4222 -2.1277 -2.5000 0.9572
-10.2172 -2.9594 -2.5000 0.9572
-10.0898 -3.3684 -2.5000 0.9572
-9.9460 -3.7720 -2.5000 0.9572
-9.7860 -4.1694 -2.5000 0.9572
-8.5038 -6.3902 -2.5000 0.9572
-7.3687 -7.6716 -2.5000 0.9572
-7.0538 -7.9620 -2.5000 0.9572
-6.7275 -8.2396 -2.5000 0.9572
-5.6852 -8.9904 -2.5000 0.9572
-5.3186 -9.2121 -2.5000 0.9572
-4.5601 -9.6102 -2.5000 0.9572
-4.1694 -9.7860 -2.5000 0.9572
-3.3685 -10.0898 -2.5000 0.9572
-2.9595 -10.2172 -2.5000 0.9572
-2.5457 -10.3281 -2.5000 0.9572
-2.1277 -10.4222 -2.5000 0.9572
-1.2822 -10.5596 -2.5000 0.9572
-0.8560 -10.6027 -2.5000 0.9572
1.2821 -10.5596 -2.5000 0.9572
1.7063 -10.4994 -2.5000 0.9572
2.1277 -10.4222 -2.5000 0.9572
3.3685 -10.0898 -2.5000 0.9572
4.5601 -9.6102 -2.5000 0.9572
5.3186 -9.2121 -2.5000 0.9572
5.6852 -8.9904 -2.5000 0.9572
6.0426 -8.7542 -2.5000 0.9572
6.3902 -8.5038 -2.5000 0.9572
6.7274 -8.2396 -2.5000 0.9572
7.0538 -7.9620 -2.5000 0.9572
7.3686 -7.6716 -2.5000 0.9572
7.6716 -7.3686 -2.5000 0.9572
7.9620 -7.0538 -2.5000 0.9572
8.2396 -6.7274 -2.5000 0.9572
9.2121 -5.3186 -2.5000 0.9572
9.4188 -4.9433 -2.5000 0.9572
9.6102 -4.5601 -2.5000 0.9572
9.9459 -3.7720 -2.5000 0.9572
10.0897 -3.3685 -2.5000 0.9572
10.3281 -2.5456 -2.5000 0.9572
10.4222 -2.1277 -2.5000 0.9572
10.4995 -1.7063 -2.5000 0.9572
6.1553 -0.4969 -1.4513 0.9749
6.1017 -0.2459 -1.4352 0.9752
6.0613 0.0000 -1.4245 0.9754
6.1533 0.4967 -1.4509 0.9750
10.4994 1.7063 -2.5000 0.9572
10.4222 2.1277 -2.5000 0.9572
10.3281 2.5457 -2.5000 0.9572
9.5943 2.7791 -2.3476 0.9598
9.4747 3.1631 -2.3476 0.9598
9.0243 4.2821 -2.3476 0.9598
8.8446 4.6420 -2.3476 0.9598
8.6505 4.9944 -2.3476 0.9598
8.4424 5.3386 -2.3476 0.9598
7.7373 6.3173 -2.3476 0.9598
7.4767 6.6238 -2.3476 0.9598
5.9526 7.9215 -2.3288 0.9601
5.6296 8.1559 -2.3291 0.9601
4.7105 8.1589 -2.2142 0.9620
4.2576 8.1122 -2.1532 0.9631
3.8722 8.1605 -2.1229 0.9636
3.5611 8.3582 -2.1352 0.9634
3.2487 8.5662 -2.1532 0.9631
2.0470 7.0669 -1.7292 0.9702
1.8906 7.6706 -1.8567 0.9681
1.6371 8.0189 -1.9235 0.9669
0.9740 8.0216 -1.8991 0.9673
0.5703 7.0647 -1.6658 0.9713
-0.3233 8.0211 -1.8867 0.9676
-0.6474 8.0198 -1.8910 0.9675
-0.9737 8.0185 -1.8984 0.9674
-1.9649 9.6247 -2.3087 0.9604
-2.1948 8.9047 -2.1554 0.9630
-2.5229 8.7101 -2.1312 0.9634
-2.7917 8.3621 -2.0719 0.9644
-3.0957 8.1628 -2.0518 0.9648
-3.5144 8.2485 -2.1072 0.9638
-3.8859 8.1893 -2.1304 0.9634
-4.4207 8.4229 -2.2356 0.9617
-5.2679 8.3304 -2.3165 0.9603
-5.5976 8.1096 -2.3159 0.9603
-6.2298 7.6301 -2.3150 0.9603
-7.1624 6.8796 -2.3341 0.9600
-7.4685 6.6164 -2.3450 0.9598
-7.7309 6.3121 -2.3456 0.9598
-8.2173 5.6720 -2.3466 0.9598
-8.4411 5.3378 -2.3472 0.9598
-9.0243 4.2821 -2.3476 0.9598
-9.1894 3.9153 -2.3476 0.9598
-10.0895 3.3684 -2.4999 0.9572
-10.2172 2.9594 -2.5000 0.9572
-10.3281 2.5456 -2.5000 0.9572
-10.4222 2.1277 -2.5000 0.9572
-10.4994 1.7063 -2.5000 0.9572
-10.5597 1.2822 -2.5000 0.9572
-10.6027 0.8559 -2.5000 0.9572
-10.6286 0.4283 -2.5000 0.9572
-9.6477 -0.3888 -2.5000 0.9609
-9.6242 -0.7769 -2.5000 0.9609
-9.4604 -1.9313 -2.5000 0.9609
-9.2743 -2.6863 -2.5000 0.9609
-9.1586 -3.0576 -2.5000 0.9609
-8.8829 -3.7846 -2.5000 0.9609
-8.7233 -4.1392 -2.5000 0.9609
-8.5496 -4.4871 -2.5000 0.9609
-8.3619 -4.8278 -2.5000 0.9609
-8.1608 -5.1605 -2.5000 0.9609
-6.6886 -6.9636 -2.5000 0.9609
-6.1066 -7.4792 -2.5000 0.9609
-5.8005 -7.7190 -2.5000 0.9609
-5.1606 -8.1607 -2.5000 0.9609
-4.8278 -8.3619 -2.5000 0.9609
-4.4872 -8.5495 -2.5000 0.9609
-3.7847 -8.8829 -2.5000 0.9609
-3.4239 -9.0281 -2.5000 0.9609
-3.0576 -9.1586 -2.5000 0.9609
-2.3107 -9.3749 -2.5000 0.9609
-1.5489 -9.5305 -2.5000 0.9609
1.1638 -9.5851 -2.5000 0.9609
1.9313 -9.4604 -2.5000 0.9609
2.6864 -9.2743 -2.5000 0.9609
3.7846 -8.8829 -2.5000 0.9609
5.4850 -7.9463 -2.5000 0.9609
5.8005 -7.7190 -2.5000 0.9609
6.1066 -7.4792 -2.5000 0.9609
6.6886 -6.9636 -2.5000 0.9609
7.2272 -6.4028 -2.5000 0.9609
7.7190 -5.8005 -2.5000 0.9609
7.9463 -5.4849 -2.5000 0.9609
8.3619 -4.8277 -2.5000 0.9609
8.8829 -3.7846 -2.5000 0.9609
9.0281 -3.4239 -2.5000 0.9609
9.2743 -2.6863 -2.5000 0.9609
9.3749 -2.3107 -2.5000 0.9609
9.4604 -1.9313 -2.5000 0.9609
9.5305 -1.5488 -2.5000 0.9609
6.1739 -0.7496 -1.6103 0.9746
6.0641 -0.4895 -1.5752 0.9752
6.0299 -0.2430 -1.5625 0.9754
6.0055 0.0000 -1.5549 0.9755
6.0290 0.2430 -1.5623 0.9754
6.0623 0.4894 -1.5747 0.9752
6.1700 0.7492 -1.6093 0.9746
9.4604 1.9314 -2.5000 0.9609
9.2743 2.6863 -2.5000 0.9609
8.3414 3.5539 -2.3476 0.9632
7.6632 4.8460 -2.3476 0.9632
7.4619 5.1506 -2.3476 0.9632
7.2485 5.4469 -2.3476 0.9632
7.0233 5.7343 -2.3476 0.9632
6.5391 6.2809 -2.3476 0.9632
6.2808 6.5391 -2.3476 0.9632
6.0125 6.7867 -2.3476 0.9632
5.7261 7.0132 -2.3442 0.9633
4.8033 7.5958 -2.3269 0.9635
4.4931 7.7822 -2.3267 0.9636
3.8527 8.1195 -2.3269 0.9635
3.5227 8.2682 -2.3270 0.9635
3.1870 8.4034 -2.3270 0.9635
2.8460 8.5248 -2.3270 0.9635
2.0493 7.0750 -1.9071 0.9700
1.8907 7.6711 -2.0456 0.9679
1.6001 7.8381 -2.0713 0.9675
0.9520 7.8408 -2.0450 0.9679
0.2850 7.0718 -1.8325 0.9712
-0.6329 7.8390 -2.0363 0.9680
-0.9517 7.8377 -2.0442 0.9679
-1.1496 7.0733 -1.8554 0.9708
-2.4902 8.5972 -2.3175 0.9637
-3.0957 8.1628 -2.2604 0.9646
-3.4746 8.1552 -2.2952 0.9640
-3.8377 8.0879 -2.3179 0.9637
-4.1590 7.9244 -2.3172 0.9637
-4.7821 7.5622 -2.3166 0.9637
-5.0821 7.3627 -2.3164 0.9637
-6.0125 6.7867 -2.3476 0.9632
-6.2809 6.5391 -2.3476 0.9632
-6.7867 6.0125 -2.3476 0.9632
-7.0233 5.7343 -2.3476 0.9632
-7.2485 5.4469 -2.3476 0.9632
-7.4619 5.1506 -2.3476 0.9632
-7.6633 4.8460 -2.3476 0.9632
-9.1586 3.0576 -2.5000 0.9609
-9.2743 2.6863 -2.5000 0.9609
-9.3750 2.3107 -2.5000 0.9609
-9.4604 1.9313 -2.5000 0.9609
-9.5304 1.5489 -2.5000 0.9609
-9.6242 0.7770 -2.5000 0.9609
-9.6477 0.3888 -2.5000 0.9609
-8.8238 -0.3556 -2.5000 0.9640
-8.8024 -0.7106 -2.5000 0.9640
-8.7666 -1.0645 -2.5000 0.9640
-8.5744 -2.1134 -2.5000 0.9640
-8.4823 -2.4569 -2.5000 0.9640
-8.1243 -3.4614 -2.5000 0.9640
-7.8194 -4.1039 -2.5000 0.9640
-6.8405 -5.5851 -2.5000 0.9640
-6.6101 -5.8560 -2.5000 0.9640
-6.3689 -6.1174 -2.5000 0.9640
-5.8560 -6.6101 -2.5000 0.9640
-5.5851 -6.8405 -2.5000 0.9640
-5.3051 -7.0599 -2.5000 0.9640
-4.7199 -7.4638 -2.5000 0.9640
-4.4155 -7.6478 -2.5000 0.9640
-4.1040 -7.8194 -2.5000 0.9640
-3.7858 -7.9783 -2.5000 0.9640
-3.4615 -8.1243 -2.5000 0.9640
-2.7965 -8.3765 -2.5000 0.9640
-2.4569 -8.4823 -2.5000 0.9640
-1.7664 -8.6525 -2.5000 0.9640
-1.4166 -8.7166 -2.5000 0.9640
-1.0645 -8.7666 -2.5000 0.9640
-0.7106 -8.8023 -2.5000 0.9640
-0.3556 -8.8238 -2.5000 0.9640
-0.0000 -8.8310 -2.5000 0.9640
0.7106 -8.8023 -2.5000 0.9640
2.4569 -8.4823 -2.5000 0.9640
2.7965 -8.3765 -2.5000 0.9640
3.1315 -8.2571 -2.5000 0.9640
4.1039 -7.8194 -2.5000 0.9640
4.4155 -7.6478 -2.5000 0.9640
4.7198 -7.4638 -2.5000 0.9640
5.0166 -7.2677 -2.5000 0.9640
5.5851 -6.8405 -2.5000 0.9640
5.8560 -6.6101 -2.5000 0.9640
6.1174 -6.3689 -2.5000 0.9640
6.3689 -6.1174 -2.5000 0.9640
6.6101 -5.8560 -2.5000 0.9640
6.8405 -5.5851 -2.5000 0.9640
7.0598 -5.3051 -2.5000 0.9640
7.4638 -4.7199 -2.5000 0.9640
7.6478 -4.4155 -2.5000 0.9640
7.9783 -3.7858 -2.5000 0.9640
8.2571 -3.1315 -2.5000 0.9640
8.3765 -2.7965 -2.5000 0.9640
8.4823 -2.4569 -2.5000 0.9640
8.7166 -1.4166 -2.5000 0.9640
6.0845 -0.7388 -1.7351 0.9748
5.9599 0.2402 -1.6886 0.9755
8.6525 1.7664 -2.5000 0.9640
8.5744 2.1134 -2.5000 0.9640
7.7537 2.9406 -2.3476 0.9661
7.4920 3.5550 -2.3476 0.9661
7.3427 3.8538 -2.3476 0.9661
7.0088 4.4321 -2.3476 0.9661
6.8247 4.7108 -2.3476 0.9661
6.2071 5.4990 -2.3476 0.9661
5.4990 6.2071 -2.3476 0.9661
5.2446 6.4235 -2.3476 0.9661
4.9817 6.6295 -2.3476 0.9661
4.7107 6.8247 -2.3476 0.9661
4.4288 7.0036 -2.3458 0.9661
4.1251 7.1450 -2.3356 0.9663
3.5217 7.4218 -2.3256 0.9664
3.2195 7.5564 -2.3252 0.9664
2.6002 7.7885 -2.3245 0.9664
2.0517 7.0832 -2.0876 0.9698
1.8842 7.6447 -2.2289 0.9678
-0.0000 7.6555 -2.1672 0.9687
-0.3085 7.6542 -2.1686 0.9687
-0.6178 7.6530 -2.1735 0.9686
-1.9610 7.9559 -2.3197 0.9665
-2.2793 7.8690 -2.3192 0.9665
-2.5939 7.7698 -2.3189 0.9665
-2.9043 7.6581 -2.3186 0.9665
-3.2099 7.5340 -2.3183 0.9665
-4.1243 7.1434 -2.3351 0.9663
-4.9817 6.6295 -2.3476 0.9661
-5.2446 6.4235 -2.3476 0.9661
-5.7445 5.9807 -2.3476 0.9661
-6.2071 5.4990 -2.3476 0.9661
-6.6295 4.9817 -2.3476 0.9661
-7.1817 4.1463 -2.3476 0.9661
-7.4920 3.5550 -2.3476 0.9661
-7.6291 3.2504 -2.3476 0.9661
-7.9045 2.9978 -2.3932 0.9655
-8.4823 2.4569 -2.5000 0.9640
-8.6525 1.7664 -2.5000 0.9640
-8.7166 1.4166 -2.5000 0.9640
-8.8024 0.7106 -2.5000 0.9640
-8.1280 0.0000 -2.5000 0.9666
-8.0227 -1.3038 -2.5000 0.9666
-7.9637 -1.6258 -2.5000 0.9666
-7.8918 -1.9451 -2.5000 0.9666
-7.7097 -2.5739 -2.5000 0.9666
-7.5998 -2.8822 -2.5000 0.9666
-7.4776 -3.1859 -2.5000 0.9666
-7.1970 -3.7772 -2.5000 0.9666
-6.6892 -4.6172 -2.5000 0.9666
-6.2960 -5.1405 -2.5000 0.9666
-6.0839 -5.3898 -2.5000 0.9666
-5.8619 -5.6304 -2.5000 0.9666
-5.3899 -6.0838 -2.5000 0.9666
-5.1405 -6.2959 -2.5000 0.9666
-4.8828 -6.4978 -2.5000 0.9666
-4.3441 -6.8697 -2.5000 0.9666
-4.0640 -7.0390 -2.5000 0.9666
-3.7773 -7.1969 -2.5000 0.9666
-2.8822 -7.5998 -2.5000 0.9666
-1.3038 -8.0227 -2.5000 0.9666
-0.6540 -8.1016 -2.5000 0.9666
-0.0000 -8.1280 -2.5000 0.9666
0.3273 -8.1214 -2.5000 0.9666
0.9797 -8.0687 -2.5000 0.9666
1.3038 -8.0227 -2.5000 0.9666
2.2613 -7.8071 -2.5000 0.9666
2.5739 -7.7096 -2.5000 0.9666
2.8822 -7.5998 -2.5000 0.9666
3.4844 -7.3432 -2.5000 0.9666
4.0640 -7.0390 -2.5000 0.9666
4.3441 -6.8697 -2.5000 0.9666
5.1405 -6.2960 -2.5000 0.9666
5.3898 -6.0839 -2.5000 0.9666
5.8619 -5.6304 -2.5000 0.9666
6.4978 -4.8828 -2.5000 0.9666
7.0390 -4.0640 -2.5000 0.9666
7.1969 -3.7772 -2.5000 0.9666
7.4775 -3.1859 -2.5000 0.9666
5.9291 -0.4786 -1.8296 0.9754
5.8841 0.0000 -1.8098 0.9757
5.8918 0.2374 -1.8137 0.9756
6.0250 0.7316 -1.8668 0.9749
7.9637 1.6258 -2.5000 0.9666
7.8918 1.9452 -2.5000 0.9666
7.7097 2.5739 -2.5000 0.9666
6.8955 3.2720 -2.3476 0.9686
6.6099 3.8162 -2.3476 0.9686
6.2814 4.3358 -2.3476 0.9686
5.7130 5.0613 -2.3476 0.9686
5.5046 5.2872 -2.3476 0.9686
5.2872 5.5046 -2.3476 0.9686
4.8271 5.9122 -2.3476 0.9686
4.0793 6.4509 -2.3476 0.9686
3.5470 6.7582 -2.3476 0.9686
2.6935 7.1021 -2.3363 0.9687
2.0541 7.0915 -2.2709 0.9696
1.8081 7.3356 -2.3238 0.9689
1.2116 7.4551 -2.3231 0.9689
0.5722 7.0884 -2.1873 0.9707
0.2856 7.0877 -2.1818 0.9708
-0.3016 7.4837 -2.3037 0.9691
-0.6041 7.4824 -2.3089 0.9691
-0.9084 7.4812 -2.3180 0.9690
-1.1521 7.0894 -2.2092 0.9704
-1.8050 7.3233 -2.3199 0.9689
