ply
format ascii 1.0
element vertex 1583
property float32 x
property float32 y
property float32 z
property float32 I
end_header
-25.7596 3.1278 -2.4912 0.9010
-26.0143 1.0483 -2.4995 0.9007
-21.0460 0.0000 -2.5000 0.9187
-20.8927 -2.5368 -2.5000 0.9187
-20.7736 -3.3761 -2.5000 0.9187
-20.4346 -5.0367 -2.5000 0.9187
-19.6785 -7.4630 -2.5000 0.9187
-19.3620 -8.2494 -2.5000 0.9187
-18.6354 -9.7806 -2.5000 0.9187
-17.7880 -11.2484 -2.5000 0.9187
-17.3206 -11.9556 -2.5000 0.9187
-16.1678 -13.2006 -2.4793 0.9194
-13.6904 -14.2532 -2.3476 0.9235
-12.4991 -15.3087 -2.3476 0.9235
-11.8748 -15.8026 -2.3480 0.9235
-11.2303 -16.2700 -2.3483 0.9235
-10.5674 -16.7110 -2.3486 0.9234
-9.3472 -16.1899 -2.2206 0.9275
-9.1987 -17.5266 -2.3512 0.9234
-7.6304 -16.0809 -2.1143 0.9308
-6.8437 -16.0627 -2.0740 0.9321
-6.0852 -16.0453 -2.0384 0.9332
-3.2440 -15.8901 -1.9265 0.9368
-2.5945 -15.9649 -1.9213 0.9369
-1.9366 -15.9497 -1.9085 0.9373
-1.2864 -15.9347 -1.8990 0.9376
1.2816 -15.8756 -1.8919 0.9379
3.2319 -15.8306 -1.9192 0.9370
5.9798 -15.7674 -2.0031 0.9343
7.7587 -18.2104 -2.3513 0.9234
8.4870 -17.8861 -2.3517 0.9234
10.5644 -16.7062 -2.3479 0.9235
11.2269 -16.2650 -2.3476 0.9235
12.4991 -15.3086 -2.3476 0.9235
13.1054 -14.7929 -2.3476 0.9235
13.6904 -14.2532 -2.3476 0.9235
14.9100 -13.2091 -2.3662 0.9229
16.8252 -12.6433 -2.5000 0.9187
17.7880 -11.2485 -2.5000 0.9187
18.6354 -9.7806 -2.5000 0.9187
19.0144 -9.0223 -2.5000 0.9187
19.9630 -6.6646 -2.5000 0.9187
20.7736 -3.3760 -2.5000 0.9187
8.7452 -0.3524 -1.0396 0.9654
8.6254 0.0000 -1.0246 0.9659
8.7383 0.3521 -1.0388 0.9654
20.9779 1.6935 -2.5000 0.9187
19.5072 3.1702 -2.3476 0.9235
19.3638 3.9532 -2.3476 0.9235
19.1889 4.7296 -2.3476 0.9235
18.9829 5.4984 -2.3476 0.9235
16.8534 7.1806 -2.1761 0.9289
15.3387 8.0504 -2.0577 0.9326
13.0857 8.2749 -1.8391 0.9395
12.2084 8.4269 -1.7621 0.9420
8.9004 7.8851 -1.4125 0.9532
7.2759 8.2128 -1.3033 0.9568
6.7055 8.2128 -1.2594 0.9582
5.7448 8.3228 -1.2013 0.9601
5.6421 8.9223 -1.2540 0.9584
4.2980 8.1892 -1.0986 0.9634
3.8762 8.1690 -1.0741 0.9642
2.6382 9.1082 -1.1264 0.9625
2.3722 9.6244 -1.1775 0.9609
1.6370 8.0184 -0.9721 0.9676
1.5425 9.4913 -1.1422 0.9620
0.7728 9.5729 -1.1408 0.9621
-0.0000 7.8821 -0.9363 0.9687
-0.7731 9.5762 -1.1412 0.9620
-1.4028 8.6316 -1.0388 0.9654
-2.3379 9.4852 -1.1604 0.9614
-2.8434 8.5169 -1.0666 0.9645
-3.8348 8.0816 -1.0626 0.9646
-4.3299 8.2499 -1.1067 0.9632
-5.0166 8.6890 -1.1918 0.9604
-2.1677 3.4280 -0.4818 0.9838
-12.4481 16.5655 -2.4614 0.9199
-13.7407 15.5101 -2.4614 0.9199
-14.9442 14.3541 -2.4614 0.9199
-16.5655 12.4481 -2.4614 0.9199
-17.0533 11.7710 -2.4614 0.9199
-18.7206 8.8830 -2.4614 0.9199
-19.0631 8.1220 -2.4614 0.9199
-19.3805 7.3500 -2.4621 0.9199
-19.7101 6.5802 -2.4683 0.9197
-19.9950 5.7916 -2.4727 0.9196
-20.5328 4.1918 -2.4893 0.9191
-20.8797 2.5352 -2.4984 0.9188
-20.9694 1.6928 -2.4990 0.9187
-17.6441 0.0000 -2.5000 0.9312
-17.5155 -2.1268 -2.5000 0.9312
-17.2875 -3.5293 -2.5000 0.9312
-17.1314 -4.2225 -2.5000 0.9312
-16.9475 -4.9089 -2.5000 0.9312
-16.4975 -6.2567 -2.5000 0.9312
-16.2322 -6.9159 -2.5000 0.9312
-15.9406 -7.5639 -2.5000 0.9312
-14.9126 -9.4302 -2.5000 0.9312
-14.1055 -10.5996 -2.5000 0.9312
-13.2068 -11.7002 -2.5000 0.9312
-12.7250 -12.2225 -2.5000 0.9312
-12.2225 -12.7250 -2.5000 0.9312
-8.8553 -14.0036 -2.3476 0.9353
-7.1028 -14.9688 -2.3476 0.9353
-6.4943 -15.2427 -2.3476 0.9353
-5.2471 -15.7171 -2.3478 0.9353
-3.9658 -16.0898 -2.3480 0.9352
-3.2440 -15.8901 -2.2979 0.9366
-1.9976 -16.4518 -2.3482 0.9352
-1.3336 -16.5191 -2.3482 0.9352
1.3335 -16.5185 -2.3481 0.9352
2.5607 -15.7564 -2.2618 0.9375
3.3145 -16.2355 -2.3478 0.9352
3.9654 -16.0881 -2.3477 0.9353
5.8752 -15.4919 -2.3476 0.9353
6.4943 -15.2427 -2.3476 0.9353
8.2843 -14.3488 -2.3476 0.9353
9.4120 -13.6356 -2.3476 0.9353
9.9534 -13.2456 -2.3476 0.9353
10.7789 -13.2018 -2.4148 0.9335
11.6821 -13.1863 -2.4961 0.9313
12.7253 -12.2225 -2.5000 0.9312
13.2068 -11.7002 -2.5000 0.9312
14.1055 -10.5996 -2.5000 0.9312
14.5208 -10.0230 -2.5000 0.9312
14.9126 -9.4302 -2.5000 0.9312
15.6231 -8.1996 -2.5000 0.9312
16.2322 -6.9159 -2.5000 0.9312
16.4975 -6.2567 -2.5000 0.9312
17.2875 -3.5293 -2.5000 0.9312
17.5155 -2.1268 -2.5000 0.9312
8.1267 -0.3275 -1.1524 0.9677
8.0996 0.0000 -1.1476 0.9678
8.1243 0.3274 -1.1521 0.9677
15.9144 4.6097 -2.3476 0.9353
15.7158 5.2467 -2.3476 0.9353
15.4918 5.8753 -2.3476 0.9353
15.2427 6.4943 -2.3476 0.9353
12.8700 8.1385 -2.1576 0.9403
12.2084 8.4269 -2.1019 0.9418
11.9487 8.9789 -2.1177 0.9414
10.3450 8.4464 -1.8923 0.9475
8.9157 7.8987 -1.6877 0.9530
7.2759 8.2128 -1.5546 0.9566
6.7055 8.2128 -1.5023 0.9581
5.7606 9.1097 -1.5272 0.9574
4.3430 8.2749 -1.3241 0.9629
3.9265 8.2749 -1.2978 0.9637
3.5124 8.2440 -1.2697 0.9644
3.1890 8.4088 -1.2742 0.9643
2.9406 8.8082 -1.3157 0.9632
1.6011 7.8427 -1.1341 0.9682
1.0753 8.8563 -1.2641 0.9646
0.7175 8.8885 -1.2635 0.9646
-0.3590 8.9087 -1.2633 0.9646
-0.7178 8.8909 -1.2638 0.9646
-3.1540 8.3165 -1.2603 0.9647
-4.3299 8.2499 -1.3201 0.9631
-9.2784 13.4420 -2.3143 0.9361
-10.3172 12.6362 -2.3114 0.9362
-12.5286 12.0339 -2.4614 0.9322
-14.2967 9.8683 -2.4614 0.9322
-15.3820 8.0731 -2.4614 0.9322
-15.6965 7.4481 -2.4617 0.9322
-16.3328 6.1942 -2.4750 0.9319
-16.5934 5.5397 -2.4787 0.9318
-17.0767 4.2090 -2.4920 0.9314
-15.1754 0.0000 -2.5000 0.9403
-15.1631 -0.6111 -2.5000 0.9403
-15.1262 -1.2211 -2.5000 0.9403
-15.0648 -1.8292 -2.5000 0.9403
-14.5763 -4.2221 -2.5000 0.9403
-14.3944 -4.8056 -2.5000 0.9403
-14.1892 -5.3813 -2.5000 0.9403
-13.7103 -6.5056 -2.5000 0.9403
-13.4372 -7.0524 -2.5000 0.9403
-13.1423 -7.5877 -2.5000 0.9403
-11.3589 -10.0632 -2.5000 0.9403
-10.5124 -10.9445 -2.5000 0.9403
-8.6206 -12.4891 -2.5000 0.9403
-8.1107 -12.8261 -2.5000 0.9403
-6.9285 -13.2012 -2.4561 0.9414
-6.2681 -13.2097 -2.4087 0.9424
-5.6313 -13.2172 -2.3668 0.9434
-2.8504 -13.9623 -2.3476 0.9439
-1.7177 -14.1464 -2.3476 0.9439
0.5738 -14.2387 -2.3476 0.9439
1.1467 -14.2041 -2.3476 0.9439
1.7177 -14.1464 -2.3476 0.9439
2.8504 -13.9623 -2.3476 0.9439
3.4103 -13.8362 -2.3476 0.9439
3.9647 -13.6877 -2.3476 0.9439
5.0532 -13.3243 -2.3476 0.9439
6.2658 -13.2049 -2.4078 0.9425
8.6206 -12.4891 -2.5000 0.9403
9.1165 -12.1319 -2.5000 0.9403
10.5124 -10.9446 -2.5000 0.9403
10.9445 -10.5124 -2.5000 0.9403
11.7548 -9.5976 -2.5000 0.9403
12.1319 -9.1165 -2.5000 0.9403
12.8261 -8.1107 -2.5000 0.9403
13.4371 -7.0524 -2.5000 0.9403
13.7102 -6.5056 -2.5000 0.9403
13.9611 -5.9482 -2.5000 0.9403
14.3944 -4.8056 -2.5000 0.9403
14.7344 -3.6317 -2.5000 0.9403
14.8687 -3.0355 -2.5000 0.9403
7.7457 -0.3121 -1.2771 0.9691
7.7718 0.6274 -1.2845 0.9689
15.0648 1.8292 -2.5000 0.9403
13.6877 3.9647 -2.3476 0.9439
13.3243 5.0532 -2.3476 0.9439
13.1100 5.5856 -2.3476 0.9439
12.8744 6.1090 -2.3476 0.9439
12.3065 7.1052 -2.3410 0.9440
11.9802 7.5758 -2.3351 0.9442
10.9939 8.9763 -2.3381 0.9441
8.9309 7.9121 -1.9656 0.9528
9.1027 8.7432 -2.0793 0.9501
7.2759 8.2128 -1.8076 0.9565
4.8535 8.4066 -1.5991 0.9614
4.3291 8.2485 -1.5346 0.9629
3.5124 8.2440 -1.4762 0.9643
2.3722 9.6244 -1.6330 0.9606
1.5791 7.7349 -1.3005 0.9685
0.6929 8.5829 -1.4185 0.9657
-0.0000 7.5490 -1.2436 0.9699
-0.3459 8.5834 -1.4152 0.9658
-1.3942 8.5791 -1.4319 0.9654
-2.3379 9.4852 -1.6093 0.9612
-3.9265 8.2749 -1.5089 0.9636
-4.3299 8.2499 -1.5349 0.9629
-2.1677 3.4280 -0.6682 0.9837
-8.4395 11.2309 -2.3143 0.9446
-8.8849 10.8820 -2.3143 0.9446
-9.3139 10.5132 -2.3139 0.9447
-9.7249 10.1247 -2.3127 0.9447
-10.1199 9.7203 -2.3116 0.9447
-11.2050 8.4200 -2.3090 0.9448
-12.6281 7.9855 -2.4614 0.9412
-13.2352 6.9464 -2.4624 0.9412
-13.5368 6.4233 -2.4684 0.9411
-14.8644 3.0346 -2.4993 0.9404
-14.9768 2.4340 -2.4996 0.9403
-15.0648 1.8292 -2.5000 0.9403
-15.1262 1.2211 -2.5000 0.9403
-13.3006 0.0000 -2.5000 0.9473
-13.2898 -0.5356 -2.5000 0.9473
-13.0318 -2.6605 -2.5000 0.9473
-12.9141 -3.1830 -2.5000 0.9473
-12.6161 -4.2119 -2.5000 0.9473
-12.2362 -5.2134 -2.5000 0.9473
-12.0164 -5.7018 -2.5000 0.9473
-11.5186 -6.6503 -2.5000 0.9473
-11.2415 -7.1087 -2.5000 0.9473
-10.9462 -7.5556 -2.5000 0.9473
-10.6330 -7.9902 -2.5000 0.9473
-10.3027 -8.4119 -2.5000 0.9473
-8.8199 -9.9556 -2.5000 0.9473
-8.4119 -10.3027 -2.5000 0.9473
-7.5556 -10.9461 -2.5000 0.9473
-7.1087 -11.2415 -2.5000 0.9473
-6.6503 -11.5186 -2.5000 0.9473
-5.2129 -12.2362 -2.5000 0.9473
-4.2119 -12.6161 -2.5000 0.9473
-1.6017 -13.1914 -2.4977 0.9474
-0.5317 -13.1939 -2.4819 0.9477
1.6016 -13.1901 -2.4974 0.9474
2.1335 -13.1283 -2.5000 0.9473
3.7004 -12.7754 -2.5000 0.9473
4.7164 -12.4362 -2.5000 0.9473
5.7018 -12.0164 -2.5000 0.9473
6.1811 -11.7771 -2.5000 0.9473
7.5556 -10.9462 -2.5000 0.9473
7.9902 -10.6330 -2.5000 0.9473
8.8199 -9.9556 -2.5000 0.9473
9.2136 -9.5924 -2.5000 0.9473
9.5924 -9.2136 -2.5000 0.9473
9.9556 -8.8199 -2.5000 0.9473
10.3027 -8.4119 -2.5000 0.9473
10.9462 -7.5556 -2.5000 0.9473
11.2415 -7.1087 -2.5000 0.9473
11.5186 -6.6503 -2.5000 0.9473
11.7771 -6.1811 -2.5000 0.9473
12.0164 -5.7018 -2.5000 0.9473
12.2362 -5.2134 -2.5000 0.9473
12.4362 -4.7164 -2.5000 0.9473
12.7754 -3.7005 -2.5000 0.9473
12.9141 -3.1830 -2.5000 0.9473
13.0318 -2.6605 -2.5000 0.9473
13.1283 -2.1336 -2.5000 0.9473
7.3108 -0.2946 -1.3753 0.9707
7.2824 0.0000 -1.3688 0.9708
13.1283 2.1336 -2.5000 0.9473
12.1268 2.9890 -2.3476 0.9504
11.9966 3.4749 -2.3476 0.9504
11.8470 3.9551 -2.3476 0.9504
11.6781 4.4289 -2.3476 0.9504
11.4903 4.8956 -2.3476 0.9504
11.2839 5.3543 -2.3476 0.9504
11.0591 5.8043 -2.3476 0.9504
10.2478 7.0735 -2.3405 0.9506
9.9218 7.4558 -2.3328 0.9507
8.9456 7.9251 -2.2464 0.9525
8.9580 8.6043 -2.3347 0.9507
7.8942 8.2188 -2.1420 0.9547
7.3583 9.0123 -2.1869 0.9538
6.1715 8.2128 -1.9310 0.9590
5.7606 8.3457 -1.9061 0.9596
3.5124 8.2440 -1.6843 0.9642
2.9406 8.8082 -1.7454 0.9629
2.6248 9.0619 -1.7733 0.9623
1.7504 7.1015 -1.3748 0.9707
0.6780 8.3990 -1.5838 0.9663
-0.0000 7.3140 -1.3748 0.9707
-0.3385 8.3995 -1.5801 0.9664
-1.0196 8.3967 -1.5898 0.9662
-1.3644 8.3953 -1.5987 0.9660
-2.6007 8.9786 -1.7570 0.9627
-2.8250 8.4620 -1.6768 0.9643
-3.1540 8.3165 -1.6718 0.9644
-3.5256 8.2749 -1.6906 0.9641
-4.3299 8.2499 -1.7513 0.9628
-6.1600 10.6695 -2.3157 0.9511
-2.1677 3.4280 -0.7623 0.9836
-6.9950 10.1340 -2.3145 0.9511
-7.3968 9.8434 -2.3143 0.9511
-7.7872 9.5376 -2.3143 0.9511
-8.1649 9.2163 -2.3143 0.9511
-8.5294 8.8800 -2.3143 0.9511
-8.8800 8.5294 -2.3143 0.9511
-9.5321 7.7827 -2.3130 0.9511
-9.8341 7.3898 -2.3121 0.9512
-10.4046 6.5795 -2.3139 0.9511
-10.6918 6.1729 -2.3205 0.9510
-12.3887 4.6984 -2.4904 0.9475
-12.5943 4.2046 -2.4957 0.9474
-13.2574 1.0703 -2.5000 0.9473
-13.2898 0.5355 -2.5000 0.9473
-11.7886 -0.9517 -2.5000 0.9528
-11.6738 -1.8972 -2.5000 0.9528
-11.4833 -2.8304 -2.5000 0.9528
-11.2183 -3.7452 -2.5000 0.9528
-11.0584 -4.1939 -2.5000 0.9528
-10.8806 -4.6358 -2.5000 0.9528
-10.4723 -5.4963 -2.5000 0.9528
-10.2425 -5.9135 -2.5000 0.9528
-9.9960 -6.3211 -2.5000 0.9528
-9.4550 -7.1050 -2.5000 0.9528
-7.1050 -9.4550 -2.5000 0.9528
-6.3211 -9.9960 -2.5000 0.9528
-5.9135 -10.2425 -2.5000 0.9528
-5.4963 -10.4723 -2.5000 0.9528
-5.0701 -10.6851 -2.5000 0.9528
-4.6358 -10.8806 -2.5000 0.9528
-4.1939 -11.0584 -2.5000 0.9528
-2.8304 -11.4833 -2.5000 0.9528
-2.3658 -11.5880 -2.5000 0.9528
-1.8969 -11.6738 -2.5000 0.9528
-0.0000 -11.8270 -2.5000 0.9528
0.9517 -11.7886 -2.5000 0.9528
2.3657 -11.5880 -2.5000 0.9528
2.8304 -11.4833 -2.5000 0.9528
3.7452 -11.2183 -2.5000 0.9528
5.0700 -10.6851 -2.5000 0.9528
5.9135 -10.2425 -2.5000 0.9528
6.3212 -9.9960 -2.5000 0.9528
6.7185 -9.7334 -2.5000 0.9528
7.1050 -9.4550 -2.5000 0.9528
7.8428 -8.8526 -2.5000 0.9528
9.1612 -7.4799 -2.5000 0.9528
10.4723 -5.4963 -2.5000 0.9528
10.6851 -5.0701 -2.5000 0.9528
10.8806 -4.6358 -2.5000 0.9528
11.3600 -3.2905 -2.5000 0.9528
11.4833 -2.8304 -2.5000 0.9528
11.5879 -2.3657 -2.5000 0.9528
7.1690 -0.5788 -1.5203 0.9710
7.1026 -0.2862 -1.5026 0.9714
7.5060 0.9114 -1.5983 0.9696
11.6738 1.8972 -2.5000 0.9528
10.6675 3.0899 -2.3476 0.9556
10.5344 3.5169 -2.3476 0.9556
10.3843 3.9382 -2.3476 0.9556
10.2173 4.3532 -2.3476 0.9556
10.0337 4.7611 -2.3476 0.9556
9.8339 5.1612 -2.3476 0.9556
9.6181 5.5530 -2.3476 0.9556
9.3867 5.9358 -2.3476 0.9556
8.8786 6.6718 -2.3476 0.9556
8.5862 7.0104 -2.3431 0.9557
8.2543 7.3127 -2.3310 0.9559
7.6396 7.9537 -2.3312 0.9559
7.3148 8.2567 -2.3317 0.9559
6.6292 8.8219 -2.3326 0.9559
6.2696 9.0831 -2.3329 0.9559
5.8983 9.3273 -2.3327 0.9559
4.8535 8.4066 -2.0519 0.9611
3.9265 8.2749 -1.9361 0.9632
3.5124 8.2440 -1.8942 0.9640
3.1890 8.4088 -1.9010 0.9639
2.9406 8.8082 -1.9629 0.9627
2.6248 9.0619 -1.9942 0.9622
1.7310 7.0228 -1.5289 0.9709
-0.3308 8.2083 -1.7365 0.9670
-0.6625 8.2069 -1.7404 0.9669
-1.4345 7.0263 -1.5159 0.9711
-2.3379 9.4852 -2.0650 0.9608
-2.8250 8.4620 -1.8857 0.9642
-3.1540 8.3165 -1.8801 0.9643
-3.5256 8.2749 -1.9013 0.9639
-4.3299 8.2499 -1.9695 0.9626
-6.2227 9.0152 -2.3155 0.9562
-6.5792 8.7554 -2.3150 0.9562
-6.9250 8.4816 -2.3145 0.9562
-7.2603 8.1952 -2.3143 0.9562
-7.8962 7.5844 -2.3143 0.9562
-8.1952 7.2603 -2.3143 0.9562
-9.0759 6.2646 -2.3311 0.9559
-9.5839 5.5332 -2.3392 0.9558
-9.8121 5.1498 -2.3424 0.9557
-10.0188 4.7540 -2.3441 0.9557
-10.8511 4.6232 -2.4932 0.9529
-11.0455 4.1890 -2.4971 0.9529
-11.2156 3.7443 -2.4994 0.9528
-11.3590 3.2902 -2.4998 0.9528
-11.4833 2.8304 -2.5000 0.9528
-11.6738 1.8972 -2.5000 0.9528
-11.7408 1.4256 -2.5000 0.9528
-11.8174 0.4762 -2.5000 0.9528
-10.6372 -0.0000 -2.5000 0.9572
-10.6286 -0.4283 -2.5000 0.9572
-10.6027 -0.8560 -2.5000 0.9572
-10.5596 -1.2822 -2.5000 0.9572
-10.4222 -2.1277 -2.5000 0.9572
-10.3281 -2.5457 -2.5000 0.9572
-10.2172 -2.9595 -2.5000 0.9572
-10.0898 -3.3685 -2.5000 0.9572
-8.9904 -5.6852 -2.5000 0.9572
-8.7542 -6.0426 -2.5000 0.9572
-5.6852 -8.9905 -2.5000 0.9572
-5.3186 -9.2121 -2.5000 0.9572
-4.9434 -9.4188 -2.5000 0.9572
-4.1694 -9.7860 -2.5000 0.9572
-3.7720 -9.9459 -2.5000 0.9572
-3.3685 -10.0898 -2.5000 0.9572
-2.9595 -10.2172 -2.5000 0.9572
-2.5457 -10.3281 -2.5000 0.9572
-1.2822 -10.5596 -2.5000 0.9572
-0.4283 -10.6286 -2.5000 0.9572
-0.0000 -10.6372 -2.5000 0.9572
0.4283 -10.6286 -2.5000 0.9572
0.8559 -10.6027 -2.5000 0.9572
2.9595 -10.2172 -2.5000 0.9572
4.1694 -9.7860 -2.5000 0.9572
4.5601 -9.6102 -2.5000 0.9572
5.3186 -9.2121 -2.5000 0.9572
6.0426 -8.7542 -2.5000 0.9572
7.0538 -7.9621 -2.5000 0.9572
7.3686 -7.6716 -2.5000 0.9572
7.6716 -7.3686 -2.5000 0.9572
7.9621 -7.0538 -2.5000 0.9572
8.7542 -6.0426 -2.5000 0.9572
8.9905 -5.6852 -2.5000 0.9572
9.4188 -4.9433 -2.5000 0.9572
9.6102 -4.5601 -2.5000 0.9572
10.3281 -2.5456 -2.5000 0.9572
10.4994 -1.7063 -2.5000 0.9572
7.0675 -0.5705 -1.6664 0.9713
7.0182 0.2828 -1.6508 0.9716
7.0651 0.5704 -1.6659 0.9713
7.2704 0.8828 -1.7213 0.9704
10.4222 2.1277 -2.5000 0.9572
10.3281 2.5456 -2.5000 0.9572
9.4747 3.1631 -2.3476 0.9598
9.0243 4.2821 -2.3476 0.9598
8.8446 4.6420 -2.3476 0.9598
8.6505 4.9944 -2.3476 0.9598
8.4424 5.3386 -2.3476 0.9598
7.9854 6.0007 -2.3476 0.9598
7.4767 6.6237 -2.3476 0.9598
6.8666 7.1488 -2.3296 0.9601
6.2666 7.6752 -2.3287 0.9601
5.6304 8.1570 -2.3294 0.9601
5.2980 8.3781 -2.3297 0.9601
4.8535 8.4066 -2.2814 0.9609
3.1890 8.4088 -2.1136 0.9637
1.7417 7.0662 -1.7104 0.9705
1.6182 7.9267 -1.9014 0.9673
0.9738 8.0205 -1.8988 0.9673
-0.6475 8.0209 -1.8912 0.9675
-1.4425 7.0659 -1.6949 0.9708
-3.1540 8.3165 -2.0904 0.9641
-4.9300 8.5390 -2.3173 0.9603
-5.5984 8.1107 -2.3162 0.9603
-5.9189 7.8766 -2.3156 0.9603
-6.5321 7.3732 -2.3151 0.9603
-7.2027 6.9183 -2.3472 0.9598
-7.4755 6.6227 -2.3472 0.9598
-7.7363 6.3165 -2.3473 0.9598
-7.9846 6.0000 -2.3473 0.9598
-8.2200 5.6739 -2.3474 0.9598
-8.6504 4.9943 -2.3476 0.9598
-8.8446 4.6420 -2.3476 0.9598
-9.1894 3.9153 -2.3476 0.9598
-10.3281 2.5457 -2.5000 0.9572
-10.5596 1.2822 -2.5000 0.9572
-10.6027 0.8559 -2.5000 0.9572
-10.6286 0.4283 -2.5000 0.9572
-9.5851 -1.1639 -2.5000 0.9609
-9.4604 -1.9314 -2.5000 0.9609
-9.2743 -2.6863 -2.5000 0.9609
-8.7233 -4.1392 -2.5000 0.9609
-8.5496 -4.4871 -2.5000 0.9609
-8.3619 -4.8278 -2.5000 0.9609
-8.1607 -5.1606 -2.5000 0.9609
-7.9463 -5.4850 -2.5000 0.9609
-7.4792 -6.1066 -2.5000 0.9609
-7.2272 -6.4028 -2.5000 0.9609
-6.9636 -6.6886 -2.5000 0.9609
-6.6886 -6.9636 -2.5000 0.9609
-6.1066 -7.4792 -2.5000 0.9609
-5.1605 -8.1608 -2.5000 0.9609
-4.8278 -8.3619 -2.5000 0.9609
-4.4871 -8.5495 -2.5000 0.9609
-3.4239 -9.0281 -2.5000 0.9609
-2.6863 -9.2743 -2.5000 0.9609
-1.5488 -9.5305 -2.5000 0.9609
-1.1639 -9.5851 -2.5000 0.9609
-0.3888 -9.6477 -2.5000 0.9609
0.7769 -9.6242 -2.5000 0.9609
1.1638 -9.5851 -2.5000 0.9609
1.9313 -9.4604 -2.5000 0.9609
2.6864 -9.2743 -2.5000 0.9609
3.0576 -9.1586 -2.5000 0.9609
4.8278 -8.3619 -2.5000 0.9609
5.1605 -8.1607 -2.5000 0.9609
5.4850 -7.9463 -2.5000 0.9609
5.8005 -7.7190 -2.5000 0.9609
6.1066 -7.4792 -2.5000 0.9609
6.9636 -6.6886 -2.5000 0.9609
7.2272 -6.4028 -2.5000 0.9609
7.7190 -5.8005 -2.5000 0.9609
8.1607 -5.1605 -2.5000 0.9609
8.5495 -4.4871 -2.5000 0.9609
8.8829 -3.7846 -2.5000 0.9609
9.0281 -3.4239 -2.5000 0.9609
9.2743 -2.6863 -2.5000 0.9609
9.3749 -2.3107 -2.5000 0.9609
9.4604 -1.9314 -2.5000 0.9609
6.9955 -0.5647 -1.8171 0.9714
6.9254 0.0000 -1.7931 0.9718
6.9404 0.2797 -1.7985 0.9717
9.4604 1.9314 -2.5000 0.9609
9.2743 2.6863 -2.5000 0.9609
8.6003 2.8712 -2.3476 0.9632
8.4777 3.2152 -2.3476 0.9632
8.3414 3.5539 -2.3476 0.9632
8.1915 3.8869 -2.3476 0.9632
7.8522 4.5335 -2.3476 0.9632
7.4619 5.1506 -2.3476 0.9632
7.2485 5.4469 -2.3476 0.9632
7.0233 5.7343 -2.3476 0.9632
6.7867 6.0125 -2.3476 0.9632
6.5391 6.2808 -2.3476 0.9632
6.2809 6.5391 -2.3476 0.9632
6.0125 6.7867 -2.3476 0.9632
4.8039 7.5968 -2.3272 0.9635
4.1769 7.9585 -2.3272 0.9635
3.8533 8.1206 -2.3273 0.9635
3.1874 8.4046 -2.3273 0.9635
-0.0000 7.0718 -1.8310 0.9712
-0.3160 7.8414 -2.0319 0.9681
-0.6329 7.8401 -2.0365 0.9680
-0.9518 7.8388 -2.0445 0.9679
-1.2737 7.8375 -2.0559 0.9677
-1.4442 7.0738 -1.8693 0.9706
-2.1455 8.7048 -2.3213 0.9636
-2.8378 8.5004 -2.3203 0.9636
-3.4919 8.1957 -2.3066 0.9639
-3.8383 8.0890 -2.3182 0.9637
-4.4747 7.7505 -2.3172 0.9637
-5.0827 7.3636 -2.3167 0.9637
-6.2809 6.5391 -2.3476 0.9632
-6.7867 6.0125 -2.3476 0.9632
-7.8522 4.5334 -2.3476 0.9632
-8.0284 4.2136 -2.3476 0.9632
-8.1915 3.8869 -2.3476 0.9632
-8.3414 3.5539 -2.3476 0.9632
-9.2743 2.6863 -2.5000 0.9609
-9.4604 1.9313 -2.5000 0.9609
-9.5304 1.5489 -2.5000 0.9609
-9.6242 0.7770 -2.5000 0.9609
-9.6477 0.3888 -2.5000 0.9609
-8.8310 0.0000 -2.5000 0.9640
-8.8238 -0.3556 -2.5000 0.9640
-8.8023 -0.7106 -2.5000 0.9640
-8.7666 -1.0645 -2.5000 0.9640
-8.7166 -1.4166 -2.5000 0.9640
-8.6525 -1.7664 -2.5000 0.9640
-8.5744 -2.1134 -2.5000 0.9640
-8.2571 -3.1315 -2.5000 0.9640
-7.8194 -4.1040 -2.5000 0.9640
-7.6479 -4.4155 -2.5000 0.9640
-6.6101 -5.8560 -2.5000 0.9640
-6.1174 -6.3689 -2.5000 0.9640
-5.8560 -6.6101 -2.5000 0.9640
-5.5851 -6.8405 -2.5000 0.9640
-5.3052 -7.0599 -2.5000 0.9640
-4.7199 -7.4638 -2.5000 0.9640
-4.1040 -7.8194 -2.5000 0.9640
-3.7858 -7.9783 -2.5000 0.9640
-3.1315 -8.2571 -2.5000 0.9640
-2.4569 -8.4823 -2.5000 0.9640
-2.1134 -8.5744 -2.5000 0.9640
-1.4166 -8.7166 -2.5000 0.9640
-0.3556 -8.8238 -2.5000 0.9640
0.3556 -8.8238 -2.5000 0.9640
0.7106 -8.8023 -2.5000 0.9640
2.1134 -8.5744 -2.5000 0.9640
2.4570 -8.4823 -2.5000 0.9640
4.1040 -7.8194 -2.5000 0.9640
4.4155 -7.6479 -2.5000 0.9640
4.7198 -7.4639 -2.5000 0.9640
5.3051 -7.0599 -2.5000 0.9640
5.8560 -6.6101 -2.5000 0.9640
6.1174 -6.3689 -2.5000 0.9640
6.8405 -5.5851 -2.5000 0.9640
7.0599 -5.3051 -2.5000 0.9640
7.4639 -4.7199 -2.5000 0.9640
7.6479 -4.4155 -2.5000 0.9640
7.9783 -3.7858 -2.5000 0.9640
8.1243 -3.4614 -2.5000 0.9640
8.2571 -3.1315 -2.5000 0.9640
8.3765 -2.7965 -2.5000 0.9640
8.6525 -1.7664 -2.5000 0.9640
6.9679 -0.5625 -1.9790 0.9714
6.9175 0.2788 -1.9599 0.9716
6.9655 0.5623 -1.9783 0.9714
7.1165 0.8641 -2.0294 0.9706
8.7166 1.4166 -2.5000 0.9640
8.6525 1.7664 -2.5000 0.9640
8.5744 2.1134 -2.5000 0.9640
8.4823 2.4569 -2.5000 0.9640
8.1205 2.7110 -2.4236 0.9650
7.7537 2.9406 -2.3476 0.9661
7.6290 3.2504 -2.3476 0.9661
7.0088 4.4321 -2.3476 0.9661
6.8247 4.7108 -2.3476 0.9661
6.4235 5.2446 -2.3476 0.9661
5.4990 6.2071 -2.3476 0.9661
5.2446 6.4235 -2.3476 0.9661
4.7108 6.8247 -2.3476 0.9661
4.4286 7.0033 -2.3457 0.9661
3.8188 7.2761 -2.3263 0.9664
3.5221 7.4228 -2.3259 0.9664
2.6005 7.7896 -2.3248 0.9664
1.7456 7.0823 -2.0650 0.9701
1.5620 7.6511 -2.2106 0.9681
1.2436 7.6524 -2.1948 0.9683
0.2853 7.0801 -2.0059 0.9710
-0.9292 7.6528 -2.1824 0.9685
-1.2435 7.6515 -2.1945 0.9683
-1.4458 7.0819 -2.0462 0.9704
-1.9612 7.9570 -2.3200 0.9665
-2.2796 7.8699 -2.3195 0.9665
-2.5943 7.7708 -2.3192 0.9665
-4.1241 7.1431 -2.3350 0.9663
-4.9817 6.6295 -2.3476 0.9661
-5.2446 6.4235 -2.3476 0.9661
-5.4990 6.2071 -2.3476 0.9661
-5.7445 5.9807 -2.3476 0.9661
-5.9807 5.7445 -2.3476 0.9661
-6.6295 4.9817 -2.3476 0.9661
-7.0088 4.4321 -2.3476 0.9661
-7.3428 3.8538 -2.3476 0.9661
-7.6291 3.2504 -2.3476 0.9661
-7.7538 2.9406 -2.3476 0.9661
-8.4823 2.4569 -2.5000 0.9640
-8.5743 2.1134 -2.5000 0.9640
-8.6525 1.7664 -2.5000 0.9640
-8.8238 0.3556 -2.5000 0.9640
-8.1214 -0.3273 -2.5000 0.9666
-8.1016 -0.6540 -2.5000 0.9666
-7.8918 -1.9452 -2.5000 0.9666
-7.8071 -2.2613 -2.5000 0.9666
-7.1970 -3.7772 -2.5000 0.9666
-7.0390 -4.0640 -2.5000 0.9666
-6.8697 -4.3441 -2.5000 0.9666
-6.6892 -4.6172 -2.5000 0.9666
-6.0839 -5.3898 -2.5000 0.9666
-5.3898 -6.0839 -2.5000 0.9666
-3.7773 -7.1970 -2.5000 0.9666
-3.4844 -7.3432 -2.5000 0.9666
-3.1859 -7.4775 -2.5000 0.9666
-2.8822 -7.5998 -2.5000 0.9666
-2.5739 -7.7097 -2.5000 0.9666
-1.9452 -7.8918 -2.5000 0.9666
-1.6258 -7.9637 -2.5000 0.9666
-1.3038 -8.0227 -2.5000 0.9666
-0.9797 -8.0687 -2.5000 0.9666
-0.6540 -8.1016 -2.5000 0.9666
-0.3273 -8.1214 -2.5000 0.9666
0.0000 -8.1279 -2.5000 0.9666
0.3273 -8.1214 -2.5000 0.9666
0.6540 -8.1016 -2.5000 0.9666
0.9797 -8.0687 -2.5000 0.9666
1.3038 -8.0227 -2.5000 0.9666
1.9451 -7.8918 -2.5000 0.9666
2.2614 -7.8071 -2.5000 0.9666
3.1859 -7.4775 -2.5000 0.9666
3.4844 -7.3432 -2.5000 0.9666
3.7772 -7.1969 -2.5000 0.9666
4.3441 -6.8697 -2.5000 0.9666
4.6172 -6.6892 -2.5000 0.9666
5.3898 -6.0839 -2.5000 0.9666
5.6304 -5.8619 -2.5000 0.9666
6.0839 -5.3898 -2.5000 0.9666
6.4978 -4.8828 -2.5000 0.9666
6.6892 -4.6172 -2.5000 0.9666
6.8697 -4.3441 -2.5000 0.9666
7.0390 -4.0640 -2.5000 0.9666
7.1969 -3.7773 -2.5000 0.9666
7.3432 -3.4844 -2.5000 0.9666
7.4776 -3.1859 -2.5000 0.9666
7.5998 -2.8822 -2.5000 0.9666
7.8071 -2.2613 -2.5000 0.9666
7.8918 -1.9451 -2.5000 0.9666
7.0770 -0.8593 -2.1927 0.9706
6.9421 -0.5604 -2.1422 0.9713
6.9138 0.2786 -2.1283 0.9715
7.0720 0.8587 -2.1912 0.9706
7.9637 1.6258 -2.5000 0.9666
7.8918 1.9451 -2.5000 0.9666
7.8071 2.2613 -2.5000 0.9666
7.7097 2.5739 -2.5000 0.9666
7.0217 2.9917 -2.3476 0.9686
6.8955 3.2720 -2.3476 0.9686
6.7582 3.5470 -2.3476 0.9686
6.4509 4.0793 -2.3476 0.9686
6.2814 4.3357 -2.3476 0.9686
5.9122 4.8271 -2.3476 0.9686
4.0793 6.4509 -2.3476 0.9686
3.8162 6.6099 -2.3476 0.9686
3.5470 6.7582 -2.3476 0.9686
2.9887 7.0146 -2.3452 0.9686
2.6936 7.1025 -2.3364 0.9687
2.3935 7.1694 -2.3248 0.9689
1.7477 7.0906 -2.2462 0.9699
0.6042 7.4844 -2.3095 0.9691
0.2856 7.0881 -2.1819 0.9707
-0.0000 7.0876 -2.1800 0.9708
-0.9085 7.4823 -2.3183 0.9689
-1.2104 7.4477 -2.3208 0.9689
-2.3969 7.1796 -2.3281 0.9688
-2.6956 7.1076 -2.3381 0.9687
-3.2720 6.8956 -2.3476 0.9686
-2.1677 3.4280 -1.2475 0.9832
-4.3357 6.2814 -2.3476 0.9686
-4.5852 6.1017 -2.3476 0.9686
-4.8271 5.9121 -2.3476 0.9686
-5.2872 5.5045 -2.3476 0.9686
-5.7130 5.0612 -2.3476 0.9686
-6.1017 4.5851 -2.3476 0.9686
-6.6099 3.8162 -2.3476 0.9686
-7.0217 2.9917 -2.3476 0.9686
-7.2869 2.7635 -2.3970 0.9679
-7.7097 2.5739 -2.5000 0.9666
-8.0227 1.3038 -2.5000 0.9666
-8.0687 0.9797 -2.5000 0.9666
-8.1016 0.6540 -2.5000 0.9666
-8.1214 0.3273 -2.5000 0.9666
-7.4965 -0.6052 -2.5000 0.9688
-7.4661 -0.9065 -2.5000 0.9688
-7.4235 -1.2064 -2.5000 0.9688
-7.3689 -1.5044 -2.5000 0.9688
-7.1338 -2.3816 -2.5000 0.9688
-7.0322 -2.6670 -2.5000 0.9688
-6.9191 -2.9479 -2.5000 0.9688
-6.5133 -3.7604 -2.5000 0.9688
-6.1896 -4.2724 -2.5000 0.9688
-5.8257 -4.7566 -2.5000 0.9688
-5.4241 -5.2099 -2.5000 0.9688
-4.5181 -6.0125 -2.5000 0.9688
-3.4951 -6.6594 -2.5000 0.9688
-2.9479 -6.9191 -2.5000 0.9688
-2.3816 -7.1338 -2.5000 0.9688
-2.0924 -7.2239 -2.5000 0.9688
-1.7999 -7.3023 -2.5000 0.9688
-1.5044 -7.3689 -2.5000 0.9688
-0.6052 -7.4965 -2.5000 0.9688
1.7999 -7.3023 -2.5000 0.9688
2.6669 -7.0322 -2.5000 0.9688
2.9479 -6.9191 -2.5000 0.9688
3.4951 -6.6594 -2.5000 0.9688
4.2723 -6.1896 -2.5000 0.9688
4.9873 -5.6295 -2.5000 0.9688
5.2099 -5.4241 -2.5000 0.9688
5.4241 -5.2099 -2.5000 0.9688
6.0125 -4.5181 -2.5000 0.9688
6.1896 -4.2723 -2.5000 0.9688
6.5133 -3.7604 -2.5000 0.9688
6.6594 -3.4951 -2.5000 0.9688
6.7947 -3.2242 -2.5000 0.9688
6.9191 -2.9479 -2.5000 0.9688
7.0321 -2.6669 -2.5000 0.9688
7.1338 -2.3816 -2.5000 0.9688
7.2239 -2.0925 -2.5000 0.9688
7.4235 -1.2064 -2.5000 0.9688
7.4965 -0.6052 -2.5000 0.9688
7.4965 0.6052 -2.5000 0.9688
7.3023 1.7999 -2.5000 0.9688
7.2239 2.0924 -2.5000 0.9688
7.1338 2.3816 -2.5000 0.9688
6.4973 2.7682 -2.3476 0.9707
6.3805 3.0276 -2.3476 0.9707
6.1162 3.5312 -2.3476 0.9707
5.9691 3.7746 -2.3476 0.9707
5.8122 4.0119 -2.3476 0.9707
5.6460 4.2427 -2.3476 0.9707
5.4706 4.4666 -2.3476 0.9707
4.8923 5.0934 -2.3476 0.9707
4.6833 5.2863 -2.3476 0.9707
4.2427 5.6460 -2.3476 0.9707
4.0119 5.8123 -2.3476 0.9707
3.5312 6.1162 -2.3476 0.9707
3.2821 6.2534 -2.3476 0.9707
2.2364 6.6989 -2.3476 0.9707
1.4127 6.9197 -2.3476 0.9707
0.5676 7.0307 -2.3446 0.9707
0.2839 7.0440 -2.3434 0.9707
-0.2839 7.0446 -2.3436 0.9707
-0.5677 7.0319 -2.3450 0.9707
-0.8512 7.0105 -2.3474 0.9707
-1.1330 6.9709 -2.3476 0.9707
-1.4127 6.9197 -2.3476 0.9707
-1.6902 6.8572 -2.3476 0.9707
-1.9649 6.7836 -2.3476 0.9707
-2.2364 6.6990 -2.3476 0.9707
-2.5044 6.6035 -2.3476 0.9707
-3.0276 6.3805 -2.3476 0.9707
-2.1677 3.4280 -1.3482 0.9830
-4.2427 5.6460 -2.3476 0.9707
-4.6832 5.2863 -2.3476 0.9707
-5.6460 4.2427 -2.3476 0.9707
-5.8122 4.0119 -2.3476 0.9707
-5.9691 3.7746 -2.3476 0.9707
-6.1162 3.5312 -2.3476 0.9707
-6.3805 3.0276 -2.3476 0.9707
-6.4973 2.7682 -2.3476 0.9707
-7.0322 2.6669 -2.5000 0.9688
-7.1338 2.3816 -2.5000 0.9688
-7.2240 2.0924 -2.5000 0.9688
-7.3023 1.7999 -2.5000 0.9688
-7.3689 1.5044 -2.5000 0.9688
-7.4235 1.2064 -2.5000 0.9688
-7.5148 0.3028 -2.5000 0.9688
-6.9909 0.0000 -2.5000 0.9707
-6.9399 -0.8427 -2.5000 0.9707
-6.9003 -1.1214 -2.5000 0.9707
-6.6311 -2.2138 -2.5000 0.9707
-6.5366 -2.4790 -2.5000 0.9707
-6.3159 -2.9969 -2.5000 0.9707
-6.1901 -3.2488 -2.5000 0.9707
-6.0543 -3.4954 -2.5000 0.9707
-5.4152 -4.4213 -2.5000 0.9707
-4.8427 -5.0418 -2.5000 0.9707
-4.6358 -5.2327 -2.5000 0.9707
-4.4214 -5.4152 -2.5000 0.9707
-4.1997 -5.5888 -2.5000 0.9707
-3.2488 -6.1901 -2.5000 0.9707
-2.9969 -6.3159 -2.5000 0.9707
-2.7402 -6.4315 -2.5000 0.9707
-2.2138 -6.6311 -2.5000 0.9707
-1.6730 -6.7877 -2.5000 0.9707
-1.1214 -6.9003 -2.5000 0.9707
-0.8427 -6.9399 -2.5000 0.9707
-0.2815 -6.9852 -2.5000 0.9707
0.2815 -6.9852 -2.5000 0.9707
1.3983 -6.8496 -2.5000 0.9707
1.6730 -6.7877 -2.5000 0.9707
1.9450 -6.7149 -2.5000 0.9707
2.4790 -6.5366 -2.5000 0.9707
2.9969 -6.3159 -2.5000 0.9707
3.4954 -6.0543 -2.5000 0.9707
4.4213 -5.4152 -2.5000 0.9707
4.8427 -5.0418 -2.5000 0.9707
5.0418 -4.8427 -2.5000 0.9707
5.4152 -4.4213 -2.5000 0.9707
5.5888 -4.1997 -2.5000 0.9707
5.7534 -3.9713 -2.5000 0.9707
5.9086 -3.7364 -2.5000 0.9707
6.0543 -3.4954 -2.5000 0.9707
6.1901 -3.2488 -2.5000 0.9707
6.3159 -2.9969 -2.5000 0.9707
6.6311 -2.2138 -2.5000 0.9707
6.7148 -1.9450 -2.5000 0.9707
6.9003 -1.1214 -2.5000 0.9707
6.9852 -0.2815 -2.5000 0.9707
6.9909 -0.0000 -2.5000 0.9707
6.9399 0.8427 -2.5000 0.9707
6.9003 1.1214 -2.5000 0.9707
6.8496 1.3983 -2.5000 0.9707
6.7877 1.6730 -2.5000 0.9707
6.7148 1.9450 -2.5000 0.9707
5.4026 3.7292 -2.3476 0.9725
5.2481 3.9437 -2.3476 0.9725
4.3532 4.9137 -2.3476 0.9725
4.1518 5.0850 -2.3476 0.9725
3.9437 5.2481 -2.3476 0.9725
3.7292 5.4026 -2.3476 0.9725
3.0508 5.8127 -2.3476 0.9725
2.8142 5.9309 -2.3476 0.9725
2.3279 6.1381 -2.3476 0.9725
2.0788 6.2269 -2.3476 0.9725
1.3131 6.4320 -2.3476 0.9725
0.7913 6.5168 -2.3476 0.9725
0.2643 6.5594 -2.3476 0.9725
0.0000 6.5647 -2.3476 0.9725
-0.2643 6.5594 -2.3476 0.9725
-0.5283 6.5434 -2.3476 0.9725
-0.7913 6.5168 -2.3476 0.9725
-1.8264 6.3055 -2.3476 0.9725
-2.0788 6.2269 -2.3476 0.9725
-2.3279 6.1381 -2.3476 0.9725
-2.5732 6.0394 -2.3476 0.9725
-3.2823 5.6852 -2.3476 0.9725
-4.1518 5.0850 -2.3476 0.9725
-4.3532 4.9137 -2.3476 0.9725
-4.5475 4.7345 -2.3476 0.9725
-4.9138 4.3532 -2.3476 0.9725
-5.0851 4.1518 -2.3476 0.9725
-5.2481 3.9437 -2.3476 0.9725
-5.5484 3.5086 -2.3476 0.9725
-5.8128 3.0508 -2.3476 0.9725
-6.3329 2.6982 -2.4617 0.9712
-6.5366 2.4790 -2.5000 0.9707
-6.7877 1.6730 -2.5000 0.9707
-6.9682 0.5625 -2.5000 0.9707
-3.5504 0.0000 -1.3606 0.9849
-3.5589 -0.1434 -1.3649 0.9849
-3.5687 -0.2881 -1.3720 0.9848
-3.5921 -0.4362 -1.3867 0.9846
-6.4392 -1.0465 -2.5000 0.9724
-6.2661 -1.8150 -2.5000 0.9724
-6.1879 -2.0658 -2.5000 0.9724
-6.0997 -2.3133 -2.5000 0.9724
-6.0016 -2.5571 -2.5000 0.9724
-5.8938 -2.7966 -2.5000 0.9724
-5.7764 -3.0317 -2.5000 0.9724
-5.6497 -3.2618 -2.5000 0.9724
-5.2153 -3.9190 -2.5000 0.9724
-5.0533 -4.1259 -2.5000 0.9724
-4.8830 -4.3260 -2.5000 0.9724
-4.5191 -4.7049 -2.5000 0.9724
-4.3260 -4.8830 -2.5000 0.9724
-3.7059 -5.3689 -2.5000 0.9724
-3.4867 -5.5137 -2.5000 0.9724
-2.3133 -6.0997 -2.5000 0.9724
-2.0658 -6.1879 -2.5000 0.9724
-1.8150 -6.2661 -2.5000 0.9724
-1.5612 -6.3341 -2.5000 0.9724
-1.3049 -6.3918 -2.5000 0.9724
-1.0465 -6.4392 -2.5000 0.9724
-0.7863 -6.4761 -2.5000 0.9724
-0.2627 -6.5184 -2.5000 0.9724
2.3133 -6.0997 -2.5000 0.9724
2.5570 -6.0016 -2.5000 0.9724
2.7966 -5.8938 -2.5000 0.9724
3.0317 -5.7764 -2.5000 0.9724
3.4867 -5.5137 -2.5000 0.9724
4.1258 -5.0533 -2.5000 0.9724
4.3260 -4.8830 -2.5000 0.9724
4.7049 -4.5191 -2.5000 0.9724
5.0533 -4.1259 -2.5000 0.9724
5.2153 -3.9190 -2.5000 0.9724
5.5137 -3.4867 -2.5000 0.9724
5.7764 -3.0317 -2.5000 0.9724
5.8938 -2.7967 -2.5000 0.9724
6.0016 -2.5571 -2.5000 0.9724
6.1879 -2.0658 -2.5000 0.9724
6.4392 -1.0465 -2.5000 0.9724
6.4761 -0.7863 -2.5000 0.9724
6.5025 -0.5249 -2.5000 0.9724
6.5025 0.5249 -2.5000 0.9724
6.4761 0.7863 -2.5000 0.9724
6.2661 1.8150 -2.5000 0.9724
6.1879 2.0658 -2.5000 0.9724
6.0016 2.5571 -2.5000 0.9724
5.7117 2.7102 -2.4227 0.9733
5.4244 2.8469 -2.3476 0.9741
5.0416 3.4799 -2.3476 0.9741
4.7452 3.8743 -2.3476 0.9741
4.5854 4.0623 -2.3476 0.9741
4.4181 4.2436 -2.3476 0.9741
4.0623 4.5854 -2.3476 0.9741
3.8743 4.7452 -2.3476 0.9741
3.6801 4.8974 -2.3476 0.9741
3.0630 5.3053 -2.3476 0.9741
2.6262 5.5345 -2.3476 0.9741
2.4012 5.6358 -2.3476 0.9741
2.1723 5.7279 -2.3476 0.9741
1.9399 5.8107 -2.3476 0.9741
1.4661 5.9480 -2.3476 0.9741
0.7384 6.0813 -2.3476 0.9741
-0.4929 6.1061 -2.3476 0.9741
-0.7384 6.0813 -2.3476 0.9741
-1.2254 6.0022 -2.3476 0.9741
-1.4661 5.9480 -2.3476 0.9741
-1.7044 5.8841 -2.3476 0.9741
-2.1723 5.7279 -2.3476 0.9741
-2.6262 5.5345 -2.3476 0.9741
-3.0630 5.3053 -2.3476 0.9741
-2.1677 3.4280 -1.5543 0.9828
-3.4800 5.0416 -2.3476 0.9741
-3.8744 4.7452 -2.3476 0.9741
-4.0623 4.5854 -2.3476 0.9741
-4.4181 4.2436 -2.3476 0.9741
-4.7452 3.8743 -2.3476 0.9741
-5.0416 3.4799 -2.3476 0.9741
-5.4243 2.8469 -2.3476 0.9741
-5.7034 2.7063 -2.4192 0.9733
-6.0016 2.5571 -2.5000 0.9724
-6.0997 2.3133 -2.5000 0.9724
-6.3341 1.5612 -2.5000 0.9724
-6.3918 1.3049 -2.5000 0.9724
-3.5921 0.4361 -1.3867 0.9846
-3.5588 0.1434 -1.3649 0.9849
-2.8096 -0.2268 -1.1536 0.9879
-2.9323 -0.3560 -1.2089 0.9873
-3.0246 -0.4916 -1.2541 0.9868
-3.0070 -0.6139 -1.2561 0.9868
-5.7940 -1.9343 -2.5000 0.9739
-5.6195 -2.3943 -2.5000 0.9739
-5.4087 -2.8387 -2.5000 0.9739
-5.2900 -3.0542 -2.5000 0.9739
-5.0271 -3.4699 -2.5000 0.9739
-4.7315 -3.8632 -2.5000 0.9739
-4.5721 -4.0506 -2.5000 0.9739
-4.0506 -4.5721 -2.5000 0.9739
-3.8632 -4.7316 -2.5000 0.9739
-3.6695 -4.8833 -2.5000 0.9739
-3.4699 -5.0271 -2.5000 0.9739
-3.0542 -5.2900 -2.5000 0.9739
-1.9343 -5.7940 -2.5000 0.9739
-1.2218 -5.9849 -2.5000 0.9739
-0.9799 -6.0292 -2.5000 0.9739
-0.7363 -6.0638 -2.5000 0.9739
-0.4915 -6.0885 -2.5000 0.9739
-0.2460 -6.1034 -2.5000 0.9739
0.0000 -6.1083 -2.5000 0.9739
0.2459 -6.1034 -2.5000 0.9739
0.4915 -6.0885 -2.5000 0.9739
1.4618 -5.9308 -2.5000 0.9739
1.9343 -5.7940 -2.5000 0.9739
2.1660 -5.7114 -2.5000 0.9739
2.3943 -5.6195 -2.5000 0.9739
2.6186 -5.5186 -2.5000 0.9739
3.0542 -5.2900 -2.5000 0.9739
3.4699 -5.0271 -2.5000 0.9739
3.8632 -4.7315 -2.5000 0.9739
4.0506 -4.5721 -2.5000 0.9739
4.2314 -4.4054 -2.5000 0.9739
4.4054 -4.2314 -2.5000 0.9739
4.5721 -4.0506 -2.5000 0.9739
5.0271 -3.4699 -2.5000 0.9739
5.1627 -3.2647 -2.5000 0.9739
5.2900 -3.0542 -2.5000 0.9739
5.5186 -2.6186 -2.5000 0.9739
5.6195 -2.3943 -2.5000 0.9739
5.7114 -2.1660 -2.5000 0.9739
5.7940 -1.9343 -2.5000 0.9739
5.8671 -1.6995 -2.5000 0.9739
5.9849 -1.2218 -2.5000 0.9739
6.0292 -0.9799 -2.5000 0.9739
6.0638 -0.7363 -2.5000 0.9739
6.0885 -0.4915 -2.5000 0.9739
6.1034 0.2459 -2.5000 0.9739
6.0885 0.4915 -2.5000 0.9739
6.0638 0.7363 -2.5000 0.9739
6.0292 0.9798 -2.5000 0.9739
5.9849 1.2218 -2.5000 0.9739
5.1744 2.7157 -2.3917 0.9751
4.8480 3.0657 -2.3476 0.9755
4.7206 3.2584 -2.3476 0.9755
4.2934 3.8036 -2.3476 0.9755
3.9734 4.1368 -2.3476 0.9755
3.2584 4.7206 -2.3476 0.9755
3.0657 4.8480 -2.3476 0.9755
2.8680 4.9675 -2.3476 0.9755
2.6656 5.0789 -2.3476 0.9755
2.2483 5.2770 -2.3476 0.9755
2.0340 5.3632 -2.3476 0.9755
1.5959 5.5095 -2.3476 0.9755
1.1473 5.6200 -2.3476 0.9755
0.6914 5.6941 -2.3476 0.9755
-0.6914 5.6941 -2.3476 0.9755
-1.8164 5.4408 -2.3476 0.9755
-2.0340 5.3632 -2.3476 0.9755
-2.2483 5.2770 -2.3476 0.9755
-2.4590 5.1821 -2.3476 0.9755
-2.6656 5.0789 -2.3476 0.9755
-3.2584 4.7206 -2.3476 0.9755
-3.6277 4.4431 -2.3476 0.9755
-3.8036 4.2934 -2.3476 0.9755
-4.4431 3.6277 -2.3476 0.9755
-4.5856 3.4458 -2.3476 0.9755
-4.7206 3.2584 -2.3476 0.9755
-4.9674 2.8680 -2.3476 0.9755
-5.5186 2.6186 -2.5000 0.9739
-5.6195 2.3942 -2.5000 0.9739
-5.7114 2.1660 -2.5000 0.9739
-5.8672 1.6994 -2.5000 0.9739
-5.9308 1.4618 -2.5000 0.9739
-3.0070 0.6139 -1.2561 0.9868
-3.0246 0.4915 -1.2541 0.9868
-2.9322 0.3560 -1.2089 0.9873
-2.3650 -0.0000 -1.0307 0.9897
-2.3670 -0.0954 -1.0324 0.9897
-5.5696 -1.3728 -2.5000 0.9753
-5.5098 -1.5960 -2.5000 0.9753
-5.4411 -1.8165 -2.5000 0.9753
-5.3635 -2.0341 -2.5000 0.9753
-5.2773 -2.2484 -2.5000 0.9753
-5.1825 -2.4591 -2.5000 0.9753
-4.9678 -2.8682 -2.5000 0.9753
-4.8483 -3.0659 -2.5000 0.9753
-4.7209 -3.2586 -2.5000 0.9753
-4.2937 -3.8039 -2.5000 0.9753
-4.1371 -3.9737 -2.5000 0.9753
-3.9737 -4.1371 -2.5000 0.9753
-3.4461 -4.5859 -2.5000 0.9753
-2.6658 -5.0793 -2.5000 0.9753
-2.4591 -5.1825 -2.5000 0.9753
-2.2484 -5.2773 -2.5000 0.9753
-1.8165 -5.4411 -2.5000 0.9753
-1.5960 -5.5098 -2.5000 0.9753
-1.1474 -5.6204 -2.5000 0.9753
-0.9202 -5.6620 -2.5000 0.9753
0.0000 -5.7363 -2.5000 0.9753
0.9202 -5.6621 -2.5000 0.9753
1.1474 -5.6204 -2.5000 0.9753
1.3728 -5.5696 -2.5000 0.9753
2.0341 -5.3636 -2.5000 0.9753
2.2484 -5.2773 -2.5000 0.9753
2.6658 -5.0793 -2.5000 0.9753
3.0659 -4.8483 -2.5000 0.9753
3.4461 -4.5859 -2.5000 0.9753
3.8039 -4.2937 -2.5000 0.9753
3.9737 -4.1371 -2.5000 0.9753
4.4434 -3.6279 -2.5000 0.9753
4.7209 -3.2586 -2.5000 0.9753
4.8483 -3.0659 -2.5000 0.9753
4.9678 -2.8682 -2.5000 0.9753
5.0793 -2.6658 -2.5000 0.9753
5.1825 -2.4591 -2.5000 0.9753
5.3636 -2.0341 -2.5000 0.9753
5.4411 -1.8165 -2.5000 0.9753
5.5098 -1.5960 -2.5000 0.9753
5.5696 -1.3728 -2.5000 0.9753
5.6204 -1.1474 -2.5000 0.9753
5.7317 0.2310 -2.5000 0.9753
5.7177 0.4616 -2.5000 0.9753
5.6620 0.9202 -2.5000 0.9753
5.6204 1.1474 -2.5000 0.9753
5.5696 1.3728 -2.5000 0.9753
5.2773 2.2484 -2.5000 0.9753
5.0793 2.6658 -2.5000 0.9753
4.5610 2.8842 -2.3519 0.9767
4.4331 3.0600 -2.3476 0.9768
4.1725 3.4067 -2.3476 0.9768
3.7314 3.8848 -2.3476 0.9768
3.5720 4.0320 -2.3476 0.9768
3.4067 4.1725 -2.3476 0.9768
3.2360 4.3063 -2.3476 0.9768
3.0600 4.4331 -2.3476 0.9768
2.8790 4.5527 -2.3476 0.9768
2.5033 4.7696 -2.3476 0.9768
1.7058 5.1094 -2.3476 0.9768
1.2891 5.2301 -2.3476 0.9768
0.6493 5.3473 -2.3476 0.9768
0.4334 5.3692 -2.3476 0.9768
0.2169 5.3822 -2.3476 0.9768
-0.2169 5.3823 -2.3476 0.9768
-0.4334 5.3692 -2.3476 0.9768
-0.6493 5.3473 -2.3476 0.9768
-0.8641 5.3169 -2.3476 0.9768
-1.0775 5.2778 -2.3476 0.9768
-1.7058 5.1094 -2.3476 0.9768
-2.1114 4.9556 -2.3476 0.9768
-2.3092 4.8666 -2.3476 0.9768
-2.1677 3.4280 -1.7676 0.9825
-3.2360 4.3063 -2.3476 0.9768
-3.4067 4.1725 -2.3476 0.9768
-3.7315 3.8848 -2.3476 0.9768
-3.8849 3.7314 -2.3476 0.9768
-4.1725 3.4067 -2.3476 0.9768
-4.3063 3.2360 -2.3476 0.9768
-4.5578 2.8822 -2.3502 0.9767
-5.1825 2.4591 -2.5000 0.9753
-5.2773 2.2484 -2.5000 0.9753
-5.3636 2.0341 -2.5000 0.9753
-5.4411 1.8165 -2.5000 0.9753
-5.5098 1.5959 -2.5000 0.9753
-5.5696 1.3728 -2.5000 0.9753
-2.3794 0.2889 -1.0446 0.9896
-2.2080 -0.2681 -1.0295 0.9902
-2.2302 -0.3624 -1.0459 0.9901
-2.2466 -0.4586 -1.0614 0.9899
-2.3851 -0.5879 -1.1371 0.9892
-5.1876 -1.5026 -2.5000 0.9765
-5.0499 -1.9152 -2.5000 0.9765
-4.8794 -2.3153 -2.5000 0.9765
-4.7822 -2.5099 -2.5000 0.9765
-4.6773 -2.7004 -2.5000 0.9765
-4.5648 -2.8866 -2.5000 0.9765
-4.0426 -3.5815 -2.5000 0.9765
-3.5814 -4.0426 -2.5000 0.9765
-3.4158 -4.1835 -2.5000 0.9765
-3.0681 -4.4448 -2.5000 0.9765
-2.8866 -4.5648 -2.5000 0.9765
-2.7004 -4.6773 -2.5000 0.9765
-2.3153 -4.8794 -2.5000 0.9765
-1.9152 -5.0499 -2.5000 0.9765
-1.7103 -5.1229 -2.5000 0.9765
-1.2925 -5.2439 -2.5000 0.9765
-1.0803 -5.2917 -2.5000 0.9765
-0.8663 -5.3309 -2.5000 0.9765
-0.6510 -5.3615 -2.5000 0.9765
-0.4346 -5.3834 -2.5000 0.9765
-0.2175 -5.3965 -2.5000 0.9765
0.2175 -5.3965 -2.5000 0.9765
0.4346 -5.3834 -2.5000 0.9765
0.6510 -5.3615 -2.5000 0.9765
0.8664 -5.3309 -2.5000 0.9765
1.2925 -5.2439 -2.5000 0.9765
1.7103 -5.1229 -2.5000 0.9765
1.9152 -5.0499 -2.5000 0.9765
2.1170 -4.9687 -2.5000 0.9765
2.8866 -4.5648 -2.5000 0.9765
3.2446 -4.3177 -2.5000 0.9765
3.7413 -3.8951 -2.5000 0.9765
3.8951 -3.7413 -2.5000 0.9765
4.0426 -3.5814 -2.5000 0.9765
4.1836 -3.4158 -2.5000 0.9765
4.3177 -3.2445 -2.5000 0.9765
4.4448 -3.0681 -2.5000 0.9765
4.5648 -2.8866 -2.5000 0.9765
4.7822 -2.5099 -2.5000 0.9765
4.9687 -2.1170 -2.5000 0.9765
5.0499 -1.9152 -2.5000 0.9765
5.1876 -1.5026 -2.5000 0.9765
5.2440 -1.2925 -2.5000 0.9765
5.3833 -0.4346 -2.5000 0.9765
5.4009 -0.0000 -2.5000 0.9765
5.3965 0.2175 -2.5000 0.9765
5.3834 0.4346 -2.5000 0.9765
5.3309 0.8663 -2.5000 0.9765
5.2917 1.0803 -2.5000 0.9765
5.2439 1.2925 -2.5000 0.9765
5.0499 1.9152 -2.5000 0.9765
4.9687 2.1170 -2.5000 0.9765
4.8794 2.3153 -2.5000 0.9765
4.0545 3.0467 -2.3476 0.9779
3.5132 3.6577 -2.3476 0.9779
2.8810 4.1739 -2.3476 0.9779
2.7106 4.2865 -2.3476 0.9779
2.3569 4.4907 -2.3476 0.9779
2.1742 4.5820 -2.3476 0.9779
1.4110 4.8714 -2.3476 0.9779
1.2137 4.9243 -2.3476 0.9779
0.6113 5.0346 -2.3476 0.9779
0.4081 5.0552 -2.3476 0.9779
-0.4081 5.0552 -2.3476 0.9779
-0.8135 5.0060 -2.3476 0.9779
-1.2137 4.9243 -2.3476 0.9779
-1.4110 4.8714 -2.3476 0.9779
-1.6060 4.8106 -2.3476 0.9779
-2.1742 4.5820 -2.3476 0.9779
-2.5358 4.3922 -2.3476 0.9779
-2.1677 3.4280 -1.8774 0.9823
-2.8810 4.1739 -2.3476 0.9779
-3.0467 4.0545 -2.3476 0.9779
-3.2075 3.9285 -2.3476 0.9779
-3.3631 3.7962 -2.3476 0.9779
-3.6577 3.5132 -2.3476 0.9779
-3.9285 3.2075 -2.3476 0.9779
-4.0545 3.0467 -2.3476 0.9779
-4.1770 2.8832 -2.3494 0.9779
-4.3051 2.7224 -2.3578 0.9778
-4.7822 2.5099 -2.5000 0.9765
-4.8794 2.3153 -2.5000 0.9765
-4.9687 2.1170 -2.5000 0.9765
-5.0499 1.9152 -2.5000 0.9765
-5.1877 1.5026 -2.5000 0.9765
-2.3851 0.5879 -1.1371 0.9892
-2.2466 0.4586 -1.0614 0.9899
-2.2080 0.2681 -1.0295 0.9902
-2.2008 0.1777 -1.0220 0.9903
-2.2037 0.0888 -1.0209 0.9903
-2.0590 0.0000 -1.0100 0.9909
-2.0571 -0.1661 -1.0123 0.9908
-2.0750 -0.3372 -1.0312 0.9907
-4.6887 -1.9977 -2.5000 0.9775
-4.6045 -2.1849 -2.5000 0.9775
-4.5128 -2.3685 -2.5000 0.9775
-4.4138 -2.5483 -2.5000 0.9775
-4.0744 -3.0617 -2.5000 0.9775
-3.9478 -3.2233 -2.5000 0.9775
-3.8148 -3.3796 -2.5000 0.9775
-3.3797 -3.8148 -2.5000 0.9775
-3.0617 -4.0744 -2.5000 0.9775
-2.5483 -4.4137 -2.5000 0.9775
-2.3685 -4.5128 -2.5000 0.9775
-2.1849 -4.6045 -2.5000 0.9775
-1.8073 -4.7654 -2.5000 0.9775
-1.6139 -4.8343 -2.5000 0.9775
-1.4180 -4.8953 -2.5000 0.9775
-1.2197 -4.9485 -2.5000 0.9775
-0.8175 -5.0306 -2.5000 0.9775
-0.4101 -5.0800 -2.5000 0.9775
0.4101 -5.0800 -2.5000 0.9775
0.6143 -5.0594 -2.5000 0.9775
1.0194 -4.9936 -2.5000 0.9775
1.2197 -4.9485 -2.5000 0.9775
1.8073 -4.7654 -2.5000 0.9775
1.9977 -4.6887 -2.5000 0.9775
2.1848 -4.6045 -2.5000 0.9775
2.3685 -4.5128 -2.5000 0.9775
2.8952 -4.1944 -2.5000 0.9775
3.2233 -3.9478 -2.5000 0.9775
3.3796 -3.8148 -2.5000 0.9775
3.8148 -3.3797 -2.5000 0.9775
3.9478 -3.2233 -2.5000 0.9775
4.0744 -3.0617 -2.5000 0.9775
4.1944 -2.8952 -2.5000 0.9775
4.3076 -2.7239 -2.5000 0.9775
4.4137 -2.5483 -2.5000 0.9775
4.8343 -1.6139 -2.5000 0.9775
4.8953 -1.4180 -2.5000 0.9775
4.9936 -1.0194 -2.5000 0.9775
5.0800 -0.4101 -2.5000 0.9775
5.0966 -0.0000 -2.5000 0.9775
5.0924 0.2052 -2.5000 0.9775
5.0594 0.6143 -2.5000 0.9775
4.9936 1.0194 -2.5000 0.9775
4.9485 1.2197 -2.5000 0.9775
4.8343 1.6139 -2.5000 0.9775
4.6887 1.9977 -2.5000 0.9775
4.5128 2.3685 -2.5000 0.9775
4.4137 2.5483 -2.5000 0.9775
3.8356 2.8823 -2.3535 0.9789
3.7071 3.0268 -2.3476 0.9789
3.5823 3.1736 -2.3476 0.9789
3.1736 3.5823 -2.3476 0.9789
3.0268 3.7072 -2.3476 0.9789
2.8751 3.8260 -2.3476 0.9789
2.2241 4.2377 -2.3476 0.9789
1.8759 4.4029 -2.3476 0.9789
1.5155 4.5396 -2.3476 0.9789
1.1453 4.6468 -2.3476 0.9789
0.9573 4.6891 -2.3476 0.9789
0.7677 4.7239 -2.3476 0.9789
0.5769 4.7510 -2.3476 0.9789
0.1927 4.7820 -2.3476 0.9789
-0.5769 4.7510 -2.3476 0.9789
-0.7677 4.7239 -2.3476 0.9789
-1.1454 4.6468 -2.3476 0.9789
-1.3315 4.5969 -2.3476 0.9789
-1.6971 4.4749 -2.3476 0.9789
-1.8759 4.4029 -2.3476 0.9789
-2.0517 4.3238 -2.3476 0.9789
-2.8751 3.8260 -2.3476 0.9789
-3.4516 3.3153 -2.3476 0.9789
-3.5823 3.1736 -2.3476 0.9789
-3.7072 3.0268 -2.3476 0.9789
-3.9496 2.7262 -2.3541 0.9788
-4.2643 2.6966 -2.4749 0.9778
-4.6045 2.1848 -2.5000 0.9775
-4.7654 1.8072 -2.5000 0.9775
-4.8343 1.6139 -2.5000 0.9775
-2.9436 0.8526 -1.5032 0.9864
-2.1007 0.5178 -1.0613 0.9904
-2.0898 0.4266 -1.0462 0.9905
-2.0595 0.0830 -1.0111 0.9909
-1.9479 -0.0000 -1.0105 0.9913
-1.9494 -0.0786 -1.0121 0.9912
-1.9445 -0.2361 -1.0162 0.9912
-1.9520 -0.3172 -1.0259 0.9911
-1.9687 -0.4852 -1.0519 0.9909
-2.3249 -0.6734 -1.2557 0.9892
-4.4334 -1.8889 -2.5000 0.9785
-4.3537 -2.0659 -2.5000 0.9785
-4.2670 -2.2395 -2.5000 0.9785
-3.8525 -2.8950 -2.5000 0.9785
-3.6071 -3.1956 -2.5000 0.9785
-3.3382 -3.4755 -2.5000 0.9785
-3.1956 -3.6071 -2.5000 0.9785
-2.8950 -3.8525 -2.5000 0.9785
-2.7375 -3.9660 -2.5000 0.9785
-2.5756 -4.0729 -2.5000 0.9785
-2.2395 -4.2670 -2.5000 0.9785
-2.0659 -4.3537 -2.5000 0.9785
-1.8889 -4.4333 -2.5000 0.9785
-1.7088 -4.5058 -2.5000 0.9785
-1.5260 -4.5710 -2.5000 0.9785
-0.7730 -4.7566 -2.5000 0.9785
-0.5809 -4.7838 -2.5000 0.9785
-0.3878 -4.8033 -2.5000 0.9785
-0.1940 -4.8151 -2.5000 0.9785
0.0000 -4.8190 -2.5000 0.9785
0.1940 -4.8151 -2.5000 0.9785
0.3878 -4.8033 -2.5000 0.9785
0.5808 -4.7838 -2.5000 0.9785
0.7730 -4.7566 -2.5000 0.9785
0.9639 -4.7216 -2.5000 0.9785
1.7088 -4.5058 -2.5000 0.9785
2.2395 -4.2670 -2.5000 0.9785
2.5756 -4.0730 -2.5000 0.9785
3.1956 -3.6071 -2.5000 0.9785
3.3382 -3.4755 -2.5000 0.9785
3.6071 -3.1956 -2.5000 0.9785
3.7328 -3.0478 -2.5000 0.9785
3.8525 -2.8950 -2.5000 0.9785
4.1733 -2.4095 -2.5000 0.9785
4.4333 -1.8889 -2.5000 0.9785
4.5058 -1.7088 -2.5000 0.9785
4.5710 -1.5260 -2.5000 0.9785
4.6789 -1.1533 -2.5000 0.9785
4.7216 -0.9639 -2.5000 0.9785
4.7566 -0.7730 -2.5000 0.9785
4.8151 0.1940 -2.5000 0.9785
4.7838 0.5809 -2.5000 0.9785
4.7566 0.7730 -2.5000 0.9785
4.6287 1.3407 -2.5000 0.9785
4.5710 1.5260 -2.5000 0.9785
4.3537 2.0658 -2.5000 0.9785
4.0729 2.5756 -2.5000 0.9785
3.9135 2.7013 -2.4669 0.9788
3.6299 2.7277 -2.3556 0.9797
3.3872 3.0008 -2.3476 0.9798
3.1347 3.2636 -2.3476 0.9798
3.0008 3.3872 -2.3476 0.9798
2.8619 3.5052 -2.3476 0.9798
2.7185 3.6176 -2.3476 0.9798
2.5706 3.7242 -2.3476 0.9798
2.4186 3.8246 -2.3476 0.9798
2.2626 3.9189 -2.3476 0.9798
2.1029 4.0069 -2.3476 0.9798
1.9399 4.0883 -2.3476 0.9798
1.7737 4.1631 -2.3476 0.9798
1.6047 4.2311 -2.3476 0.9798
1.4330 4.2923 -2.3476 0.9798
1.0829 4.3937 -2.3476 0.9798
0.3641 4.5105 -2.3476 0.9798
0.1822 4.5215 -2.3476 0.9798
-0.1822 4.5215 -2.3476 0.9798
-0.7259 4.4666 -2.3476 0.9798
-0.9052 4.4337 -2.3476 0.9798
-1.0829 4.3937 -2.3476 0.9798
-1.2590 4.3466 -2.3476 0.9798
-1.4330 4.2923 -2.3476 0.9798
-2.1327 3.3726 -2.0701 0.9822
-2.5706 3.7242 -2.3476 0.9798
-2.8619 3.5052 -2.3476 0.9798
-3.5052 2.8619 -2.3476 0.9798
-3.9096 2.6986 -2.4645 0.9788
-4.0729 2.5756 -2.5000 0.9785
-4.1734 2.4095 -2.5000 0.9785
-4.2670 2.2395 -2.5000 0.9785
-4.4333 1.8889 -2.5000 0.9785
-4.5058 1.7088 -2.5000 0.9785
-4.5710 1.5260 -2.5000 0.9785
-2.3248 0.6734 -1.2557 0.9892
-1.9607 0.4003 -1.0382 0.9910
-1.8467 -0.0000 -1.0115 0.9916
-1.8480 -0.0745 -1.0130 0.9916
-1.8463 -0.1491 -1.0145 0.9916
-1.8418 -0.2236 -1.0162 0.9916
-1.8480 -0.3003 -1.0254 0.9915
-1.8512 -0.3779 -1.0348 0.9914
-1.8515 -0.4563 -1.0444 0.9913
-4.2679 -1.6186 -2.5000 0.9794
-4.1992 -1.7891 -2.5000 0.9794
-4.1238 -1.9568 -2.5000 0.9794
-3.8579 -2.4396 -2.5000 0.9794
-3.7565 -2.5929 -2.5000 0.9794
-3.6491 -2.7421 -2.5000 0.9794
-3.2919 -3.1619 -2.5000 0.9794
-3.1619 -3.2919 -2.5000 0.9794
-3.0268 -3.4166 -2.5000 0.9794
-2.8868 -3.5357 -2.5000 0.9794
-2.7421 -3.6491 -2.5000 0.9794
-2.4396 -3.8579 -2.5000 0.9794
-2.2822 -3.9530 -2.5000 0.9794
-1.6186 -4.2679 -2.5000 0.9794
-1.4454 -4.3296 -2.5000 0.9794
-1.2699 -4.3843 -2.5000 0.9794
-0.9130 -4.4722 -2.5000 0.9794
-0.7322 -4.5054 -2.5000 0.9794
-0.5502 -4.5312 -2.5000 0.9794
-0.3673 -4.5497 -2.5000 0.9794
-0.1838 -4.5608 -2.5000 0.9794
0.1838 -4.5608 -2.5000 0.9794
0.3673 -4.5497 -2.5000 0.9794
1.2699 -4.3843 -2.5000 0.9794
1.6186 -4.2679 -2.5000 0.9794
1.7891 -4.1992 -2.5000 0.9794
1.9567 -4.1238 -2.5000 0.9794
2.2822 -3.9530 -2.5000 0.9794
2.4396 -3.8579 -2.5000 0.9794
2.7421 -3.6490 -2.5000 0.9794
2.8868 -3.5357 -2.5000 0.9794
3.0268 -3.4166 -2.5000 0.9794
3.1619 -3.2919 -2.5000 0.9794
3.2919 -3.1619 -2.5000 0.9794
3.5357 -2.8868 -2.5000 0.9794
3.8578 -2.4396 -2.5000 0.9794
3.9530 -2.2822 -2.5000 0.9794
4.0417 -2.1212 -2.5000 0.9794
4.1238 -1.9568 -2.5000 0.9794
4.1992 -1.7891 -2.5000 0.9794
4.4723 -0.9130 -2.5000 0.9794
4.5497 -0.3673 -2.5000 0.9794
4.5645 0.0000 -2.5000 0.9794
4.5608 0.1838 -2.5000 0.9794
4.5497 0.3673 -2.5000 0.9794
4.5312 0.5502 -2.5000 0.9794
4.4722 0.9130 -2.5000 0.9794
4.4318 1.0924 -2.5000 0.9794
4.3296 1.4454 -2.5000 0.9794
3.9530 2.2822 -2.5000 0.9794
3.8579 2.4396 -2.5000 0.9794
3.7565 2.5929 -2.5000 0.9794
3.5955 2.7018 -2.4633 0.9797
3.3364 2.7241 -2.3591 0.9805
3.2084 2.8423 -2.3476 0.9806
2.7108 3.3201 -2.3476 0.9806
2.5749 3.4266 -2.3476 0.9806
2.2908 3.6227 -2.3476 0.9806
2.1431 3.7120 -2.3476 0.9806
1.9919 3.7953 -2.3476 0.9806
1.8375 3.8724 -2.3476 0.9806
1.6800 3.9432 -2.3476 0.9806
1.5199 4.0077 -2.3476 0.9806
1.0257 4.1617 -2.3476 0.9806
0.8574 4.1996 -2.3476 0.9806
0.5166 4.2550 -2.3476 0.9806
0.3449 4.2723 -2.3476 0.9806
0.1726 4.2828 -2.3476 0.9806
0.0000 4.2862 -2.3476 0.9806
-0.1726 4.2828 -2.3476 0.9806
-0.3449 4.2723 -2.3476 0.9806
-0.8574 4.1996 -2.3476 0.9806
-1.0258 4.1617 -2.3476 0.9806
-1.1925 4.1170 -2.3476 0.9806
-2.0446 3.5412 -2.2396 0.9815
-2.5749 3.4266 -2.3476 0.9806
-2.7108 3.3201 -2.3476 0.9806
-2.8423 3.2083 -2.3476 0.9806
-2.9692 3.0912 -2.3476 0.9806
-3.0912 2.9692 -2.3476 0.9806
-3.3347 2.7227 -2.3579 0.9806
-3.8579 2.4396 -2.5000 0.9794
-4.1238 1.9568 -2.5000 0.9794
-4.1991 1.7891 -2.5000 0.9794
-4.2679 1.6186 -2.5000 0.9794
-2.7121 0.9054 -1.5660 0.9870
-1.8515 0.4563 -1.0444 0.9913
-1.8418 0.2236 -1.0162 0.9916
-1.8463 0.1490 -1.0145 0.9916
-1.8480 0.0745 -1.0130 0.9916
-1.7513 -0.2127 -1.0185 0.9919
-1.7550 -0.2852 -1.0265 0.9918
-1.7575 -0.3588 -1.0356 0.9917
-2.2037 -0.7357 -1.3413 0.9893
-4.0487 -1.5355 -2.5000 0.9802
-3.8341 -2.0123 -2.5000 0.9802
-3.6598 -2.3143 -2.5000 0.9802
-3.2411 -2.8714 -2.5000 0.9802
-2.9996 -3.1229 -2.5000 0.9802
-2.8714 -3.2411 -2.5000 0.9802
-2.6013 -3.4617 -2.5000 0.9802
