ply
format ascii 1.0
element vertex 1572
property float32 x
property float32 y
property float32 z
property float32 I
end_header
-39.7594 18.8661 2.7290 0.8383
-47.0651 13.6326 3.0385 0.8217
-38.8202 6.3089 2.4388 0.8542
-38.2302 4.6420 2.3881 0.8570
-36.7847 2.9696 2.2885 0.8625
-36.4860 1.4703 2.2643 0.8639
-28.4397 -1.1461 1.1223 0.8923
-43.4364 -3.5066 1.7183 0.8399
-40.5265 -4.9209 1.6097 0.8492
-33.4191 -5.4312 1.3350 0.8732
-32.3780 -6.6101 1.3030 0.8761
-46.1126 -13.3567 1.8930 0.8252
-34.9501 -18.3433 1.5564 0.8538
-32.0183 -18.4858 1.4578 0.8624
-31.7949 -23.8923 1.5682 0.8528
-32.2564 -26.3365 1.6420 0.8465
-1.7908 -14.7485 0.5858 0.9423
-0.5935 -14.7286 0.5812 0.9427
-0.0000 -14.7187 0.5804 0.9428
0.5927 -14.7088 0.5805 0.9428
1.1820 -14.6415 0.5792 0.9429
1.7836 -14.6890 0.5835 0.9425
3.6130 -14.6586 0.5953 0.9414
4.2429 -14.6481 0.6013 0.9408
14.7741 -31.1358 1.3589 0.8711
15.1454 -28.8571 1.2851 0.8777
14.7028 -23.2506 1.0847 0.8957
15.2939 -22.1571 1.0616 0.8978
14.6401 -19.4825 0.9609 0.9071
15.3072 -15.9364 0.8713 0.9153
16.6367 -15.9798 0.9096 0.9118
18.0942 -16.0300 0.9532 0.9078
19.7049 -16.0885 1.0031 0.9032
25.5007 -19.1625 1.2578 0.8801
25.3568 -16.0347 1.1830 0.8868
33.7905 -14.3967 1.4483 0.8633
31.8652 -6.5053 1.2824 0.8779
34.0407 -5.5322 1.3599 0.8710
22.4483 1.8122 0.8880 0.9138
21.9730 3.5710 0.8778 0.9147
20.8855 4.2638 0.8405 0.9182
22.9969 5.6682 0.9339 0.9095
45.7129 17.3366 1.9278 0.8222
43.8903 18.6999 1.8812 0.8261
21.7531 16.3464 1.0729 0.8968
3.3451 2.7312 0.1703 0.9829
7.8848 10.4927 0.5175 0.9488
6.1753 8.9464 0.4286 0.9574
5.9914 9.4746 0.4420 0.9561
4.3827 10.2864 0.4409 0.9562
3.7679 9.9351 0.4190 0.9584
2.8494 17.5331 0.7004 0.9314
0.6407 7.9361 0.3139 0.9686
0.3187 7.9063 0.3120 0.9688
0.0001 7.9649 0.3141 0.9686
-0.6659 8.2494 0.3263 0.9674
-1.0086 8.3075 0.3300 0.9671
-4.2105 20.6243 0.8300 0.9192
-32.6392 28.9158 1.7194 0.8398
-34.8381 28.4444 1.7734 0.8352
-38.5997 18.3158 1.6847 0.8428
-44.0366 18.7623 1.8874 0.8256
-48.2121 9.8425 1.9403 0.8212
-37.6618 1.5177 1.4862 0.8599
-28.4361 -1.1459 0.4807 0.8924
-41.0923 -4.9896 0.6992 0.8474
-27.2299 -11.6016 0.5000 0.8883
-34.1736 -21.6100 0.6830 0.8506
-30.7057 -23.0738 0.6488 0.8576
-32.9272 -26.8841 0.7180 0.8436
-4.2656 -14.7267 0.2590 0.9405
-3.6428 -14.7793 0.2571 0.9409
-1.8430 -11.3404 0.1941 0.9551
-0.0000 -14.7187 0.2486 0.9428
1.7836 -14.6890 0.2499 0.9425
2.9947 -14.6689 0.2529 0.9419
3.6130 -14.6586 0.2550 0.9414
14.7741 -31.1358 0.5821 0.8712
14.4706 -27.5714 0.5260 0.8829
14.8116 -23.4227 0.4681 0.8951
14.7485 -19.6267 0.4147 0.9065
12.8502 -14.5049 0.3273 0.9254
13.9151 -14.4872 0.3393 0.9228
15.0629 -14.4681 0.3528 0.9198
17.6671 -14.4248 0.3853 0.9128
19.1627 -14.3999 0.4049 0.9086
26.2042 -15.1290 0.5111 0.8860
30.7438 -16.1356 0.5865 0.8703
33.0472 -15.6811 0.6179 0.8639
33.8602 -14.4265 0.6217 0.8631
37.5122 -14.2265 0.6777 0.8517
25.3990 0.0000 0.4290 0.9034
20.6276 2.5046 0.3510 0.9202
24.0067 3.9015 0.4108 0.9073
22.3424 6.4716 0.3929 0.9111
22.6410 7.5587 0.4032 0.9089
22.8218 8.6552 0.4123 0.9070
43.9205 18.7127 0.8064 0.8261
37.7087 21.7711 0.7355 0.8401
34.7428 21.9700 0.6944 0.8484
24.2993 16.7726 0.4987 0.8886
21.7531 16.3464 0.4596 0.8969
3.3439 2.7302 0.0729 0.9829
3.1081 2.7535 0.0701 0.9835
7.5813 10.0888 0.2132 0.9508
6.9901 10.1268 0.2079 0.9520
5.1240 8.8750 0.1731 0.9598
5.0235 9.5714 0.1826 0.9577
4.7259 9.9595 0.1862 0.9569
3.4683 9.1450 0.1652 0.9616
3.6054 10.7995 0.1923 0.9555
3.3086 13.4236 0.2335 0.9462
0.6309 7.8145 0.1324 0.9691
0.3122 7.7453 0.1309 0.9695
0.0001 7.7915 0.1316 0.9693
-0.6571 8.1398 0.1379 0.9679
-0.9982 8.2217 0.1399 0.9674
-1.9845 9.7208 0.1676 0.9611
-2.4180 2.3225 0.0566 0.9867
-38.9055 18.4609 0.7274 0.8417
-45.4997 19.3856 0.8354 0.8205
-40.8962 11.8457 0.7192 0.8434
-39.3609 9.7016 0.6848 0.8503
-40.3099 8.2293 0.6949 0.8482
-37.2341 4.5210 0.6336 0.8607
-32.3600 -6.6064 -0.1860 0.8762
-27.2264 -11.6001 -0.1666 0.8884
-35.2793 -20.3685 -0.2294 0.8496
-34.1358 -21.5862 -0.2274 0.8508
-3.6428 -14.7793 -0.0857 0.9409
-3.0151 -14.7689 -0.0849 0.9415
-1.8426 -11.3378 -0.0647 0.9551
-1.7908 -14.7485 -0.0836 0.9423
-1.1898 -14.7385 -0.0833 0.9426
-0.0000 -14.7187 -0.0829 0.9428
1.1820 -14.6415 -0.0827 0.9429
1.7836 -14.6890 -0.0833 0.9425
2.3856 -14.6790 -0.0837 0.9422
2.9947 -14.6689 -0.0843 0.9419
4.2429 -14.6481 -0.0859 0.9408
13.1945 -34.7913 -0.2095 0.8617
14.8136 -34.7690 -0.2128 0.8597
14.9460 -31.4981 -0.1963 0.8698
14.7228 -28.0520 -0.1784 0.8810
14.8499 -25.7208 -0.1672 0.8880
14.6309 -21.1965 -0.1450 0.9021
14.7485 -19.6267 -0.1382 0.9065
12.8502 -14.5049 -0.1091 0.9254
15.0629 -14.4681 -0.1176 0.9199
16.3077 -14.4474 -0.1227 0.9165
17.6671 -14.4248 -0.1284 0.9128
19.1627 -14.3999 -0.1350 0.9086
20.8218 -14.3723 -0.1424 0.9037
26.2042 -15.1290 -0.1704 0.8860
30.4799 -15.9971 -0.1938 0.8714
32.1407 -15.2509 -0.2003 0.8674
33.8602 -14.4265 -0.2072 0.8631
42.5397 -14.2018 -0.2525 0.8358
23.9970 3.8999 -0.1369 0.9073
44.5887 16.9103 -0.2685 0.8263
44.7062 21.2134 -0.2786 0.8204
35.7533 20.6422 -0.2324 0.8478
34.6423 21.9065 -0.2308 0.8488
24.4591 16.8829 -0.1673 0.8879
3.0192 2.9000 -0.0236 0.9834
7.5223 8.4908 -0.0639 0.9556
7.3624 9.0172 -0.0655 0.9545
7.0328 9.3588 -0.0659 0.9543
6.6544 9.6404 -0.0660 0.9542
6.2277 9.8482 -0.0656 0.9545
4.4274 9.3304 -0.0581 0.9595
3.7658 9.9294 -0.0598 0.9584
3.3924 10.1613 -0.0603 0.9581
0.9527 7.8460 -0.0445 0.9689
0.3071 7.6195 -0.0429 0.9700
-0.6471 8.0159 -0.0453 0.9683
-0.9873 8.1314 -0.0461 0.9678
-1.3509 8.3130 -0.0474 0.9669
-38.1126 22.0043 -0.2478 0.8386
-37.3547 17.7250 -0.2328 0.8476
-39.8868 8.1430 -0.2292 0.8497
-36.8333 4.4724 -0.2089 0.8621
-35.6188 -5.7886 -1.0161 0.8655
-32.2746 -6.5889 -0.9275 0.8765
-31.3160 -7.7188 -0.9082 0.8789
-27.2228 -11.5986 -0.8332 0.8883
-36.6095 -21.1365 -1.1903 0.8444
-34.4927 -21.8118 -1.1491 0.8493
-36.0161 -34.5940 -1.4062 0.8189
-4.2656 -14.7267 -0.4317 0.9405
-1.8421 -11.3352 -0.3234 0.9551
-1.7908 -14.7485 -0.4183 0.9423
-1.1898 -14.7385 -0.4164 0.9425
0.5927 -14.7088 -0.4145 0.9428
1.1820 -14.6415 -0.4136 0.9429
1.7836 -14.6890 -0.4166 0.9425
2.3856 -14.6790 -0.4188 0.9422
2.9947 -14.6689 -0.4216 0.9418
4.2429 -14.6481 -0.4294 0.9408
11.6237 -34.8174 -1.0336 0.8634
14.7228 -28.0520 -0.8921 0.8809
14.8499 -25.7208 -0.8363 0.8879
14.8116 -23.4227 -0.7803 0.8950
12.8502 -14.5049 -0.5457 0.9254
13.9151 -14.4872 -0.5656 0.9228
15.0629 -14.4681 -0.5881 0.9198
17.6671 -14.4248 -0.6422 0.9128
25.4357 -16.0846 -0.8474 0.8865
26.2042 -15.1290 -0.8520 0.8860
28.7739 -15.1017 -0.9150 0.8781
30.5389 -14.4909 -0.9518 0.8735
37.4765 -14.2129 -1.1286 0.8518
28.7921 7.0966 -0.8350 0.8881
22.0817 6.3960 -0.6473 0.9121
18.3440 6.1241 -0.5445 0.9255
15.2494 6.4971 -0.4667 0.9358
25.0094 17.2628 -0.8557 0.8855
3.3415 2.7282 -0.1215 0.9829
3.0185 2.8993 -0.1179 0.9834
6.7388 8.2535 -0.3000 0.9583
6.4439 8.5752 -0.3020 0.9580
5.4683 10.4189 -0.3313 0.9540
4.6642 10.9471 -0.3351 0.9535
5.3662 16.0737 -0.4772 0.9344
2.7584 11.1913 -0.3246 0.9549
3.4362 16.8317 -0.4837 0.9336
1.3270 8.1647 -0.2329 0.9674
0.9522 7.8412 -0.2224 0.9689
0.6204 7.6848 -0.2171 0.9696
0.0001 7.6131 -0.2144 0.9700
-0.3127 7.7610 -0.2187 0.9694
-0.6393 7.9194 -0.2237 0.9687
-0.9778 8.0532 -0.2284 0.9681
-1.3383 8.2353 -0.2349 0.9672
-1.7334 8.4912 -0.2440 0.9659
-5.6869 19.6335 -0.5756 0.9215
-5.5283 16.5592 -0.4916 0.9325
-2.4180 2.3225 -0.0944 0.9867
-3.9878 3.2559 -0.1450 0.9796
-38.6840 4.6971 -1.0973 0.8556
-48.5457 0.0000 -2.4620 0.8233
-28.4247 -1.1455 -1.4427 0.8923
-28.0337 -2.2631 -1.4263 0.8935
-27.9309 -5.7022 -1.4457 0.8921
-45.2113 -17.1464 -2.4522 0.8239
-27.2193 -11.5971 -1.5005 0.8883
-27.8162 -13.1989 -1.5614 0.8840
-41.6605 -24.0527 -2.4396 0.8248
-28.1419 -22.9771 -1.8425 0.8646
-28.4461 -32.1090 -2.1755 0.8421
-29.7752 -36.4680 -2.3876 0.8282
-4.2656 -14.7267 -0.7776 0.9404
-3.0151 -14.7689 -0.7644 0.9414
-0.5935 -14.7286 -0.7476 0.9427
0.5927 -14.7088 -0.7466 0.9427
1.1820 -14.6415 -0.7450 0.9429
1.7836 -14.6890 -0.7504 0.9425
2.3856 -14.6790 -0.7542 0.9422
3.6130 -14.6586 -0.7656 0.9413
11.6237 -34.8174 -1.8615 0.8633
14.9460 -31.4981 -1.7681 0.8697
14.8116 -23.4227 -1.4054 0.8949
14.6309 -21.1965 -1.3062 0.9020
14.7485 -19.6267 -1.2451 0.9064
15.0629 -14.4681 -1.0592 0.9198
19.1627 -14.3999 -1.2156 0.9085
28.7740 -15.1017 -1.6480 0.8780
30.2196 -14.3394 -1.6963 0.8746
40.5561 -13.5396 -2.1684 0.8426
41.8241 -12.1145 -2.2083 0.8400
45.5089 -9.2907 -2.3556 0.8302
49.1634 -3.9689 -2.5014 0.8207
49.2833 -1.9861 -2.5014 0.8207
49.1633 3.9689 -2.5014 0.8207
45.4852 9.2859 -2.3543 0.8303
28.6322 7.0572 -1.4955 0.8886
18.1165 6.0482 -0.9686 0.9264
13.5379 5.7680 -0.7463 0.9428
12.0919 5.7377 -0.6788 0.9478
10.4110 5.4641 -0.5963 0.9540
8.9774 5.6769 -0.5387 0.9584
8.2569 5.6994 -0.5088 0.9606
3.3403 2.7272 -0.2187 0.9829
5.6867 5.9205 -0.4163 0.9677
6.0314 8.7379 -0.5385 0.9584
5.8261 9.2131 -0.5528 0.9573
5.2612 10.0244 -0.5741 0.9557
4.8664 10.2556 -0.5757 0.9556
4.3084 10.1121 -0.5574 0.9569
3.1420 9.4113 -0.5032 0.9610
3.7383 12.9060 -0.6814 0.9476
3.4362 16.8317 -0.8712 0.9335
1.3288 8.1757 -0.4201 0.9674
0.9547 7.8618 -0.4016 0.9688
0.0001 7.6214 -0.3865 0.9699
-0.3130 7.7696 -0.3943 0.9693
-0.9863 8.1238 -0.4150 0.9678
-5.4299 12.7444 -0.7025 0.9460
-5.4970 11.5847 -0.6503 0.9499
-5.7173 9.0412 -0.5425 0.9581
-5.9390 7.2739 -0.4762 0.9631
-23.4351 26.4528 -1.7923 0.8680
-5.9406 6.1847 -0.4349 0.9662
-2.4180 2.3225 -0.1701 0.9867
-38.0092 28.5620 -2.4112 0.8266
-28.8664 18.2540 -1.7321 0.8722
-23.0508 12.0980 -1.3202 0.9010
-23.0112 10.9189 -1.2917 0.9030
-44.8796 17.0206 -2.4342 0.8251
-28.4175 8.2312 -1.5004 0.8883
-46.8119 11.5381 -2.4451 0.8244
-48.3526 3.9034 -2.4601 0.8234
-32.7995 0.0000 -2.4049 0.8767
-28.0337 -2.2631 -2.0622 0.8933
-32.5522 -3.9526 -2.4043 0.8768
-27.8601 -8.0698 -2.1267 0.8902
-27.8237 -9.2889 -2.1508 0.8890
-27.0712 -11.5340 -2.1576 0.8887
-27.8857 -14.6355 -2.3091 0.8813
-27.9014 -16.1089 -2.3623 0.8788
-27.5314 -17.4098 -2.3884 0.8775
-26.8071 -18.5036 -2.3883 0.8775
-23.9970 -24.9835 -2.5400 0.8703
-22.9715 -25.9295 -2.5400 0.8703
-19.6786 -28.5094 -2.5400 0.8703
-17.3207 -30.0004 -2.5400 0.8703
-16.0987 -30.6735 -2.5400 0.8703
-14.8505 -31.2968 -2.5400 0.8703
-13.5783 -31.8694 -2.5400 0.8703
-12.2840 -32.3903 -2.5400 0.8703
-3.6428 -14.7793 -1.1161 0.9408
-3.0151 -14.7689 -1.1052 0.9413
-1.1898 -14.7385 -1.0842 0.9424
0.5927 -14.7088 -1.0794 0.9427
1.7836 -14.6890 -1.0849 0.9424
3.6130 -14.6586 -1.1070 0.9412
4.2429 -14.6481 -1.1182 0.9407
11.5060 -30.3387 -2.3791 0.8780
14.7228 -28.0520 -2.3229 0.8807
14.8499 -25.7208 -2.1776 0.8877
14.8116 -23.4227 -2.0320 0.8948
13.9151 -14.4872 -1.4729 0.9226
15.0629 -14.4681 -1.5314 0.9196
16.3077 -14.4474 -1.5975 0.9163
17.6671 -14.4248 -1.6723 0.9126
19.1627 -14.3999 -1.7575 0.9083
25.3122 -16.0065 -2.1959 0.8868
28.5124 -14.9644 -2.3610 0.8788
29.0761 -13.7968 -2.3598 0.8789
29.5916 -12.6078 -2.3584 0.8790
30.0401 -11.3927 -2.3557 0.8791
30.4384 -10.1618 -2.3529 0.8792
30.7861 -8.9173 -2.3501 0.8794
33.4257 -6.8239 -2.5014 0.8721
33.6734 -5.4725 -2.5014 0.8721
33.8664 -4.1121 -2.5014 0.8721
34.0875 1.3737 -2.5014 0.8721
34.0045 2.7451 -2.5014 0.8721
33.8664 4.1121 -2.5014 0.8721
31.4605 6.4227 -2.3543 0.8792
17.0370 5.6878 -1.3170 0.9305
13.4753 5.7413 -1.0740 0.9429
11.9967 5.6925 -0.9736 0.9481
9.1792 5.2996 -0.7772 0.9584
7.4282 5.5820 -0.6813 0.9634
3.3391 2.7262 -0.3161 0.9829
3.1052 2.7510 -0.3042 0.9835
4.6168 5.6545 -0.5352 0.9711
4.3795 5.8280 -0.5345 0.9712
4.0602 5.8822 -0.5241 0.9717
3.6455 5.7648 -0.5001 0.9730
3.0672 5.8440 -0.4839 0.9739
4.6660 9.8333 -0.7981 0.9573
2.4156 5.6695 -0.4519 0.9756
1.9559 5.8586 -0.4529 0.9755
1.1733 5.7470 -0.4301 0.9767
0.9571 5.8890 -0.4375 0.9764
0.0001 7.6296 -0.5594 0.9699
-0.4743 5.8751 -0.4322 0.9766
-0.9951 8.1958 -0.6053 0.9674
-1.4683 5.9571 -0.4499 0.9757
-2.6083 9.0051 -0.6874 0.9631
-2.2644 5.9707 -0.4682 0.9747
-2.5037 5.8764 -0.4683 0.9747
-3.4427 5.4441 -0.4723 0.9745
-4.0277 5.8351 -0.5199 0.9720
-4.4314 5.4275 -0.5138 0.9723
-5.1660 5.8311 -0.5712 0.9692
-2.4180 2.3225 -0.2458 0.9866
-4.0062 3.5492 -0.3924 0.9788
-4.0015 3.2671 -0.3788 0.9795
-26.6944 20.0595 -2.4483 0.8747
-22.7433 10.7918 -1.8458 0.9040
-22.8040 9.7159 -1.8175 0.9054
-28.4761 9.5067 -2.2012 0.8866
-31.7816 7.8335 -2.4000 0.8770
-32.0888 6.5510 -2.4014 0.8769
-28.1352 1.1338 -2.0646 0.8932
-25.8181 0.0000 -2.4787 0.9015
-25.7734 -1.0386 -2.4764 0.9015
-25.7281 -2.0770 -2.4781 0.9015
-25.5363 -6.2942 -2.5250 0.8997
-25.4122 -7.3607 -2.5400 0.8991
-25.0952 -8.3780 -2.5400 0.8991
-24.3397 -10.3702 -2.5400 0.8991
-23.9024 -11.3418 -2.5400 0.8991
-23.4263 -12.2951 -2.5400 0.8991
-22.9123 -13.2284 -2.5400 0.8991
-22.3610 -14.1402 -2.5400 0.8991
-21.7735 -15.0292 -2.5400 0.8991
-15.8937 -21.1507 -2.5400 0.8991
-14.1403 -22.3610 -2.5400 0.8991
-13.2284 -22.9123 -2.5400 0.8991
-12.2951 -23.4264 -2.5400 0.8991
-11.3418 -23.9024 -2.5400 0.8991
-4.2656 -14.7267 -1.4720 0.9402
-3.0151 -14.7689 -1.4471 0.9412
-1.8409 -11.3274 -1.1018 0.9549
-1.4055 -11.5754 -1.1195 0.9542
-1.1898 -14.7385 -1.4196 0.9423
-0.5935 -14.7286 -1.4152 0.9425
-0.0000 -14.7187 -1.4131 0.9426
1.1820 -14.6415 -1.4102 0.9427
1.7836 -14.6890 -1.4206 0.9423
2.3856 -14.6790 -1.4277 0.9420
2.9947 -14.6689 -1.4373 0.9416
4.2429 -14.6481 -1.4641 0.9406
9.6751 -22.7084 -2.3697 0.9056
10.5795 -22.2958 -2.3693 0.9056
11.4662 -21.8470 -2.3687 0.9056
13.1804 -20.8431 -2.3676 0.9057
14.7485 -19.6267 -2.3570 0.9061
14.7219 -18.0311 -2.2348 0.9107
13.9151 -14.4872 -1.9285 0.9225
15.0629 -14.4681 -2.0051 0.9195
16.3077 -14.4474 -2.0916 0.9162
20.2246 -13.9600 -2.3593 0.9060
21.2510 -12.2693 -2.3558 0.9061
22.1305 -10.5010 -2.3517 0.9063
22.5151 -9.5928 -2.3496 0.9063
25.0262 -7.2489 -2.5014 0.9006
25.7174 -4.1795 -2.5014 0.9006
25.8649 -3.1406 -2.5014 0.9006
25.9703 -2.0965 -2.5014 0.9006
26.0548 -0.0001 -2.5014 0.9006
25.9703 2.0966 -2.5014 0.9006
25.6890 3.1192 -2.4844 0.9012
24.0210 4.9039 -2.3537 0.9062
22.7314 6.5842 -2.2720 0.9093
18.1841 6.0707 -1.8405 0.9259
9.2896 5.3633 -1.0298 0.9578
8.7821 5.5534 -0.9976 0.9591
7.7849 5.3735 -0.9081 0.9627
7.4061 5.5654 -0.8894 0.9635
3.3378 2.7253 -0.4137 0.9828
3.0164 2.8973 -0.4015 0.9833
5.3601 5.5804 -0.7429 0.9694
3.9728 5.7555 -0.6714 0.9723
3.4349 5.4318 -0.6170 0.9745
3.0800 5.3346 -0.5914 0.9756
2.9290 5.5806 -0.6051 0.9750
2.7039 5.6982 -0.6055 0.9750
2.0782 5.4798 -0.5627 0.9767
1.3941 5.6559 -0.5593 0.9769
0.8657 5.3267 -0.5181 0.9785
0.4693 5.8126 -0.5599 0.9768
-0.4339 5.3756 -0.5178 0.9786
-1.1073 5.4239 -0.5315 0.9780
-1.3410 5.4406 -0.5380 0.9777
-1.6278 5.6197 -0.5617 0.9768
-2.2707 5.3295 -0.5562 0.9770
-2.8963 5.5185 -0.5983 0.9753
-3.0535 5.2889 -0.5863 0.9758
-3.3231 5.2550 -0.5969 0.9753
-4.2235 5.6204 -0.6750 0.9721
-4.6458 5.2440 -0.6726 0.9722
-2.4180 2.3225 -0.3219 0.9866
-21.7735 15.0292 -2.5400 0.8991
-22.3610 14.1403 -2.5400 0.8991
-23.4263 12.2951 -2.5400 0.8991
-23.9024 11.3419 -2.5400 0.8991
-24.3397 10.3702 -2.5400 0.8991
-25.0952 8.3780 -2.5400 0.8991
-25.4122 7.3607 -2.5400 0.8991
-25.8622 1.0422 -2.4849 0.9012
-21.3655 -0.8610 -2.5400 0.9175
-21.3135 -1.7206 -2.5400 0.9175
-21.2270 -2.5774 -2.5400 0.9175
-20.9507 -4.2771 -2.5400 0.9175
-20.7615 -5.1173 -2.5400 0.9175
-18.9336 -9.9371 -2.5400 0.9175
-18.5181 -10.6914 -2.5400 0.9175
-16.0053 -14.1795 -2.5400 0.9175
-14.1795 -16.0053 -2.5400 0.9175
-13.5235 -16.5633 -2.5400 0.9175
-11.4284 -18.0726 -2.5400 0.9175
-9.9371 -18.9336 -2.5400 0.9175
-7.1292 -18.7983 -2.3882 0.9222
-6.3670 -19.0716 -2.3883 0.9222
-4.2656 -14.7267 -1.8212 0.9401
-3.6428 -14.7793 -1.8081 0.9405
-1.4050 -11.5712 -1.3846 0.9541
2.3856 -14.6790 -1.7665 0.9419
6.3056 -18.8877 -2.3653 0.9229
7.8026 -18.3135 -2.3646 0.9229
9.2475 -17.6196 -2.3637 0.9230
9.9474 -17.2294 -2.3632 0.9230
10.6306 -16.8110 -2.3627 0.9230
11.2962 -16.3653 -2.3621 0.9230
11.9428 -15.8930 -2.3615 0.9230
12.5696 -15.3950 -2.3608 0.9231
13.7595 -14.3251 -2.3594 0.9231
14.3187 -13.7533 -2.3584 0.9231
15.8425 -11.9049 -2.3540 0.9233
16.2982 -11.2499 -2.3524 0.9233
19.3729 -8.2540 -2.5014 0.9187
19.6896 -7.4673 -2.5014 0.9187
8.5557 -2.4782 -1.0581 0.9648
8.4561 -1.7263 -1.0252 0.9658
20.9045 -2.5383 -2.5014 0.9187
20.9897 -1.6945 -2.5014 0.9187
21.0409 -0.8479 -2.5014 0.9187
21.0580 0.0000 -2.5014 0.9187
20.9897 1.6945 -2.5014 0.9187
19.5295 3.1739 -2.3503 0.9234
19.2440 4.7432 -2.3543 0.9233
19.0374 5.5143 -2.3543 0.9233
13.5189 5.7599 -1.7455 0.9425
10.3460 5.4300 -1.3879 0.9540
9.3049 5.3721 -1.2763 0.9576
7.9484 5.4864 -1.1472 0.9618
3.0157 2.8966 -0.4967 0.9833
4.8162 5.4363 -0.8627 0.9712
4.1965 5.5844 -0.8298 0.9723
3.1011 5.3713 -0.7367 0.9753
2.8649 5.4585 -0.7323 0.9755
2.2770 5.3442 -0.6900 0.9769
2.0240 5.3367 -0.6780 0.9773
1.6750 5.7825 -0.7151 0.9760
0.6581 5.4197 -0.6485 0.9782
0.2230 5.5335 -0.6578 0.9779
-0.2152 5.3404 -0.6349 0.9787
-0.8954 5.5097 -0.6631 0.9778
-1.6060 5.5446 -0.6857 0.9770
-1.8546 5.5552 -0.6957 0.9767
-3.0230 5.2359 -0.7182 0.9759
-3.2798 5.1866 -0.7289 0.9756
-3.6511 5.2894 -0.7635 0.9744
-4.7074 5.3135 -0.8432 0.9718
-5.3897 5.6112 -0.9242 0.9691
-2.4180 2.3225 -0.3983 0.9866
-4.0015 3.2671 -0.6136 0.9794
-17.5978 12.1469 -2.5400 0.9175
-18.0726 11.4284 -2.5400 0.9175
-19.3184 9.1667 -2.5400 0.9175
-19.6718 8.3814 -2.5400 0.9175
-20.7615 5.1173 -2.5400 0.9175
-21.1060 3.4301 -2.5400 0.9175
-21.3135 1.7206 -2.5400 0.9175
-21.3655 0.8610 -2.5400 0.9175
-17.9264 0.0000 -2.5400 0.9301
-17.9119 -0.7218 -2.5400 0.9301
-17.2187 -4.9875 -2.5400 0.9301
-17.0039 -5.6767 -2.5400 0.9301
-16.7615 -6.3568 -2.5400 0.9301
-16.4920 -7.0266 -2.5400 0.9301
-16.1956 -7.6849 -2.5400 0.9301
-15.5247 -8.9632 -2.5400 0.9301
-14.7532 -10.1834 -2.5400 0.9301
-14.3312 -10.7692 -2.5400 0.9301
-13.8859 -11.3375 -2.5400 0.9301
-13.4181 -11.8874 -2.5400 0.9301
-12.4181 -12.9286 -2.5400 0.9301
-11.3375 -13.8859 -2.5400 0.9301
-10.7692 -14.3312 -2.5400 0.9301
-8.4254 -14.5932 -2.3876 0.9342
-6.4728 -15.1922 -2.3398 0.9355
-5.9761 -15.7577 -2.3879 0.9342
-5.3365 -15.9848 -2.3878 0.9342
-3.6286 -14.7218 -2.1483 0.9406
-3.0038 -14.7134 -2.1277 0.9411
-1.4045 -11.5668 -1.6509 0.9540
-1.1898 -14.7385 -2.0951 0.9420
0.5927 -14.7088 -2.0858 0.9423
1.1820 -14.6415 -2.0813 0.9424
1.7836 -14.6890 -2.0966 0.9420
2.9873 -14.6327 -2.1161 0.9414
5.2769 -15.8064 -2.3611 0.9349
7.7396 -14.7466 -2.3597 0.9349
8.8967 -14.0690 -2.3585 0.9350
9.9920 -13.2970 -2.3567 0.9350
10.5149 -12.8784 -2.3557 0.9350
11.0200 -12.4390 -2.3546 0.9351
11.5065 -11.9796 -2.3535 0.9351
12.4208 -11.0039 -2.3512 0.9352
13.2536 -9.9594 -2.3490 0.9352
14.9210 -9.4355 -2.5014 0.9312
15.2889 -8.8270 -2.5014 0.9312
15.6319 -8.2043 -2.5014 0.9312
15.9496 -7.5682 -2.5014 0.9312
16.2414 -6.9198 -2.5014 0.9312
7.5762 -1.8674 -1.1056 0.9690
7.6621 -1.5642 -1.1080 0.9689
17.6541 0.0000 -2.5014 0.9312
17.6398 0.7109 -2.5014 0.9312
17.5254 2.1280 -2.5014 0.9312
16.3680 2.6601 -2.3496 0.9352
16.2598 3.3195 -2.3514 0.9352
14.8752 5.6414 -2.2541 0.9378
13.4554 5.7328 -2.0723 0.9426
9.3463 5.3961 -1.5291 0.9573
7.3685 5.5371 -1.3060 0.9634
3.1031 2.7491 -0.5874 0.9834
5.3264 5.5453 -1.0895 0.9694
4.4848 5.4929 -1.0048 0.9718
4.2034 5.5937 -0.9914 0.9721
3.9494 5.7216 -0.9851 0.9723
3.4743 5.4942 -0.9211 0.9741
3.0300 5.2479 -0.8586 0.9758
1.6281 5.6209 -0.8292 0.9766
1.3619 5.5253 -0.8063 0.9773
1.0908 5.3428 -0.7726 0.9782
0.6419 5.2862 -0.7545 0.9787
0.4563 5.6517 -0.8034 0.9774
0.2196 5.4481 -0.7726 0.9782
0.0000 5.5114 -0.7809 0.9780
-0.6590 5.4275 -0.7747 0.9782
-0.8893 5.4720 -0.7855 0.9779
-1.0795 5.2876 -0.7647 0.9784
-1.3086 5.3091 -0.7748 0.9782
-1.9985 5.2696 -0.7985 0.9775
-2.2198 5.2100 -0.8024 0.9774
-2.5275 5.3267 -0.8354 0.9765
-2.8841 5.4952 -0.8793 0.9752
-3.0305 5.2490 -0.8588 0.9758
-3.8227 5.5381 -0.9535 0.9732
-4.1771 5.5587 -0.9852 0.9723
-4.3322 5.3059 -0.9706 0.9727
-4.6118 5.2056 -0.9854 0.9723
-4.0015 3.2671 -0.7320 0.9793
-14.7532 10.1834 -2.5400 0.9301
-15.5247 8.9632 -2.5400 0.9301
-15.8731 8.3308 -2.5400 0.9301
-16.7615 6.3568 -2.5400 0.9301
-17.2187 4.9874 -2.5400 0.9301
-17.4055 4.2901 -2.5400 0.9301
-17.5642 3.5858 -2.5400 0.9301
-17.6943 2.8756 -2.5400 0.9301
-15.4182 0.0000 -2.5400 0.9394
-15.4057 -0.6208 -2.5400 0.9394
-15.3682 -1.2406 -2.5400 0.9394
-15.3058 -1.8585 -2.5400 0.9394
-15.2186 -2.4733 -2.5400 0.9394
-14.4163 -5.4674 -2.5400 0.9394
-14.1844 -6.0434 -2.5400 0.9394
-13.9296 -6.6096 -2.5400 0.9394
-13.3526 -7.7091 -2.5400 0.9394
-12.3260 -9.2624 -2.5400 0.9394
-11.9430 -9.7512 -2.5400 0.9394
-10.6806 -11.1197 -2.5400 0.9394
-9.7512 -11.9430 -2.5400 0.9394
-9.2512 -12.3112 -2.5369 0.9395
-7.6538 -12.1035 -2.3591 0.9436
-7.1552 -12.3932 -2.3575 0.9436
-5.5892 -13.1185 -2.3491 0.9438
-4.5301 -13.5693 -2.3567 0.9437
-3.9808 -13.7434 -2.3571 0.9436
-3.4248 -13.8948 -2.3575 0.9436
-1.4039 -11.5625 -1.9188 0.9539
-1.1520 -14.2703 -2.3585 0.9436
-0.5765 -14.3057 -2.3586 0.9436
0.0000 -14.3176 -2.3587 0.9436
0.5765 -14.3059 -2.3587 0.9436
1.1521 -14.2706 -2.3586 0.9436
2.8631 -14.0243 -2.3580 0.9436
3.9812 -13.7446 -2.3573 0.9436
4.5306 -13.5707 -2.3569 0.9437
6.1292 -12.9171 -2.3554 0.9437
6.6426 -12.6565 -2.3547 0.9437
7.6350 -12.0737 -2.3533 0.9437
9.0252 -11.0539 -2.3509 0.9438
9.4593 -10.6774 -2.3500 0.9438
9.8776 -10.2837 -2.3490 0.9438
10.4784 -10.0646 -2.3935 0.9428
11.2916 -10.0035 -2.4852 0.9407
11.7616 -9.6030 -2.5014 0.9403
12.8333 -8.1153 -2.5014 0.9403
13.1497 -7.5920 -2.5014 0.9403
13.4447 -7.0563 -2.5014 0.9403
14.1973 -5.3843 -2.5014 0.9403
7.1795 -2.0796 -1.2314 0.9702
9.8298 -1.1936 -1.6313 0.9607
15.1347 -1.2218 -2.5014 0.9403
15.1717 -0.6114 -2.5014 0.9403
15.1840 0.0000 -2.5014 0.9403
15.1717 0.6114 -2.5014 0.9403
14.0745 2.2873 -2.3490 0.9438
13.5341 2.7630 -2.2756 0.9455
13.7227 3.9748 -2.3536 0.9437
13.3625 5.0678 -2.3543 0.9437
12.0068 5.6973 -2.1894 0.9475
10.3549 5.4347 -1.9265 0.9537
3.0143 2.8952 -0.6885 0.9832
4.8095 5.4288 -1.1948 0.9710
4.4746 5.4804 -1.1655 0.9717
4.2317 5.6314 -1.1604 0.9718
3.9156 5.6726 -1.1355 0.9724
3.4395 5.4390 -1.0601 0.9742
3.1175 5.3996 -1.0271 0.9750
2.9078 5.5403 -1.0308 0.9750
2.6111 5.5028 -1.0034 0.9756
2.2989 5.3957 -0.9662 0.9765
2.0279 5.3470 -0.9421 0.9771
1.8012 5.3951 -0.9370 0.9772
1.6429 5.6720 -0.9728 0.9763
1.3779 5.5899 -0.9484 0.9769
0.8536 5.2521 -0.8766 0.9787
0.6444 5.3069 -0.8807 0.9786
0.4431 5.4882 -0.9071 0.9779
0.2247 5.5756 -0.9193 0.9776
0.0000 5.3684 -0.8844 0.9785
-0.2142 5.3153 -0.8764 0.9787
-0.4284 5.3075 -0.8772 0.9786
-1.0755 5.2681 -0.8858 0.9784
-1.3059 5.2982 -0.8989 0.9781
-2.2269 5.2268 -0.9360 0.9772
-2.5175 5.3055 -0.9674 0.9765
-3.2095 5.0755 -0.9893 0.9759
-3.6271 5.2548 -1.0519 0.9744
-4.6735 5.2753 -1.1610 0.9718
-5.3466 5.5663 -1.2715 0.9692
-5.7362 5.0818 -1.2625 0.9694
-12.3260 9.2624 -2.5400 0.9394
-12.6889 8.7586 -2.5400 0.9394
-13.0313 8.2405 -2.5400 0.9394
-13.6521 7.1652 -2.5400 0.9394
-13.9296 6.6097 -2.5400 0.9394
-14.4163 5.4674 -2.5400 0.9394
-14.8095 4.2896 -2.5400 0.9394
-15.1066 3.0841 -2.5400 0.9394
-15.2186 2.4733 -2.5400 0.9394
-15.3058 1.8585 -2.5400 0.9394
-15.3682 1.2407 -2.5400 0.9394
-15.4057 0.6208 -2.5400 0.9394
-13.4696 -1.0874 -2.5400 0.9465
-13.4148 -1.6289 -2.5400 0.9465
-12.9798 -3.7597 -2.5400 0.9465
-12.8179 -4.2793 -2.5400 0.9465
-12.2087 -5.7931 -2.5400 0.9465
-11.9655 -6.2800 -2.5400 0.9465
-11.4214 -7.2224 -2.5400 0.9465
-11.1213 -7.6765 -2.5400 0.9465
-10.1149 -8.9610 -2.5400 0.9465
-8.0185 -10.6707 -2.5088 0.9471
-7.5668 -10.9624 -2.5037 0.9472
-6.2486 -10.8229 -2.3490 0.9504
-5.8078 -11.0658 -2.3490 0.9504
-5.3575 -11.2907 -2.3490 0.9504
-4.8985 -11.4972 -2.3490 0.9504
-2.9959 -12.1546 -2.3530 0.9503
0.0000 -12.5239 -2.3540 0.9503
0.5043 -12.5137 -2.3540 0.9503
1.5095 -12.4316 -2.3538 0.9503
2.0087 -12.3599 -2.3537 0.9503
2.5045 -12.2679 -2.3534 0.9503
2.9961 -12.1558 -2.3532 0.9503
4.9040 -11.5102 -2.3516 0.9504
5.8117 -11.0733 -2.3506 0.9504
6.2513 -10.8276 -2.3500 0.9504
7.0993 -10.2850 -2.3490 0.9504
7.6633 -10.1980 -2.3977 0.9494
8.2942 -10.1586 -2.4650 0.9480
8.8249 -9.9612 -2.5014 0.9473
9.5978 -9.2188 -2.5014 0.9473
10.3085 -8.4166 -2.5014 0.9473
10.6390 -7.9947 -2.5014 0.9473
11.2478 -7.1127 -2.5014 0.9473
11.5251 -6.6540 -2.5014 0.9473
11.7837 -6.1846 -2.5014 0.9473
12.0232 -5.7051 -2.5014 0.9473
6.8296 -1.9782 -1.3365 0.9715
6.8788 -1.6955 -1.3316 0.9716
7.1570 -1.1631 -1.3629 0.9709
9.2429 -1.1223 -1.7501 0.9628
13.2649 -1.0708 -2.5014 0.9473
13.2973 -0.5358 -2.5014 0.9473
13.3081 0.0000 -2.5014 0.9473
13.2973 0.5359 -2.5014 0.9473
13.2110 1.6041 -2.5014 0.9473
12.3354 2.0047 -2.3490 0.9504
12.2495 2.5008 -2.3499 0.9504
12.0221 3.4822 -2.3526 0.9503
11.8788 3.9657 -2.3539 0.9503
11.5233 4.9096 -2.3543 0.9503
9.9016 5.7167 -2.1490 0.9545
8.0184 5.5347 -1.8313 0.9611
3.1016 2.7478 -0.7789 0.9833
5.3140 5.5324 -1.4419 0.9693
3.4639 5.4777 -1.2182 0.9740
2.5812 5.4397 -1.1317 0.9758
2.2762 5.3424 -1.0915 0.9766
2.0358 5.3679 -1.0791 0.9769
1.6291 5.6243 -1.1006 0.9764
1.0909 5.3434 -1.0251 0.9780
0.8664 5.3309 -1.0152 0.9783
0.2227 5.5256 -1.0394 0.9777
-0.6475 5.3327 -1.0097 0.9784
-1.0667 5.2250 -1.0024 0.9785
-1.2966 5.2606 -1.0184 0.9782
-1.5708 5.4230 -1.0612 0.9773
-2.5104 5.2906 -1.1007 0.9764
-2.8439 5.4185 -1.1502 0.9754
-3.0195 5.2298 -1.1351 0.9757
-3.7778 5.4731 -1.2500 0.9733
-4.6434 5.2413 -1.3162 0.9719
-5.2802 5.4972 -1.4327 0.9695
-2.4180 2.3225 -0.6302 0.9864
-9.8395 8.0337 -2.3876 0.9496
-10.1550 7.6310 -2.3876 0.9496
-11.4214 7.2224 -2.5400 0.9465
-11.7029 6.7567 -2.5400 0.9465
-12.4320 5.2968 -2.5400 0.9465
-12.8179 4.2793 -2.5400 0.9465
-13.2403 2.7030 -2.5400 0.9465
-13.3384 2.1677 -2.5400 0.9465
-13.4695 1.0874 -2.5400 0.9465
-13.5024 0.5441 -2.5400 0.9465
-12.0065 -0.4838 -2.5400 0.9521
-11.7734 -2.4036 -2.5400 0.9521
-11.2353 -4.2610 -2.5400 0.9521
-11.0547 -4.7100 -2.5400 0.9521
-10.6398 -5.5842 -2.5400 0.9521
-10.1560 -6.4223 -2.5400 0.9521
-9.8891 -6.8260 -2.5400 0.9521
-9.6055 -7.2181 -2.5398 0.9521
-9.2913 -7.5867 -2.5355 0.9521
-8.9514 -7.9302 -2.5279 0.9523
-8.5977 -8.2583 -2.5199 0.9524
-8.2350 -8.5735 -2.5128 0.9526
-4.9663 -10.4663 -2.4488 0.9537
-3.5190 -10.5408 -2.3490 0.9556
-3.0919 -10.6744 -2.3491 0.9556
-2.6599 -10.7917 -2.3494 0.9556
-1.7833 -10.9730 -2.3499 0.9556
-0.8947 -11.0824 -2.3502 0.9556
-0.4477 -11.1098 -2.3503 0.9556
0.0000 -11.1190 -2.3503 0.9556
1.7834 -10.9737 -2.3501 0.9556
2.2236 -10.8921 -2.3499 0.9556
3.0922 -10.6756 -2.3494 0.9556
3.5191 -10.5410 -2.3490 0.9556
3.9406 -10.3905 -2.3490 0.9556
4.3996 -10.3262 -2.3726 0.9551
5.3935 -10.2765 -2.4533 0.9537
5.9168 -10.2483 -2.5014 0.9528
6.3247 -10.0017 -2.5014 0.9528
6.7223 -9.7389 -2.5014 0.9528
7.1090 -9.4603 -2.5014 0.9528
8.5345 -8.1975 -2.5014 0.9528
9.7389 -6.7223 -2.5014 0.9528
10.0017 -6.3247 -2.5014 0.9528
10.2482 -5.9168 -2.5014 0.9528
10.8867 -4.6384 -2.5014 0.9528
6.4528 -2.1543 -1.4380 0.9726
6.4983 -1.6017 -1.4147 0.9730
6.8468 -1.1127 -1.4663 0.9720
11.7953 -0.9522 -2.5014 0.9528
11.7474 1.4264 -2.5014 0.9528
10.8900 2.2232 -2.3494 0.9556
10.7970 2.6612 -2.3506 0.9556
10.6864 3.0954 -2.3518 0.9555
10.5584 3.5249 -2.3529 0.9555
10.4130 3.9491 -2.3541 0.9555
9.8621 5.1760 -2.3543 0.9555
9.4202 5.4387 -2.2993 0.9565
8.7873 5.5567 -2.1977 0.9584
7.9325 5.4754 -2.0374 0.9614
7.4103 5.5685 -1.9593 0.9628
5.3074 5.5255 -1.6195 0.9692
4.7697 5.3838 -1.5204 0.9710
3.0598 5.2996 -1.2935 0.9753
2.6364 5.5561 -1.3000 0.9752
2.0561 5.4215 -1.2256 0.9766
1.8005 5.3931 -1.2019 0.9770
1.1052 5.4133 -1.1679 0.9777
0.8634 5.3127 -1.1377 0.9782
0.4445 5.5052 -1.1675 0.9777
0.0000 5.4136 -1.1443 0.9781
-0.2173 5.3923 -1.1407 0.9782
-0.4320 5.3518 -1.1350 0.9783
-0.6693 5.5121 -1.1737 0.9776
-1.6133 5.5696 -1.2257 0.9766
-1.9521 5.1473 -1.1636 0.9777
-2.5236 5.3183 -1.2443 0.9762
-2.8884 5.5033 -1.3138 0.9749
-3.6911 5.3474 -1.3735 0.9738
-4.3103 5.2791 -1.4406 0.9725
-5.7419 5.0868 -1.6215 0.9691
-9.7819 5.6476 -2.3876 0.9549
-10.8560 5.1512 -2.5400 0.9521
-11.0547 4.7099 -2.5400 0.9521
-11.2353 4.2610 -2.5400 0.9521
-11.3978 3.8051 -2.5400 0.9521
-11.5418 3.3431 -2.5400 0.9521
-11.7734 2.4035 -2.5400 0.9521
-11.8606 1.9275 -2.5400 0.9521
-11.9772 0.9669 -2.5400 0.9521
-10.7986 -0.4352 -2.5400 0.9566
-10.7723 -0.8696 -2.5400 0.9566
-10.7286 -1.3027 -2.5400 0.9566
-10.5890 -2.1618 -2.5400 0.9566
-10.3807 -3.0068 -2.5400 0.9566
-10.2512 -3.4224 -2.5400 0.9566
-10.1051 -3.8323 -2.5400 0.9566
-9.9426 -4.2361 -2.5400 0.9566
-8.5709 -6.4406 -2.5197 0.9569
-7.3793 -7.6826 -2.5036 0.9572
-7.0619 -7.9712 -2.5029 0.9572
-6.7344 -8.2481 -2.5026 0.9572
-5.6890 -8.9964 -2.5016 0.9572
-5.3216 -9.2173 -2.5014 0.9572
-4.5627 -9.6156 -2.5014 0.9572
-4.1718 -9.7915 -2.5014 0.9572
-3.3704 -10.0955 -2.5014 0.9572
-2.9611 -10.2230 -2.5014 0.9572
-2.5471 -10.3339 -2.5014 0.9572
-2.1289 -10.4281 -2.5014 0.9572
-1.2666 -10.4312 -2.4696 0.9577
-0.8418 -10.4281 -2.4588 0.9579
1.2617 -10.3914 -2.4602 0.9579
1.6871 -10.3809 -2.4718 0.9577
2.1168 -10.3687 -2.4871 0.9574
3.3704 -10.0955 -2.5014 0.9572
4.5627 -9.6156 -2.5014 0.9572
5.3216 -9.2173 -2.5014 0.9572
5.6884 -8.9955 -2.5014 0.9572
6.0460 -8.7592 -2.5014 0.9572
6.3938 -8.5086 -2.5014 0.9572
6.7312 -8.2443 -2.5014 0.9572
7.0577 -7.9666 -2.5014 0.9572
7.3728 -7.6759 -2.5014 0.9572
7.6759 -7.3728 -2.5014 0.9572
7.9665 -7.0578 -2.5014 0.9572
8.2443 -6.7312 -2.5014 0.9572
9.2173 -5.3216 -2.5014 0.9572
9.4241 -4.9461 -2.5014 0.9572
9.6156 -4.5627 -2.5014 0.9572
6.3953 -2.4254 -1.6075 0.9723
6.3672 -2.1257 -1.5776 0.9728
6.4228 -1.5831 -1.5547 0.9732
6.4938 -1.3257 -1.5577 0.9731
6.6551 -1.0816 -1.5846 0.9727
10.6087 -0.8564 -2.5014 0.9572
10.6346 -0.4286 -2.5014 0.9572
10.6432 -0.0000 -2.5014 0.9572
10.6087 0.8564 -2.5014 0.9572
10.5054 1.7073 -2.5014 0.9572
9.8097 2.0027 -2.3530 0.9597
9.7086 2.3929 -2.3500 0.9597
9.6086 2.7832 -2.3511 0.9597
9.4930 3.1692 -2.3521 0.9597
9.0503 4.2944 -2.3543 0.9597
8.8700 4.6553 -2.3543 0.9597
8.6754 5.0087 -2.3543 0.9597
8.4666 5.3540 -2.3543 0.9597
3.3304 2.7192 -1.0105 0.9825
3.1001 2.7465 -0.9734 0.9831
4.1845 5.5686 -1.6371 0.9718
3.9484 5.7202 -1.6335 0.9718
3.0970 5.3642 -1.4557 0.9749
2.8571 5.4437 -1.4449 0.9751
2.5945 5.4678 -1.4224 0.9754
2.3092 5.4198 -1.3846 0.9761
2.0093 5.2981 -1.3317 0.9770
1.6370 5.6516 -1.3829 0.9761
1.3518 5.4842 -1.3275 0.9771
1.1012 5.3936 -1.2938 0.9776
0.6422 5.2885 -1.2521 0.9783
0.4475 5.5432 -1.3070 0.9774
-0.2168 5.3795 -1.2653 0.9781
-0.4284 5.3075 -1.2515 0.9784
-0.6516 5.3665 -1.2705 0.9780
-1.0776 5.2785 -1.2662 0.9781
-1.3054 5.2964 -1.2820 0.9778
-1.6027 5.5332 -1.3539 0.9766
-1.8043 5.4045 -1.3391 0.9769
-2.0178 5.3204 -1.3373 0.9769
-2.2356 5.2471 -1.3404 0.9768
-2.5237 5.3186 -1.3836 0.9761
-2.8820 5.4911 -1.4575 0.9748
-3.3021 5.2218 -1.4520 0.9749
-3.7501 5.4330 -1.5515 0.9732
-4.3319 5.3056 -1.6098 0.9722
-2.4180 2.3225 -0.7880 0.9863
-5.7374 5.0828 -1.8014 0.9690
-7.8692 6.4250 -2.3876 0.9591
-8.3606 5.7709 -2.3876 0.9591
-8.5862 5.4296 -2.3876 0.9591
-9.1781 4.3551 -2.3876 0.9591
-9.3460 3.9820 -2.3876 0.9591
-10.2512 3.4223 -2.5400 0.9566
-10.3807 3.0068 -2.5400 0.9566
-10.4933 2.5864 -2.5400 0.9566
-10.5890 2.1618 -2.5400 0.9566
-10.6674 1.7336 -2.5400 0.9566
-10.7286 1.3027 -2.5400 0.9566
-10.7723 0.8696 -2.5400 0.9566
-10.7986 0.4352 -2.5400 0.9566
-9.8008 -0.3951 -2.5397 0.9603
-9.7769 -0.7893 -2.5396 0.9603
-9.6062 -1.9611 -2.5385 0.9603
-9.4083 -2.7249 -2.5361 0.9603
-9.2851 -3.0998 -2.5345 0.9604
-8.9858 -3.8285 -2.5290 0.9604
-8.8118 -4.1813 -2.5254 0.9605
-8.6222 -4.5253 -2.5212 0.9606
-8.4196 -4.8610 -2.5172 0.9606
-8.2062 -5.1893 -2.5139 0.9607
-6.6967 -6.9721 -2.5030 0.9608
-6.1126 -7.4866 -2.5025 0.9609
-5.8056 -7.7258 -2.5022 0.9609
-5.1639 -8.1661 -2.5016 0.9609
-4.8305 -8.3667 -2.5014 0.9609
-4.4897 -8.5544 -2.5014 0.9609
-3.7868 -8.8879 -2.5014 0.9609
-3.4258 -9.0332 -2.5014 0.9609
-3.0593 -9.1638 -2.5014 0.9609
-2.3120 -9.3802 -2.5014 0.9609
-1.5497 -9.5359 -2.5014 0.9609
1.1645 -9.5905 -2.5014 0.9609
1.9324 -9.4657 -2.5014 0.9609
2.6879 -9.2795 -2.5014 0.9609
3.7868 -8.8879 -2.5014 0.9609
5.4881 -7.9508 -2.5014 0.9609
5.8038 -7.7234 -2.5014 0.9609
6.1100 -7.4834 -2.5014 0.9609
6.6924 -6.9675 -2.5014 0.9609
7.2313 -6.4064 -2.5014 0.9609
7.7234 -5.8038 -2.5014 0.9609
7.9508 -5.4881 -2.5014 0.9609
8.3666 -4.8305 -2.5014 0.9609
6.5381 -2.7856 -1.8401 0.9711
6.3128 -2.3941 -1.7481 0.9725
6.3061 -1.8266 -1.6999 0.9732
6.3503 -1.5652 -1.6934 0.9733
6.4142 -1.3095 -1.6950 0.9733
6.5445 -1.0636 -1.7167 0.9730
7.0017 -0.8502 -1.8262 0.9713
9.6296 -0.7774 -2.5014 0.9609
9.6531 -0.3890 -2.5014 0.9609
9.6610 -0.0000 -2.5014 0.9609
9.6531 0.3890 -2.5014 0.9609
9.6296 0.7774 -2.5014 0.9609
9.5905 1.1645 -2.5014 0.9609
8.8890 1.8147 -2.3490 0.9632
8.7198 2.5257 -2.3505 0.9632
8.3617 3.5626 -2.3533 0.9631
7.6853 4.8599 -2.3543 0.9631
7.4834 5.1654 -2.3543 0.9631
7.2693 5.4625 -2.3543 0.9631
3.3291 2.7181 -1.1128 0.9824
3.0114 2.8925 -1.0811 0.9829
5.2828 5.5000 -1.9745 0.9690
4.7443 5.3552 -1.8524 0.9709
4.4450 5.4441 -1.8197 0.9714
3.4475 5.4517 -1.6701 0.9737
3.1082 5.3834 -1.6095 0.9746
2.6006 5.4806 -1.5707 0.9752
2.2896 5.3737 -1.5124 0.9762
2.0084 5.2958 -1.4665 0.9769
1.7858 5.3492 -1.4602 0.9770
1.6212 5.5969 -1.5087 0.9762
1.3697 5.5570 -1.4819 0.9766
1.1006 5.3909 -1.4246 0.9775
0.6539 5.3849 -1.4045 0.9778
0.2205 5.4717 -1.4179 0.9776
-0.4352 5.3912 -1.4004 0.9779
-0.6818 5.6150 -1.4645 0.9769
-0.8728 5.3704 -1.4087 0.9778
-1.6175 5.5842 -1.5053 0.9763
-2.0111 5.3028 -1.4684 0.9768
-2.2428 5.2641 -1.4815 0.9766
-2.5235 5.3183 -1.5241 0.9760
-2.8564 5.4423 -1.5914 0.9749
-3.2478 5.1359 -1.5734 0.9752
-3.6438 5.2790 -1.6608 0.9738
-4.6983 5.3032 -1.8345 0.9711
-5.3280 5.5469 -1.9914 0.9687
-5.7507 5.0946 -1.9892 0.9688
-7.1429 5.8320 -2.3876 0.9626
-7.3720 5.5397 -2.3876 0.9626
-7.5891 5.2383 -2.3876 0.9626
-7.7938 4.9285 -2.3876 0.9626
-8.7196 2.9110 -2.3802 0.9627
-9.4125 2.7264 -2.5372 0.9603
-9.5186 2.3461 -2.5383 0.9603
-9.6074 1.9614 -2.5388 0.9603
-9.6802 1.5732 -2.5393 0.9603
-9.7774 0.7893 -2.5398 0.9603
-9.8011 0.3950 -2.5397 0.9603
-8.9243 -0.3595 -2.5284 0.9636
-8.9006 -0.7185 -2.5279 0.9636
-8.8613 -1.0760 -2.5270 0.9636
-8.6513 -2.1324 -2.5224 0.9636
-8.5513 -2.4769 -2.5203 0.9637
-8.1679 -3.4800 -2.5134 0.9638
-7.8467 -4.1183 -2.5087 0.9638
-6.8505 -5.5932 -2.5036 0.9639
-6.6191 -5.8640 -2.5034 0.9639
-6.3769 -6.1251 -2.5031 0.9639
-5.8622 -6.6171 -2.5026 0.9639
-5.5904 -6.8471 -2.5024 0.9639
-5.3097 -7.0659 -2.5021 0.9639
-4.7225 -7.4680 -2.5014 0.9639
-4.4180 -7.6521 -2.5014 0.9639
-4.1063 -7.8239 -2.5014 0.9639
-3.7879 -7.9828 -2.5014 0.9639
-3.4634 -8.1289 -2.5014 0.9639
-2.7981 -8.3812 -2.5014 0.9639
-2.4583 -8.4871 -2.5014 0.9639
-1.7674 -8.6574 -2.5014 0.9639
-1.4174 -8.7215 -2.5014 0.9639
-1.0651 -8.7715 -2.5014 0.9639
-0.7110 -8.8073 -2.5014 0.9639
-0.3558 -8.8288 -2.5014 0.9639
0.0000 -8.8360 -2.5014 0.9639
0.7110 -8.8073 -2.5014 0.9639
2.4583 -8.4871 -2.5014 0.9639
2.7981 -8.3812 -2.5014 0.9639
3.1333 -8.2617 -2.5014 0.9639
4.1063 -7.8238 -2.5014 0.9639
4.4180 -7.6522 -2.5014 0.9639
4.7225 -7.4680 -2.5014 0.9639
5.0194 -7.2718 -2.5014 0.9639
5.5882 -6.8444 -2.5014 0.9639
5.8593 -6.6138 -2.5014 0.9639
6.1209 -6.3725 -2.5014 0.9639
6.3725 -6.1209 -2.5014 0.9639
6.6138 -5.8593 -2.5014 0.9639
6.8444 -5.5883 -2.5014 0.9639
7.0638 -5.3081 -2.5014 0.9639
7.4681 -4.7225 -2.5014 0.9639
7.6522 -4.4180 -2.5014 0.9639
7.9828 -3.7879 -2.5014 0.9639
6.2579 -2.3733 -1.8947 0.9726
6.2288 -2.0795 -1.8590 0.9731
6.2388 -1.8071 -1.8388 0.9734
6.4881 -1.0544 -1.8608 0.9730
6.9186 -0.8401 -1.9730 0.9714
8.8288 0.3558 -2.5014 0.9639
8.6337 1.7626 -2.4946 0.9640
8.0571 1.9859 -2.3492 0.9661
7.7675 2.9458 -2.3517 0.9661
7.5106 3.5638 -2.3534 0.9660
7.3636 3.8647 -2.3542 0.9660
7.0290 4.4449 -2.3543 0.9660
6.8443 4.7243 -2.3543 0.9660
3.0986 2.7452 -1.1719 0.9829
4.8097 5.4289 -2.0533 0.9703
4.4886 5.4975 -2.0092 0.9709
4.1613 5.5376 -1.9610 0.9716
3.9160 5.6733 -1.9515 0.9717
3.4837 5.5089 -1.8452 0.9733
3.0636 5.3062 -1.7346 0.9748
2.5953 5.4695 -1.7138 0.9751
2.2953 5.3872 -1.6578 0.9760
1.8099 5.4211 -1.6180 0.9765
1.6102 5.5589 -1.6384 0.9762
1.3536 5.4917 -1.6012 0.9768
0.0000 5.3554 -1.5161 0.9780
-0.2141 5.3131 -1.5053 0.9781
-0.4305 5.3326 -1.5145 0.9780
-1.2805 5.1954 -1.5148 0.9780
-1.5952 5.5074 -1.6232 0.9764
-1.8186 5.4474 -1.6258 0.9764
-1.9820 5.2261 -1.5823 0.9770
-2.2141 5.1967 -1.5991 0.9768
-3.0561 5.2934 -1.7303 0.9749
-4.1095 5.4686 -1.9365 0.9720
-4.3428 5.3189 -1.9439 0.9719
-5.3748 5.5957 -2.1965 0.9683
-5.7580 5.1011 -2.1777 0.9685
-6.7231 5.0521 -2.3807 0.9656
-7.2749 4.2002 -2.3781 0.9657
-7.5792 3.5963 -2.3749 0.9657
-7.7081 3.2841 -2.3719 0.9658
-7.8250 2.9676 -2.3692 0.9658
-8.0252 2.3245 -2.3653 0.9659
-8.7395 1.7842 -2.5251 0.9636
-8.8089 1.4316 -2.5265 0.9636
-8.9017 0.7186 -2.5282 0.9636
-8.1739 0.0000 -2.5141 0.9664
-8.0629 -1.3104 -2.5125 0.9664
-8.0000 -1.6332 -2.5114 0.9664
-7.9234 -1.9529 -2.5100 0.9664
-7.7343 -2.5821 -2.5080 0.9665
-7.6190 -2.8895 -2.5063 0.9665
-7.4924 -3.1922 -2.5049 0.9665
-7.2100 -3.7841 -2.5045 0.9665
-6.6997 -4.6245 -2.5039 0.9665
-6.3047 -5.1476 -2.5035 0.9665
-6.0918 -5.3968 -2.5032 0.9665
-5.8690 -5.6372 -2.5030 0.9665
-5.3954 -6.0901 -2.5025 0.9665
-5.1436 -6.2998 -2.5015 0.9665
-4.8856 -6.5015 -2.5014 0.9665
-4.3466 -6.8735 -2.5014 0.9665
-4.0663 -7.0430 -2.5014 0.9665
-3.7794 -7.2010 -2.5014 0.9665
-2.8838 -7.6041 -2.5014 0.9665
-1.3046 -8.0272 -2.5014 0.9665
-0.6544 -8.1062 -2.5014 0.9665
0.0000 -8.1325 -2.5014 0.9665
0.3275 -8.1259 -2.5014 0.9665
0.9803 -8.0733 -2.5014 0.9665
1.3045 -8.0272 -2.5014 0.9665
2.2626 -7.8115 -2.5014 0.9665
2.5753 -7.7140 -2.5014 0.9665
2.8838 -7.6041 -2.5014 0.9665
3.4864 -7.3474 -2.5014 0.9665
4.0663 -7.0430 -2.5014 0.9665
4.3466 -6.8735 -2.5014 0.9665
5.1434 -6.2995 -2.5014 0.9665
5.3929 -6.0873 -2.5014 0.9665
5.8652 -5.6336 -2.5014 0.9665
6.5015 -4.8856 -2.5014 0.9665
7.0430 -4.0663 -2.5014 0.9665
7.2010 -3.7794 -2.5014 0.9665
6.4046 -2.7287 -2.1413 0.9713
8.1062 -0.6544 -2.5014 0.9665
8.1325 -0.0000 -2.5014 0.9665
8.1260 0.3275 -2.5014 0.9665
8.0732 0.9803 -2.5014 0.9665
7.9682 1.6267 -2.5014 0.9665
7.4151 1.8277 -2.3490 0.9685
7.2484 2.4199 -2.3504 0.9685
6.9107 3.2792 -2.3527 0.9685
6.6286 3.8270 -2.3542 0.9685
6.2994 4.3482 -2.3543 0.9685
3.0979 2.7445 -1.2730 0.9828
3.0099 2.8910 -1.2836 0.9827
3.1044 3.2320 -1.3784 0.9814
4.5418 5.5626 -2.2088 0.9704
3.4592 5.4701 -1.9907 0.9733
2.8755 5.4788 -1.9032 0.9744
2.0440 5.3896 -1.7729 0.9762
1.6373 5.6526 -1.8101 0.9757
1.3737 5.5731 -1.7655 0.9763
0.8670 5.3348 -1.6624 0.9776
0.4513 5.5897 -1.7249 0.9768
0.2205 5.4704 -1.6840 0.9773
-0.2175 5.3975 -1.6615 0.9776
-0.4355 5.3950 -1.6648 0.9776
-0.6754 5.5630 -1.7236 0.9768
-0.8670 5.3346 -1.6623 0.9776
-1.3059 5.2981 -1.6784 0.9774
-1.5666 5.4085 -1.7319 0.9767
-1.8152 5.4371 -1.7631 0.9763
-2.0091 5.2975 -1.7427 0.9766
-2.5168 5.3040 -1.8058 0.9757
-3.3040 5.2249 -1.9014 0.9745
-3.8223 5.5375 -2.0696 0.9722
-5.3024 5.5204 -2.3543 0.9685
-2.4180 2.3225 -1.0312 0.9861
-5.9172 4.8312 -2.3496 0.9685
-6.1220 4.6004 -2.3554 0.9685
-6.4761 4.0952 -2.3568 0.9684
-6.7862 3.5617 -2.3573 0.9684
-7.1621 2.7162 -2.3560 0.9685
-7.3511 2.1293 -2.3540 0.9685
-7.9997 1.6331 -2.5113 0.9664
-8.0626 1.3103 -2.5124 0.9664
-8.1469 0.6577 -2.5140 0.9664
-8.1675 0.3291 -2.5142 0.9664
-7.5330 -0.3036 -2.5060 0.9687
-7.4403 -1.2092 -2.5056 0.9687
-7.1482 -2.3864 -2.5050 0.9687
-7.0458 -2.6721 -2.5049 0.9687
-6.8070 -3.2300 -2.5045 0.9687
-6.5240 -3.7667 -2.5041 0.9687
-6.3666 -4.0260 -2.5039 0.9687
-6.1988 -4.2787 -2.5037 0.9687
-6.0210 -4.5245 -2.5035 0.9688
-5.8335 -4.7629 -2.5033 0.9688
-5.6359 -4.9930 -2.5028 0.9688
-5.4275 -5.2132 -2.5016 0.9688
-4.2748 -6.1931 -2.5014 0.9688
-3.7626 -6.5170 -2.5014 0.9688
-3.2260 -6.7986 -2.5014 0.9688
-1.8009 -7.3065 -2.5014 0.9688
-1.5052 -7.3730 -2.5014 0.9688
-0.9071 -7.4703 -2.5014 0.9688
-0.6055 -7.5007 -2.5014 0.9688
-0.3030 -7.5190 -2.5014 0.9688
0.9071 -7.4703 -2.5014 0.9688
1.5052 -7.3730 -2.5014 0.9688
1.8009 -7.3065 -2.5014 0.9688
2.0936 -7.2280 -2.5014 0.9688
2.9496 -6.9230 -2.5014 0.9688
3.2260 -6.7986 -2.5014 0.9688
3.4971 -6.6632 -2.5014 0.9688
4.0219 -6.3602 -2.5014 0.9688
4.5207 -6.0159 -2.5014 0.9688
5.2128 -5.4271 -2.5014 0.9688
5.6326 -4.9901 -2.5014 0.9688
5.8290 -4.7592 -2.5014 0.9688
6.0159 -4.5207 -2.5014 0.9688
6.1931 -4.2748 -2.5014 0.9688
6.3602 -4.0219 -2.5014 0.9688
6.7727 -2.8856 -2.4471 0.9694
7.0361 -2.6685 -2.5014 0.9688
6.2242 -1.8029 -2.1540 0.9731
6.2760 -1.5469 -2.1486 0.9731
6.3147 -1.2892 -2.1423 0.9732
6.4137 -1.0423 -2.1599 0.9730
6.9209 -0.8404 -2.3174 0.9710
7.5190 -0.3030 -2.5014 0.9688
7.4703 0.9071 -2.5014 0.9688
6.7058 2.2387 -2.3500 0.9706
6.2674 3.2894 -2.3528 0.9706
6.1317 3.5401 -2.3535 0.9706
5.6622 4.2549 -2.3543 0.9706
3.0971 2.7438 -1.3754 0.9827
3.0091 2.8903 -1.3869 0.9826
4.6967 5.3015 -2.3543 0.9706
4.4794 5.4863 -2.3543 0.9706
3.9749 5.7586 -2.3259 0.9709
3.4504 5.4563 -2.1459 0.9732
2.8922 5.5105 -2.0687 0.9741
1.6412 5.6660 -1.9608 0.9754
0.2196 5.4472 -1.8122 0.9773
-0.2175 5.3972 -1.7955 0.9775
-0.8762 5.3918 -1.8158 0.9772
-1.3181 5.3478 -1.8308 0.9771
-1.8125 5.4289 -1.9025 0.9762
-2.0094 5.2983 -1.8836 0.9764
-2.6289 5.5403 -2.0384 0.9745
-3.3505 5.2983 -2.0838 0.9739
-3.9081 5.6618 -2.2868 0.9714
-4.1978 5.5862 -2.3227 0.9710
-4.3805 5.3651 -2.3023 0.9712
-2.4180 2.3225 -1.1145 0.9860
-5.3015 4.6967 -2.3543 0.9706
-5.4863 4.4794 -2.3543 0.9706
-5.6494 4.2452 -2.3490 0.9707
-5.8157 4.0143 -2.3490 0.9707
-6.2572 3.2840 -2.3490 0.9707
-6.5018 2.7702 -2.3492 0.9706
-6.7040 2.2381 -2.3494 0.9706
-6.7888 1.9664 -2.3494 0.9706
-6.8624 1.6914 -2.3494 0.9706
-7.3809 1.5068 -2.5041 0.9687
-7.0001 0.0000 -2.5033 0.9707
-6.9964 -0.2820 -2.5040 0.9707
-6.8639 -1.4013 -2.5052 0.9707
-6.8015 -1.6764 -2.5051 0.9707
-6.7281 -1.9488 -2.5049 0.9707
-6.6438 -2.2180 -2.5048 0.9707
-6.5487 -2.4836 -2.5046 0.9707
-6.3268 -3.0021 -2.5043 0.9707
-5.9141 -3.7399 -2.5023 0.9707
-5.5920 -4.2021 -2.5014 0.9707
-5.0447 -4.8455 -2.5014 0.9707
-4.8455 -5.0447 -2.5014 0.9707
-3.7385 -5.9119 -2.5014 0.9707
-3.4974 -6.0577 -2.5014 0.9707
-2.9986 -6.3195 -2.5014 0.9707
-2.7417 -6.4351 -2.5014 0.9707
-2.2150 -6.6348 -2.5014 0.9707
-1.9461 -6.7186 -2.5014 0.9707
-1.6740 -6.7916 -2.5014 0.9707
-1.3992 -6.8535 -2.5014 0.9707
-0.8431 -6.9438 -2.5014 0.9707
-0.2817 -6.9891 -2.5014 0.9707
0.0000 -6.9948 -2.5014 0.9707
0.5629 -6.9721 -2.5014 0.9707
0.8431 -6.9438 -2.5014 0.9707
1.3991 -6.8535 -2.5014 0.9707
2.4804 -6.5403 -2.5014 0.9707
2.7417 -6.4351 -2.5014 0.9707
3.2506 -6.1936 -2.5014 0.9707
3.7385 -5.9119 -2.5014 0.9707
3.9735 -5.7566 -2.5014 0.9707
4.2021 -5.5920 -2.5014 0.9707
5.4182 -4.4238 -2.5014 0.9707
5.5920 -4.2021 -2.5014 0.9707
5.9119 -3.7385 -2.5014 0.9707
6.0577 -3.4974 -2.5014 0.9707
6.1936 -3.2507 -2.5014 0.9707
6.3195 -2.9986 -2.5014 0.9707
6.4351 -2.7417 -2.5014 0.9707
6.7186 -1.9461 -2.5014 0.9707
6.9721 -0.5629 -2.5014 0.9707
6.9891 -0.2817 -2.5014 0.9707
6.9042 1.1221 -2.5014 0.9707
6.0481 2.5768 -2.3510 0.9725
5.6981 3.2898 -2.3529 0.9724
5.2632 3.9550 -2.3543 0.9724
3.0963 2.7431 -1.4793 0.9826
3.0083 2.8895 -1.4917 0.9824
3.7399 5.4182 -2.3543 0.9724
2.8977 5.5210 -2.2298 0.9739
2.3612 5.5419 -2.1542 0.9747
2.0515 5.4092 -2.0688 0.9757
1.6488 5.6924 -2.1193 0.9751
1.3792 5.5956 -2.0609 0.9758
1.0990 5.3829 -1.9647 0.9769
0.8576 5.2764 -1.9117 0.9775
0.4522 5.6006 -2.0093 0.9764
0.2219 5.5067 -1.9708 0.9769
0.0000 5.4368 -1.9442 0.9772
-0.2173 5.3933 -1.9303 0.9773
-0.8778 5.4013 -1.9569 0.9770
-1.0891 5.3348 -1.9471 0.9771
-1.6247 5.6092 -2.0884 0.9755
-3.1190 5.4022 -2.2307 0.9738
-3.3831 5.3499 -2.2636 0.9735
-3.7399 5.4182 -2.3543 0.9724
-3.9550 5.2632 -2.3543 0.9724
-4.3657 4.9279 -2.3543 0.9724
-4.5606 4.7481 -2.3543 0.9724
-4.9279 4.3657 -2.3543 0.9724
-5.0997 4.1637 -2.3543 0.9724
-5.8162 3.0526 -2.3490 0.9725
-5.9344 2.8159 -2.3490 0.9725
-6.0430 2.5747 -2.3490 0.9725
-6.1418 2.3293 -2.3490 0.9725
-6.2306 2.0801 -2.3490 0.9725
-6.3093 1.8275 -2.3490 0.9725
-6.3778 1.5720 -2.3490 0.9725
-6.8540 1.3992 -2.5016 0.9707
-6.9048 1.1221 -2.5016 0.9707
-6.9450 0.8433 -2.5018 0.9707
-6.9743 0.5630 -2.5022 0.9707
-3.5687 -0.2881 -1.3720 0.9848
-3.5921 -0.4362 -1.3867 0.9846
-6.3962 -1.3058 -2.5017 0.9724
-6.3385 -1.5623 -2.5017 0.9724
-6.1920 -2.0672 -2.5016 0.9724
-6.1036 -2.3148 -2.5016 0.9724
-6.0052 -2.5586 -2.5015 0.9724
-5.8971 -2.7983 -2.5014 0.9724
-5.6529 -3.2636 -2.5014 0.9724
-5.5168 -3.4886 -2.5014 0.9724
-5.3719 -3.7080 -2.5014 0.9724
-5.0561 -4.1282 -2.5014 0.9724
-4.8858 -4.3284 -2.5014 0.9724
-4.7075 -4.5217 -2.5014 0.9724
-4.5217 -4.7075 -2.5014 0.9724
-4.3284 -4.8858 -2.5014 0.9724
-4.1282 -5.0561 -2.5014 0.9724
-3.4886 -5.5168 -2.5014 0.9724
-3.0334 -5.7797 -2.5014 0.9724
-2.3146 -6.1032 -2.5014 0.9724
-1.5621 -6.3377 -2.5014 0.9724
-1.3056 -6.3954 -2.5014 0.9724
-0.7868 -6.4797 -2.5014 0.9724
-0.5252 -6.5062 -2.5014 0.9724
-0.2628 -6.5221 -2.5014 0.9724
0.0000 -6.5273 -2.5014 0.9724
0.2628 -6.5221 -2.5014 0.9724
0.5252 -6.5062 -2.5014 0.9724
1.5621 -6.3377 -2.5014 0.9724
2.3146 -6.1032 -2.5014 0.9724
2.7982 -5.8971 -2.5014 0.9724
3.0334 -5.7797 -2.5014 0.9724
4.1282 -5.0561 -2.5014 0.9724
4.3284 -4.8858 -2.5014 0.9724
4.5217 -4.7075 -2.5014 0.9724
4.7075 -4.5217 -2.5014 0.9724
5.2182 -3.9213 -2.5014 0.9724
5.7797 -3.0334 -2.5014 0.9724
5.8971 -2.7982 -2.5014 0.9724
6.0050 -2.5585 -2.5014 0.9724
6.2696 -1.8160 -2.5014 0.9724
6.4428 -1.0471 -2.5014 0.9724
6.4797 -0.7868 -2.5014 0.9724
6.5062 -0.5252 -2.5014 0.9724
6.5273 -0.0000 -2.5014 0.9724
6.5221 0.2628 -2.5014 0.9724
6.4798 0.7868 -2.5014 0.9724
6.4428 1.0471 -2.5014 0.9724
6.3954 1.3056 -2.5014 0.9724
5.8876 1.7054 -2.3490 0.9741
5.5429 2.6301 -2.3512 0.9741
5.4339 2.8519 -2.3518 0.9741
5.3160 3.0692 -2.3523 0.9740
5.1894 3.2816 -2.3529 0.9740
4.9108 3.6902 -2.3540 0.9740
3.0955 2.7424 -1.5848 0.9824
3.8855 4.7588 -2.3543 0.9740
3.2835 5.1925 -2.3543 0.9740
3.0718 5.3205 -2.3543 0.9740
2.8551 5.4399 -2.3543 0.9740
2.6337 5.5504 -2.3543 0.9740
2.3463 5.5068 -2.2939 0.9747
2.0606 5.4334 -2.2269 0.9754
1.7895 5.3601 -2.1655 0.9761
1.6621 5.7382 -2.2894 0.9747
0.6384 5.2576 -2.0296 0.9776
0.2220 5.5081 -2.1125 0.9767
-0.2162 5.3661 -2.0580 0.9773
-1.0846 5.3127 -2.0779 0.9770
-1.3290 5.3920 -2.1282 0.9765
-2.2935 5.3829 -2.2423 0.9752
-2.6337 5.5504 -2.3543 0.9740
-2.8551 5.4399 -2.3543 0.9740
-3.0718 5.3205 -2.3543 0.9740
-3.2835 5.1925 -2.3543 0.9740
-3.6907 4.9114 -2.3543 0.9740
-4.0739 4.5985 -2.3543 0.9740
-2.4180 2.3225 -1.2848 0.9857
-4.5985 4.0739 -2.3543 0.9740
-4.9114 3.6907 -2.3543 0.9740
-5.0553 3.4894 -2.3540 0.9740
-5.1904 3.2822 -2.3534 0.9740
-5.4351 2.8525 -2.3523 0.9740
-5.5441 2.6307 -2.3517 0.9741
-5.8876 1.7054 -2.3490 0.9741
-6.0113 1.4816 -2.3726 0.9738
-3.5589 0.1434 -1.3649 0.9849
-2.8160 -0.0000 -1.1525 0.9879
-2.8203 -0.1137 -1.1552 0.9879
-2.9323 -0.3561 -1.2089 0.9873
-3.0246 -0.4916 -1.2541 0.9868
-3.0070 -0.6139 -1.2561 0.9868
-5.8705 -1.7004 -2.5014 0.9739
-5.7972 -1.9354 -2.5014 0.9739
-5.7146 -2.1673 -2.5014 0.9739
-5.1656 -3.2665 -2.5014 0.9739
-4.8860 -3.6716 -2.5014 0.9739
-4.5747 -4.0529 -2.5014 0.9739
-4.2338 -4.4078 -2.5014 0.9739
-3.8654 -4.7342 -2.5014 0.9739
-3.2665 -5.1656 -2.5014 0.9739
-2.6201 -5.5217 -2.5014 0.9739
-2.1673 -5.7146 -2.5014 0.9739
-1.9354 -5.7972 -2.5014 0.9739
-0.9804 -6.0326 -2.5014 0.9739
-0.0000 -6.1118 -2.5014 0.9739
0.4918 -6.0920 -2.5014 0.9739
0.7367 -6.0672 -2.5014 0.9739
0.9804 -6.0326 -2.5014 0.9739
1.2225 -5.9883 -2.5014 0.9739
1.7004 -5.8705 -2.5014 0.9739
1.9354 -5.7972 -2.5014 0.9739
2.8403 -5.4117 -2.5014 0.9739
3.2665 -5.1656 -2.5014 0.9739
3.4719 -5.0299 -2.5014 0.9739
3.6716 -4.8860 -2.5014 0.9739
4.2338 -4.4078 -2.5014 0.9739
4.4078 -4.2338 -2.5014 0.9739
4.5747 -4.0529 -2.5014 0.9739
4.7342 -3.8654 -2.5014 0.9739
5.1656 -3.2666 -2.5014 0.9739
5.4117 -2.8403 -2.5014 0.9739
5.8705 -1.7004 -2.5014 0.9739
5.9342 -1.4627 -2.5014 0.9739
5.9883 -1.2225 -2.5014 0.9739
6.0326 -0.9804 -2.5014 0.9739
6.1068 0.2461 -2.5014 0.9739
6.0920 0.4918 -2.5014 0.9739
6.0672 0.7367 -2.5014 0.9739
5.9883 1.2225 -2.5014 0.9739
5.9342 1.4626 -2.5014 0.9739
5.6899 1.6481 -2.4244 0.9747
5.2828 2.2508 -2.3502 0.9755
5.1891 2.4623 -2.3507 0.9755
4.9765 2.8732 -2.3519 0.9755
4.7313 3.2658 -2.3529 0.9755
4.5970 3.4544 -2.3534 0.9755
3.6381 4.4559 -2.3543 0.9754
