ply
format ascii 1.0
element vertex 1572
property float32 x
property float32 y
property float32 z
property float32 I
end_header
-32.0857 33.4047 -0.2608 0.8309
-32.1421 30.8729 -0.2509 0.8367
-11.1530 7.6983 -0.0763 0.9472
-31.8155 20.1189 -0.2119 0.8602
-30.6041 16.0623 -0.1946 0.8709
-24.9777 11.8520 -0.1557 0.8953
-31.8696 13.5783 -0.1950 0.8706
-30.1495 11.4342 -0.1815 0.8790
-30.1495 10.0654 -0.1790 0.8806
-30.1495 8.7329 -0.1767 0.8820
-30.1495 7.4312 -0.1748 0.8832
-37.5261 6.0986 -0.2141 0.8589
-44.6153 -16.9204 -1.3436 0.8262
-39.3166 -16.7512 -1.2034 0.8428
-35.2020 -16.7035 -1.0971 0.8556
-23.9287 -16.5168 -0.8187 0.8902
-20.0035 -17.7216 -0.7525 0.8986
-15.7900 -16.4391 -0.6418 0.9128
-18.7948 -23.0194 -0.8368 0.8879
-14.8045 -19.7012 -0.6939 0.9061
-10.3767 -24.3551 -0.7454 0.8995
-8.5321 -22.4974 -0.6775 0.9082
-3.6635 -30.1714 -0.8558 0.8855
0.0000 -25.2393 -0.7107 0.9039
1.0100 -25.0626 -0.7063 0.9045
2.1489 -26.6191 -0.7520 0.8986
3.1926 -26.2937 -0.7458 0.8994
5.6421 -19.4787 -0.5710 0.9221
9.0242 -27.0308 -0.8024 0.8922
8.7275 -23.0126 -0.6930 0.9062
11.3172 -26.5624 -0.8130 0.8909
12.6364 -26.6306 -0.8300 0.8887
8.2054 -15.6341 -0.4972 0.9318
9.2300 -14.5960 -0.4863 0.9332
25.3771 -36.7651 -1.2579 0.8363
15.7674 -20.9826 -0.7390 0.9003
15.7591 -19.3014 -0.7016 0.9051
18.6040 -20.9995 -0.7900 0.8938
19.7060 -20.5161 -0.8010 0.8924
25.2604 -24.2630 -0.9862 0.8692
25.2111 -20.5842 -0.9165 0.8779
19.1585 9.0908 -0.5971 0.9186
16.4026 8.6087 -0.5216 0.9286
14.9082 8.6073 -0.4847 0.9334
11.9183 8.2266 -0.4078 0.9437
10.0494 9.6526 -0.3924 0.9458
9.2714 9.6526 -0.3769 0.9479
7.8811 9.6526 -0.3509 0.9514
7.2534 9.6526 -0.3400 0.9528
6.6627 9.6526 -0.3303 0.9542
6.1039 9.6526 -0.3216 0.9553
5.5257 9.5708 -0.3112 0.9567
3.8693 8.1543 -0.2541 0.9645
3.5256 8.2749 -0.2533 0.9646
3.0928 8.1552 -0.2456 0.9657
2.5084 8.6602 -0.2539 0.9646
1.9649 9.6248 -0.2766 0.9615
0.7815 9.6811 -0.2735 0.9619
0.3901 9.6811 -0.2728 0.9620
-1.1764 9.6882 -0.2748 0.9617
-3.0146 9.0296 -0.2680 0.9626
-3.5702 8.3794 -0.2565 0.9642
-4.3292 8.2485 -0.2623 0.9634
-4.7055 8.1500 -0.2650 0.9630
-5.3885 8.5212 -0.2839 0.9605
-30.3012 22.7699 -1.0673 0.8593
-11.1530 7.6983 -0.3816 0.9472
-30.1443 17.4038 -0.9801 0.8700
-25.1055 11.9127 -0.7826 0.8948
-31.8697 13.5784 -0.9754 0.8706
-30.1495 11.4342 -0.9079 0.8789
-30.2633 6.1783 -0.8697 0.8837
-37.5261 6.0986 -1.0705 0.8589
-49.1356 -3.9667 -2.5000 0.8208
-48.9361 -5.9419 -2.5000 0.8208
-48.6571 -7.9076 -2.5000 0.8208
-48.2992 -9.8604 -2.5000 0.8208
-45.6576 -13.2249 -2.4107 0.8266
-43.3176 -16.4282 -2.3495 0.8306
-39.3213 -16.7533 -2.1676 0.8427
-31.6710 -16.6222 -1.8140 0.8665
-20.2585 -16.5405 -1.3264 0.9006
-16.9526 -16.2832 -1.1921 0.9102
-15.5350 -16.1736 -1.1373 0.9141
-13.4295 -16.4482 -1.0769 0.9185
-26.0900 -37.7978 -2.3292 0.8320
-11.7850 -24.8364 -1.3942 0.8957
-10.0738 -23.6441 -1.3034 0.9022
-7.4038 -22.1772 -1.1857 0.9106
-3.9248 -15.9236 -0.8317 0.9364
-7.3448 -45.1944 -2.3221 0.8324
-5.5186 -45.4499 -2.3219 0.8325
-1.6726 -41.5045 -2.1066 0.8467
1.0111 -25.0907 -1.2735 0.9043
2.1483 -26.6108 -1.3539 0.8986
6.5144 -40.0846 -2.0595 0.8499
9.1629 -44.8829 -2.3232 0.8324
9.0878 -27.2212 -1.4554 0.8914
10.0519 -26.5047 -1.4376 0.8927
11.3403 -26.6166 -1.4673 0.8906
8.2033 -15.6302 -0.8952 0.9317
23.0511 -39.9255 -2.3380 0.8314
24.7288 -39.1055 -2.3465 0.8308
10.7460 -15.5683 -0.9594 0.9270
11.6826 -15.5467 -0.9862 0.9251
12.6748 -15.5238 -1.0164 0.9229
14.9346 -15.5487 -1.0934 0.9173
18.9458 -15.4688 -1.2404 0.9067
20.5203 -15.4200 -1.3018 0.9023
42.6914 -24.6476 -2.5000 0.8208
43.6577 -20.7158 -2.4507 0.8240
43.6634 -18.6032 -2.4070 0.8269
44.7105 -14.9265 -2.3905 0.8280
46.5879 -13.4944 -2.4598 0.8234
48.6571 -7.9076 -2.5000 0.8208
49.1356 -3.9666 -2.5000 0.8208
49.2555 -1.9850 -2.5000 0.8208
49.2955 0.0000 -2.5000 0.8208
49.2555 1.9849 -2.5000 0.8208
46.1403 3.7248 -2.3476 0.8308
45.9529 5.5797 -2.3476 0.8308
45.3552 9.2594 -2.3476 0.8308
44.9987 11.0912 -2.3504 0.8306
25.3184 7.3336 -1.3368 0.8998
43.9239 14.6640 -2.3484 0.8307
43.2859 16.4162 -2.3478 0.8308
19.6686 8.3800 -1.0842 0.9179
16.6188 7.8857 -0.9329 0.9290
16.3166 8.5636 -0.9345 0.9289
14.7985 8.5439 -0.8666 0.9339
12.0120 8.2913 -0.7402 0.9432
11.5996 8.7165 -0.7358 0.9435
11.1675 9.1180 -0.7312 0.9439
8.5514 9.6526 -0.6540 0.9497
7.8811 9.6526 -0.6320 0.9513
7.2534 9.6526 -0.6123 0.9528
6.6627 9.6526 -0.5948 0.9541
6.1039 9.6526 -0.5792 0.9553
3.0753 8.1089 -0.4398 0.9659
2.7522 8.2439 -0.4408 0.9658
2.4624 8.5011 -0.4488 0.9652
1.9649 9.6247 -0.4982 0.9614
1.5640 9.6237 -0.4945 0.9617
1.0552 8.6907 -0.4440 0.9655
-0.0000 9.6811 -0.4910 0.9620
-0.7736 9.5831 -0.4876 0.9622
-1.1755 9.6811 -0.4946 0.9617
-1.9443 9.5236 -0.4929 0.9618
-2.1418 8.6896 -0.4539 0.9648
-2.7878 9.6246 -0.5082 0.9607
-2.9865 8.9456 -0.4783 0.9629
-3.5702 8.3794 -0.4619 0.9642
-4.7055 8.1500 -0.4773 0.9630
-5.3885 8.5212 -0.5113 0.9604
-27.4335 36.5073 -2.3159 0.8329
-29.5528 33.3582 -2.2601 0.8365
-30.4093 22.8511 -1.9291 0.8587
-29.8883 17.2560 -1.7503 0.8709
-25.1064 11.9132 -1.4094 0.8947
-31.8697 13.5784 -1.7568 0.8704
-30.1495 11.4342 -1.6353 0.8788
-30.1495 10.0654 -1.6120 0.8805
-30.1495 8.7329 -1.5919 0.8819
-45.9897 5.5841 -2.3495 0.8306
-33.9853 -2.7436 -2.5000 0.8722
-33.6544 -5.4694 -2.5000 0.8722
-31.8802 -12.0906 -2.5000 0.8722
-28.9280 -13.7265 -2.3477 0.8795
-28.3545 -14.8816 -2.3480 0.8795
-27.0822 -17.1258 -2.3494 0.8794
-26.3742 -18.2048 -2.3498 0.8794
-18.4180 -16.3169 -1.8042 0.9060
-17.0978 -16.4226 -1.7383 0.9093
-15.6452 -16.2884 -1.6560 0.9134
-13.2247 -16.1973 -1.5332 0.9196
-10.1683 -16.0798 -1.3950 0.9265
-8.4432 -16.0871 -1.3321 0.9297
-11.6085 -24.4643 -1.9855 0.8971
-6.8383 -16.0502 -1.2792 0.9324
-5.3469 -16.0158 -1.2380 0.9345
-3.9279 -15.9361 -1.2034 0.9363
-2.5925 -15.9524 -1.1850 0.9372
-1.2854 -15.9223 -1.1713 0.9379
-0.6411 -15.9074 -1.1673 0.9381
-0.0000 -15.8927 -1.1653 0.9382
0.6399 -15.8779 -1.1651 0.9383
1.9243 -15.8483 -1.1706 0.9380
4.5728 -15.7873 -1.2051 0.9362
9.1702 -27.4681 -2.1233 0.8903
6.7177 -15.7670 -1.2566 0.9336
9.9056 -15.6645 -1.3589 0.9284
10.8613 -15.7354 -1.4019 0.9262
14.9346 -15.5487 -1.5808 0.9172
17.6363 -15.6244 -1.7276 0.9098
18.9309 -15.4566 -1.7920 0.9066
20.5203 -15.4200 -1.8821 0.9022
29.5281 -17.0481 -2.5000 0.8722
30.1904 -15.8452 -2.5000 0.8722
30.8041 -14.6167 -2.5000 0.8722
31.8803 -12.0906 -2.5000 0.8722
32.3413 -10.7971 -2.5000 0.8722
33.6544 -5.4694 -2.5000 0.8722
33.9854 -2.7436 -2.5000 0.8722
34.0683 -1.3729 -2.5000 0.8722
34.0959 0.0000 -2.5000 0.8722
33.8473 4.1098 -2.5000 0.8722
33.4070 6.8201 -2.5000 0.8722
25.3184 7.3336 -1.9327 0.8997
32.3414 10.7971 -2.5000 0.8722
16.2768 7.7234 -1.3210 0.9303
14.7985 8.5439 -1.2529 0.9338
11.5155 8.6533 -1.0562 0.9439
10.3517 8.4519 -0.9799 0.9478
9.1405 8.7796 -0.9293 0.9504
8.5514 9.6526 -0.9455 0.9496
7.8811 9.6526 -0.9137 0.9512
5.9739 8.6547 -0.7711 0.9587
5.5061 8.7072 -0.7554 0.9595
5.2209 9.0429 -0.7656 0.9590
4.4137 8.4096 -0.6964 0.9626
3.8693 8.1543 -0.6618 0.9644
3.0928 8.1552 -0.6395 0.9656
2.7843 8.3400 -0.6447 0.9654
1.9649 9.6247 -0.7203 0.9614
1.5640 9.6237 -0.7149 0.9617
1.0552 8.6904 -0.6419 0.9655
-0.0000 9.6811 -0.7098 0.9619
-0.3321 8.2413 -0.6048 0.9675
-1.1755 9.6811 -0.7151 0.9616
-1.5734 9.6811 -0.7192 0.9614
-1.9440 9.5224 -0.7126 0.9618
-2.7878 9.6246 -0.7347 0.9606
-3.3143 8.7391 -0.6853 0.9632
-3.5702 8.3794 -0.6678 0.9641
-5.7341 9.0677 -0.7866 0.9579
-19.0697 27.6272 -2.4614 0.8740
-20.1667 26.8370 -2.4614 0.8740
-21.2309 26.0032 -2.4614 0.8740
-22.2608 25.1272 -2.4614 0.8740
-24.2105 23.2545 -2.4614 0.8740
-24.2059 21.4445 -2.3711 0.8784
-24.3951 19.9179 -2.3092 0.8813
-25.2008 18.9371 -2.3113 0.8812
-25.9666 17.9235 -2.3134 0.8811
-29.3545 12.5068 -2.3395 0.8799
-30.1495 10.0654 -2.3306 0.8803
-30.1495 8.7329 -2.3015 0.8817
-30.2633 6.1783 -2.2647 0.8835
-31.6110 5.1373 -2.3482 0.8795
-34.0683 1.3729 -2.5000 0.8722
-26.0323 0.0000 -2.4992 0.9007
-26.0185 -1.0485 -2.4999 0.9007
-25.7030 -4.1771 -2.5000 0.9006
-24.3480 -9.2340 -2.5000 0.9006
-23.9564 -10.2069 -2.5000 0.9006
-23.5260 -11.1632 -2.5000 0.9006
-23.0575 -12.1015 -2.5000 0.9006
-20.1243 -13.8908 -2.3476 0.9064
-19.5488 -14.6900 -2.3476 0.9064
-17.6441 -16.9492 -2.3490 0.9064
-14.3730 -16.2237 -2.0809 0.9166
-11.2159 -16.2491 -1.8955 0.9237
-9.2993 -16.1069 -1.7856 0.9280
-6.0804 -16.0327 -1.6462 0.9334
-2.5925 -15.9524 -1.5516 0.9371
-1.9351 -15.9372 -1.5413 0.9375
-1.2854 -15.9223 -1.5336 0.9378
0.0000 -15.8927 -1.5258 0.9381
1.2806 -15.8632 -1.5279 0.9381
1.9243 -15.8483 -1.5327 0.9379
2.5775 -15.8602 -1.5426 0.9375
5.8465 -23.7200 -2.3454 0.9065
6.7977 -23.4685 -2.3457 0.9065
6.7205 -15.7735 -1.6461 0.9334
8.2170 -15.6563 -1.6975 0.9314
9.0552 -15.6841 -1.7387 0.9298
10.8411 -15.7061 -1.8322 0.9262
11.7393 -15.6223 -1.8761 0.9245
16.9730 -17.6708 -2.3523 0.9062
23.0574 -12.1015 -2.5000 0.9006
23.9564 -10.2069 -2.5000 0.9006
24.7000 -8.2461 -2.5000 0.9006
25.5139 -5.2087 -2.5000 0.9006
25.7029 -4.1773 -2.5000 0.9006
25.9557 -2.0954 -2.5000 0.9006
26.0401 -0.0001 -2.5000 0.9006
25.9557 2.0953 -2.5000 0.9006
24.1361 3.9225 -2.3476 0.9064
23.9585 4.8912 -2.3476 0.9064
23.2937 7.7766 -2.3576 0.9060
16.5868 7.0670 -1.7309 0.9301
14.7990 7.0222 -1.5726 0.9363
14.7996 7.7675 -1.6046 0.9350
14.7985 8.5439 -1.6405 0.9336
12.9658 8.1991 -1.4728 0.9402
10.3450 8.4465 -1.2822 0.9477
9.5341 8.4465 -1.2229 0.9501
9.0220 8.6658 -1.2010 0.9510
9.2714 9.6526 -1.2849 0.9476
8.5514 9.6526 -1.2381 0.9495
6.7055 8.2128 -1.0179 0.9583
5.6905 8.2442 -0.9617 0.9605
5.2645 8.3252 -0.9457 0.9612
5.2209 9.0430 -1.0025 0.9589
4.4137 8.4096 -0.9118 0.9626
3.8693 8.1543 -0.8665 0.9644
3.0928 8.1552 -0.8374 0.9656
2.7843 8.3400 -0.8441 0.9653
1.0794 8.8898 -0.8597 0.9647
0.7815 9.6811 -0.9325 0.9617
0.3901 9.6811 -0.9302 0.9618
-0.0000 9.6811 -0.9294 0.9618
-0.6632 8.2147 -0.7912 0.9674
-1.5734 9.6811 -0.9416 0.9614
-1.9438 9.5212 -0.9329 0.9617
-2.0196 8.1939 -0.8102 0.9667
-2.7878 9.6246 -0.9620 0.9605
-3.2520 8.5747 -0.8804 0.9638
-3.8781 8.1728 -0.8685 0.9643
-4.7055 8.1500 -0.9035 0.9629
-14.5642 21.0998 -2.4614 0.9021
-15.4020 20.4963 -2.4614 0.9021
-17.7602 18.4903 -2.4614 0.9021
-18.4904 17.7602 -2.4614 0.9021
-19.1905 17.0013 -2.4614 0.9021
-19.8595 16.2147 -2.4614 0.9021
-21.6692 13.7028 -2.4614 0.9021
-22.2033 12.8191 -2.4614 0.9021
-22.7015 11.9147 -2.4614 0.9021
-23.1629 10.9909 -2.4614 0.9021
-23.8856 5.8873 -2.3618 0.9059
-25.0444 4.0701 -2.4359 0.9031
-26.0039 1.0479 -2.4985 0.9007
-21.0291 -0.8475 -2.5000 0.9187
-20.8927 -2.5368 -2.5000 0.9187
-20.7736 -3.3760 -2.5000 0.9187
-20.4346 -5.0367 -2.5000 0.9187
-20.2152 -5.8554 -2.5000 0.9187
-19.9630 -6.6646 -2.5000 0.9187
-19.3620 -8.2494 -2.5000 0.9187
-19.0142 -9.0223 -2.5000 0.9187
-18.6354 -9.7806 -2.5000 0.9187
-16.8252 -12.6433 -2.5000 0.9187
-16.1676 -13.2004 -2.4793 0.9194
-14.2533 -13.6904 -2.3476 0.9235
-13.6904 -14.2532 -2.3476 0.9235
-11.8748 -15.8024 -2.3480 0.9235
-9.8868 -17.1242 -2.3488 0.9234
-7.6245 -16.0683 -2.1127 0.9309
-6.8383 -16.0502 -2.0724 0.9321
-5.3469 -16.0158 -2.0057 0.9342
-4.6343 -15.9994 -1.9786 0.9351
-3.9279 -15.9361 -1.9496 0.9360
-1.9351 -15.9372 -1.9070 0.9374
0.0000 -15.8927 -1.8878 0.9380
0.6398 -15.8779 -1.8876 0.9380
1.2806 -15.8632 -1.8904 0.9379
2.5732 -15.8334 -1.9055 0.9374
4.5728 -15.7873 -1.9524 0.9359
5.2652 -15.7714 -1.9751 0.9352
7.7588 -18.2106 -2.3513 0.9234
8.4871 -17.8862 -2.3517 0.9233
8.1949 -15.6142 -2.0947 0.9314
10.5643 -16.7060 -2.3479 0.9235
11.2268 -16.2649 -2.3476 0.9235
11.8726 -15.7996 -2.3476 0.9235
12.4991 -15.3086 -2.3476 0.9235
13.1054 -14.7929 -2.3476 0.9235
13.6904 -14.2533 -2.3476 0.9235
14.9098 -13.2089 -2.3661 0.9229
16.1522 -13.1879 -2.4770 0.9194
16.8252 -12.6433 -2.5000 0.9187
17.7880 -11.2485 -2.5000 0.9187
19.9630 -6.6646 -2.5000 0.9187
20.4346 -5.0367 -2.5000 0.9187
20.6208 -4.2098 -2.5000 0.9187
20.7736 -3.3760 -2.5000 0.9187
20.9779 -1.6935 -2.5000 0.9187
21.0291 -0.8474 -2.5000 0.9187
21.0461 0.0000 -2.5000 0.9187
21.0291 0.8474 -2.5000 0.9187
20.8927 2.5368 -2.5000 0.9187
19.1888 4.7296 -2.3476 0.9235
18.9829 5.4985 -2.3476 0.9235
16.6318 7.0861 -2.1475 0.9298
14.9160 7.0777 -1.9612 0.9357
14.7994 7.7673 -1.9854 0.9349
14.7985 8.5439 -2.0298 0.9335
12.9658 8.1991 -1.8223 0.9401
12.0120 8.2913 -1.7338 0.9429
10.3450 8.4465 -1.5864 0.9476
9.5341 8.4465 -1.5130 0.9500
6.7055 8.2128 -1.2594 0.9582
5.6689 8.2128 -1.1854 0.9606
5.2209 8.2563 -1.1604 0.9614
5.1024 8.8377 -1.2122 0.9597
4.4717 8.5202 -1.1430 0.9620
2.4788 8.5579 -1.0583 0.9647
2.1972 8.9146 -1.0906 0.9637
1.9649 9.6247 -1.1669 0.9612
1.3041 8.0246 -0.9657 0.9678
-0.0000 9.6005 -1.1404 0.9621
-0.3176 7.8813 -0.9370 0.9687
-0.6486 8.0343 -0.9575 0.9681
-1.1578 9.5349 -1.1409 0.9620
-1.5417 9.4864 -1.1416 0.9620
-1.9236 9.4224 -1.1423 0.9620
-1.9743 8.0099 -0.9799 0.9673
-3.2721 8.6278 -1.0961 0.9635
-4.2807 8.1562 -1.0942 0.9636
-4.7388 8.2078 -1.1258 0.9625
-5.3885 8.5212 -1.1976 0.9602
-11.6800 15.5432 -2.3095 0.9247
-14.9442 14.3541 -2.4614 0.9199
-15.5101 13.7407 -2.4614 0.9199
-16.5655 12.4481 -2.4614 0.9199
-17.0533 11.7710 -2.4614 0.9199
-17.5134 11.0748 -2.4614 0.9199
-19.0632 8.1220 -2.4614 0.9199
-19.3770 7.3487 -2.4617 0.9199
-19.7155 6.5820 -2.4690 0.9197
-20.0005 5.7932 -2.4734 0.9195
-20.5363 4.1925 -2.4897 0.9190
-20.8806 2.5353 -2.4985 0.9188
-20.9703 1.6929 -2.4991 0.9187
-17.6442 0.0000 -2.5000 0.9312
-17.5155 -2.1268 -2.5000 0.9312
-17.4156 -2.8303 -2.5000 0.9312
-17.2876 -3.5293 -2.5000 0.9312
-17.1314 -4.2225 -2.5000 0.9312
-16.4976 -6.2567 -2.5000 0.9312
-15.6231 -8.1996 -2.5000 0.9312
-15.2803 -8.8221 -2.5000 0.9312
-13.2068 -11.7002 -2.5000 0.9312
-12.2225 -12.7250 -2.5000 0.9312
-9.9534 -13.2456 -2.3476 0.9353
-9.4120 -13.6356 -2.3476 0.9353
-7.1028 -14.9688 -2.3476 0.9353
-6.4943 -15.2427 -2.3476 0.9353
-5.8754 -15.4921 -2.3476 0.9353
-2.6584 -16.3576 -2.3481 0.9352
-0.6673 -16.5593 -2.3482 0.9352
0.6673 -16.5590 -2.3481 0.9352
1.9975 -16.4508 -2.3480 0.9352
3.9653 -16.0879 -2.3477 0.9353
4.6098 -15.9144 -2.3476 0.9353
5.8752 -15.4918 -2.3476 0.9353
7.1028 -14.9689 -2.3476 0.9353
8.2843 -14.3488 -2.3476 0.9353
9.4120 -13.6356 -2.3476 0.9353
11.6819 -13.1861 -2.4961 0.9313
12.2225 -12.7250 -2.5000 0.9312
14.1054 -10.5996 -2.5000 0.9312
14.9127 -9.4302 -2.5000 0.9312
15.2802 -8.8221 -2.5000 0.9312
15.9406 -7.5639 -2.5000 0.9312
16.2322 -6.9159 -2.5000 0.9312
17.2875 -3.5293 -2.5000 0.9312
17.6298 -0.7105 -2.5000 0.9312
17.5155 2.1268 -2.5000 0.9312
15.7158 5.2467 -2.3476 0.9353
15.2427 6.4943 -2.3476 0.9353
14.9414 7.0898 -2.3433 0.9354
14.6177 7.6719 -2.3391 0.9355
12.8595 8.1318 -2.1558 0.9404
12.0120 8.2913 -2.0681 0.9427
8.3980 8.7432 -1.7177 0.9522
7.8940 8.9105 -1.6867 0.9530
5.6689 8.2128 -1.4140 0.9605
5.2209 9.0430 -1.4795 0.9587
4.4137 8.4096 -1.3457 0.9624
3.8693 8.1543 -1.2789 0.9642
2.4624 8.5011 -1.2540 0.9649
1.2757 7.8498 -1.1268 0.9684
1.0761 8.8622 -1.2649 0.9646
0.7180 8.8945 -1.2644 0.9646
-0.0000 8.9155 -1.2632 0.9646
-1.0749 8.8528 -1.2636 0.9646
-1.7880 8.7583 -1.2666 0.9645
-1.9307 7.8330 -1.1431 0.9679
-3.0411 9.1091 -1.3607 0.9619
-3.3143 8.7391 -1.3243 0.9629
-3.5702 8.3794 -1.2905 0.9639
-3.8781 8.1728 -1.2817 0.9641
-4.3292 8.2485 -1.3199 0.9631
-4.7055 8.1500 -1.3334 0.9627
-5.7341 9.0677 -1.5201 0.9576
-9.2787 13.4425 -2.3143 0.9361
-11.2944 11.7587 -2.3101 0.9363
-11.7528 11.2886 -2.3090 0.9363
-13.0030 11.5196 -2.4614 0.9322
-13.4563 10.9867 -2.4614 0.9322
-14.2967 9.8683 -2.4614 0.9322
-14.6825 9.2846 -2.4614 0.9322
-15.0444 8.6859 -2.4614 0.9322
-16.8331 4.8758 -2.4831 0.9316
-17.2781 3.5273 -2.4986 0.9312
-17.4088 2.8292 -2.4990 0.9312
-17.5864 1.4197 -2.4999 0.9312
-15.1754 0.0000 -2.5000 0.9403
-15.1631 -0.6111 -2.5000 0.9403
-15.1262 -1.2211 -2.5000 0.9403
-14.5763 -4.2221 -2.5000 0.9403
-14.3944 -4.8056 -2.5000 0.9403
-14.1893 -5.3813 -2.5000 0.9403
-13.9611 -5.9483 -2.5000 0.9403
-13.7103 -6.5056 -2.5000 0.9403
-13.4372 -7.0524 -2.5000 0.9403
-10.5124 -10.9446 -2.5000 0.9403
-10.0632 -11.3590 -2.5000 0.9403
-9.5976 -11.7550 -2.5000 0.9403
-9.1165 -12.1319 -2.5000 0.9403
-8.1107 -12.8261 -2.5000 0.9403
-7.5877 -13.1423 -2.5000 0.9403
-6.2680 -13.2095 -2.4087 0.9424
-5.6313 -13.2170 -2.3667 0.9434
-4.5126 -13.5169 -2.3476 0.9439
-2.8504 -13.9623 -2.3476 0.9439
-2.2859 -14.0658 -2.3476 0.9439
-1.7177 -14.1464 -2.3476 0.9439
1.1467 -14.2041 -2.3476 0.9439
1.7177 -14.1464 -2.3476 0.9439
4.5126 -13.5169 -2.3476 0.9439
5.6294 -13.2127 -2.3660 0.9434
6.2657 -13.2047 -2.4078 0.9425
6.9256 -13.1956 -2.4551 0.9414
8.1107 -12.8261 -2.5000 0.9403
8.6206 -12.4891 -2.5000 0.9403
9.1165 -12.1319 -2.5000 0.9403
10.0631 -11.3590 -2.5000 0.9403
10.9445 -10.5124 -2.5000 0.9403
11.3590 -10.0632 -2.5000 0.9403
12.8261 -8.1107 -2.5000 0.9403
13.1423 -7.5877 -2.5000 0.9403
13.7102 -6.5056 -2.5000 0.9403
13.9610 -5.9483 -2.5000 0.9403
14.1892 -5.3813 -2.5000 0.9403
14.8687 -3.0355 -2.5000 0.9403
14.9789 -2.4343 -2.5000 0.9403
15.0647 -1.8292 -2.5000 0.9403
15.1262 -1.2211 -2.5000 0.9403
15.1631 -0.6111 -2.5000 0.9403
15.0647 1.8292 -2.5000 0.9403
14.9789 2.4343 -2.5000 0.9403
13.9624 2.8504 -2.3476 0.9439
13.6877 3.9647 -2.3476 0.9439
13.5169 4.5126 -2.3476 0.9439
13.1100 5.5856 -2.3476 0.9439
12.8744 6.1090 -2.3476 0.9439
12.3042 7.1038 -2.3406 0.9440
11.9835 7.5779 -2.3357 0.9441
10.9969 8.9787 -2.3388 0.9441
8.3608 8.0307 -1.9098 0.9541
8.3980 8.7432 -1.9972 0.9520
6.7055 8.2128 -1.7467 0.9579
5.2209 8.2563 -1.6093 0.9612
3.8693 8.1543 -1.4869 0.9641
3.0928 8.1552 -1.4369 0.9653
2.7843 8.3400 -1.4485 0.9650
2.5084 8.6602 -1.4853 0.9641
0.6927 8.5807 -1.4182 0.9657
0.3458 8.5821 -1.4150 0.9658
-0.3042 7.5480 -1.2445 0.9698
-0.6211 7.6934 -1.2715 0.9692
-1.0421 8.5828 -1.4243 0.9656
-1.9026 7.7190 -1.3097 0.9683
-2.7878 9.6246 -1.6507 0.9602
-3.0411 9.1091 -1.5821 0.9618
-3.2980 8.6961 -1.5322 0.9630
-4.3290 8.2482 -1.5346 0.9629
-4.7055 8.1500 -1.5503 0.9626
-5.7341 9.0677 -1.7674 0.9574
-7.9804 11.5616 -2.3143 0.9446
-8.4395 11.2309 -2.3143 0.9446
-9.3159 10.5154 -2.3143 0.9446
-9.7309 10.1309 -2.3141 0.9446
-10.1262 9.7263 -2.3130 0.9447
-11.2100 8.4238 -2.3100 0.9447
-11.5356 7.9624 -2.3091 0.9448
-12.6281 7.9855 -2.4614 0.9412
-13.5326 6.4213 -2.4676 0.9411
-13.8315 5.8930 -2.4768 0.9409
-14.0972 5.3463 -2.4838 0.9407
-14.3224 4.7815 -2.4875 0.9406
-14.5441 4.2127 -2.4945 0.9405
-14.7292 3.6304 -2.4991 0.9404
-15.1631 0.6110 -2.5000 0.9403
-13.3006 0.0000 -2.5000 0.9473
-13.2898 -0.5356 -2.5000 0.9473
-13.1283 -2.1336 -2.5000 0.9473
-12.9141 -3.1831 -2.5000 0.9473
-12.7754 -3.7005 -2.5000 0.9473
-12.4362 -4.7164 -2.5000 0.9473
-12.0164 -5.7018 -2.5000 0.9473
-11.7771 -6.1811 -2.5000 0.9473
-11.5186 -6.6503 -2.5000 0.9473
-10.6331 -7.9902 -2.5000 0.9473
-9.9556 -8.8199 -2.5000 0.9473
-8.8199 -9.9556 -2.5000 0.9473
-8.4119 -10.3027 -2.5000 0.9473
-7.9902 -10.6330 -2.5000 0.9473
-6.1811 -11.7771 -2.5000 0.9473
-5.7019 -12.0164 -2.5000 0.9473
-5.2129 -12.2362 -2.5000 0.9473
-3.7005 -12.7754 -2.5000 0.9473
-2.1336 -13.1283 -2.5000 0.9473
-1.0650 -13.1928 -2.4878 0.9476
-0.0000 -13.1938 -2.4799 0.9477
0.5317 -13.1932 -2.4818 0.9477
1.0649 -13.1920 -2.4876 0.9476
1.6015 -13.1899 -2.4974 0.9474
3.7004 -12.7754 -2.5000 0.9473
4.2118 -12.6161 -2.5000 0.9473
4.7164 -12.4362 -2.5000 0.9473
5.7018 -12.0164 -2.5000 0.9473
6.1811 -11.7771 -2.5000 0.9473
6.6503 -11.5186 -2.5000 0.9473
7.1087 -11.2415 -2.5000 0.9473
7.5556 -10.9461 -2.5000 0.9473
8.4120 -10.3027 -2.5000 0.9473
8.8200 -9.9556 -2.5000 0.9473
9.2135 -9.5924 -2.5000 0.9473
9.5924 -9.2136 -2.5000 0.9473
10.3027 -8.4119 -2.5000 0.9473
10.6330 -7.9902 -2.5000 0.9473
11.2415 -7.1087 -2.5000 0.9473
11.5186 -6.6503 -2.5000 0.9473
12.0164 -5.7018 -2.5000 0.9473
12.2362 -5.2134 -2.5000 0.9473
12.4362 -4.7164 -2.5000 0.9473
12.9140 -3.1830 -2.5000 0.9473
13.0317 -2.6605 -2.5000 0.9473
13.1283 -2.1336 -2.5000 0.9473
13.2036 -1.6032 -2.5000 0.9473
13.2574 -1.0703 -2.5000 0.9473
13.3006 0.0000 -2.5000 0.9473
13.2897 0.5355 -2.5000 0.9473
13.2574 1.0703 -2.5000 0.9473
13.1283 2.1336 -2.5000 0.9473
13.0317 2.6605 -2.5000 0.9473
12.1268 2.9890 -2.3476 0.9504
11.4903 4.8956 -2.3476 0.9504
11.0591 5.8043 -2.3476 0.9504
10.8164 6.2449 -2.3476 0.9504
10.2490 7.0744 -2.3408 0.9506
9.9243 7.4576 -2.3334 0.9507
9.2969 8.2363 -2.3346 0.9507
8.3752 8.0445 -2.1827 0.9538
6.1715 8.2128 -1.9310 0.9590
5.2209 9.0430 -1.9627 0.9584
3.0928 8.1552 -1.6394 0.9651
2.7843 8.3400 -1.6526 0.9648
2.2293 9.0445 -1.7509 0.9628
1.0194 8.3954 -1.5896 0.9662
-0.6081 7.5319 -1.4203 0.9697
-1.0198 8.3989 -1.5903 0.9662
-1.3648 8.3975 -1.5991 0.9660
-1.7141 8.3961 -1.6107 0.9657
-1.9415 7.8771 -1.5249 0.9675
-3.3143 8.7391 -1.7568 0.9627
-4.3292 8.2485 -1.7510 0.9628
-4.7055 8.1500 -1.7689 0.9624
-5.7341 9.0677 -2.0166 0.9573
-6.9973 10.1373 -2.3152 0.9511
-8.1649 9.2163 -2.3143 0.9511
-8.5294 8.8800 -2.3143 0.9511
-8.8801 8.5294 -2.3143 0.9511
-9.2163 8.1649 -2.3143 0.9511
-9.8402 7.3944 -2.3136 0.9511
-10.1150 6.9819 -2.3102 0.9512
-10.4134 6.5850 -2.3158 0.9511
-10.7042 6.1801 -2.3232 0.9509
-10.9736 5.7594 -2.3294 0.9508
-12.1680 5.1843 -2.4861 0.9476
-12.5965 4.2053 -2.4961 0.9474
-12.7710 3.6992 -2.4991 0.9473
-12.9123 3.1826 -2.4996 0.9473
-13.0317 2.6604 -2.5000 0.9473
-13.1283 2.1335 -2.5000 0.9473
-13.2574 1.0702 -2.5000 0.9473
-11.8270 0.0000 -2.5000 0.9528
-11.7408 -1.4256 -2.5000 0.9528
-11.6738 -1.8972 -2.5000 0.9528
-11.4833 -2.8304 -2.5000 0.9528
-10.8806 -4.6358 -2.5000 0.9528
-10.6851 -5.0701 -2.5000 0.9528
-9.9961 -6.3211 -2.5000 0.9528
-9.7334 -6.7185 -2.5000 0.9528
-8.8526 -7.8427 -2.5000 0.9528
-7.8428 -8.8526 -2.5000 0.9528
-7.4799 -9.1612 -2.5000 0.9528
-7.1050 -9.4550 -2.5000 0.9528
-6.7185 -9.7334 -2.5000 0.9528
-6.3211 -9.9961 -2.5000 0.9528
-5.9135 -10.2425 -2.5000 0.9528
-4.6358 -10.8806 -2.5000 0.9528
-2.8304 -11.4833 -2.5000 0.9528
-2.3657 -11.5879 -2.5000 0.9528
-1.4256 -11.7408 -2.5000 0.9528
-0.4762 -11.8174 -2.5000 0.9528
0.0000 -11.8270 -2.5000 0.9528
0.4762 -11.8174 -2.5000 0.9528
1.4256 -11.7408 -2.5000 0.9528
4.1939 -11.0584 -2.5000 0.9528
4.6358 -10.8806 -2.5000 0.9528
5.9135 -10.2425 -2.5000 0.9528
6.3211 -9.9960 -2.5000 0.9528
6.7185 -9.7334 -2.5000 0.9528
7.1050 -9.4550 -2.5000 0.9528
7.8428 -8.8526 -2.5000 0.9528
8.1928 -8.5296 -2.5000 0.9528
9.7334 -6.7185 -2.5000 0.9528
10.2424 -5.9135 -2.5000 0.9528
11.3600 -3.2905 -2.5000 0.9528
11.4833 -2.8304 -2.5000 0.9528
11.5879 -2.3657 -2.5000 0.9528
11.7407 -1.4256 -2.5000 0.9528
11.7886 -0.9517 -2.5000 0.9528
11.7886 0.9517 -2.5000 0.9528
11.7407 1.4256 -2.5000 0.9528
11.6738 1.8972 -2.5000 0.9528
11.5879 2.3657 -2.5000 0.9528
11.0225 2.7168 -2.3997 0.9546
10.6675 3.0899 -2.3476 0.9556
9.8338 5.1612 -2.3476 0.9556
9.6180 5.5530 -2.3476 0.9556
9.3867 5.9358 -2.3476 0.9556
9.1400 6.3089 -2.3476 0.9556
8.8786 6.6718 -2.3476 0.9556
7.9539 7.6398 -2.3312 0.9559
7.3168 8.2590 -2.3323 0.9559
6.9493 8.5114 -2.3227 0.9561
6.6310 8.8243 -2.3332 0.9559
5.9002 9.3304 -2.3335 0.9559
5.5184 9.5581 -2.3330 0.9559
3.5256 8.2749 -1.9013 0.9639
3.0928 8.1552 -1.8437 0.9650
2.7843 8.3400 -1.8586 0.9647
2.2293 9.0445 -1.9690 0.9626
0.9962 8.2043 -1.7470 0.9668
0.3307 8.2070 -1.7362 0.9670
-0.0000 8.2083 -1.7351 0.9670
-0.2888 7.1655 -1.5159 0.9711
-0.5771 7.1481 -1.5159 0.9711
-0.9966 8.2078 -1.7477 0.9668
-2.0342 7.0229 -1.5455 0.9705
-4.3292 8.2485 -1.9691 0.9626
-5.4442 8.6093 -2.1532 0.9592
-7.5844 7.8962 -2.3143 0.9562
-7.8962 7.5844 -2.3143 0.9562
-8.4939 6.9350 -2.3179 0.9562
-8.8159 6.6247 -2.3310 0.9559
-9.0990 6.2806 -2.3370 0.9558
-9.3620 5.9202 -2.3414 0.9557
-9.6010 5.5431 -2.3434 0.9557
-9.8253 5.1567 -2.3455 0.9556
-10.0283 4.7584 -2.3463 0.9556
-10.2155 4.3524 -2.3472 0.9556
-11.0474 4.1897 -2.4975 0.9528
-11.2165 3.7446 -2.4996 0.9528
-11.3595 3.2903 -2.4999 0.9528
-11.4833 2.8304 -2.5000 0.9528
-11.5880 2.3657 -2.5000 0.9528
-11.6738 1.8972 -2.5000 0.9528
-11.7408 1.4256 -2.5000 0.9528
-11.8174 0.4762 -2.5000 0.9528
-10.5597 -1.2822 -2.5000 0.9572
-10.4222 -2.1277 -2.5000 0.9572
-10.3281 -2.5457 -2.5000 0.9572
-10.2172 -2.9595 -2.5000 0.9572
-9.9460 -3.7720 -2.5000 0.9572
-9.7860 -4.1694 -2.5000 0.9572
-9.4188 -4.9433 -2.5000 0.9572
-7.9621 -7.0538 -2.5000 0.9572
-7.6716 -7.3686 -2.5000 0.9572
-7.3687 -7.6716 -2.5000 0.9572
-6.3902 -8.5038 -2.5000 0.9572
-5.3186 -9.2121 -2.5000 0.9572
-4.9434 -9.4188 -2.5000 0.9572
-4.1694 -9.7860 -2.5000 0.9572
-3.7720 -9.9460 -2.5000 0.9572
-3.3685 -10.0898 -2.5000 0.9572
-2.9595 -10.2172 -2.5000 0.9572
0.4283 -10.6286 -2.5000 0.9572
0.8559 -10.6027 -2.5000 0.9572
1.2821 -10.5596 -2.5000 0.9572
1.7062 -10.4995 -2.5000 0.9572
2.1276 -10.4222 -2.5000 0.9572
2.9594 -10.2172 -2.5000 0.9572
3.7720 -9.9459 -2.5000 0.9572
4.5600 -9.6102 -2.5000 0.9572
6.0426 -8.7542 -2.5000 0.9572
6.3902 -8.5038 -2.5000 0.9572
7.9620 -7.0538 -2.5000 0.9572
8.5038 -6.3902 -2.5000 0.9572
8.7542 -6.0426 -2.5000 0.9572
9.4187 -4.9433 -2.5000 0.9572
9.7860 -4.1694 -2.5000 0.9572
10.0897 -3.3685 -2.5000 0.9572
10.2172 -2.9595 -2.5000 0.9572
10.3281 -2.5457 -2.5000 0.9572
10.5596 -1.2822 -2.5000 0.9572
10.6286 -0.4283 -2.5000 0.9572
10.6372 0.0000 -2.5000 0.9572
10.6285 0.4283 -2.5000 0.9572
10.6027 0.8559 -2.5000 0.9572
10.4994 1.7063 -2.5000 0.9572
10.3281 2.5457 -2.5000 0.9572
9.5944 2.7791 -2.3476 0.9598
9.4747 3.1631 -2.3476 0.9598
9.1894 3.9152 -2.3476 0.9598
8.8446 4.6420 -2.3476 0.9598
8.6505 4.9944 -2.3476 0.9598
8.4424 5.3386 -2.3476 0.9598
7.7373 6.3173 -2.3476 0.9598
7.4767 6.6237 -2.3476 0.9598
6.5735 7.4199 -2.3298 0.9601
6.2683 7.6773 -2.3294 0.9601
5.6319 8.1593 -2.3301 0.9601
5.2994 8.3804 -2.3303 0.9601
4.9582 8.5878 -2.3306 0.9601
3.8693 8.1543 -2.1213 0.9636
3.0928 8.1552 -2.0499 0.9648
2.5084 8.6602 -2.1190 0.9636
2.1925 8.8953 -2.1532 0.9631
0.9736 8.0183 -1.8983 0.9674
-0.2847 7.0643 -1.6616 0.9714
-1.3035 8.0204 -1.9097 0.9672
-2.9865 8.9456 -2.2165 0.9620
-3.5702 8.3794 -2.1407 0.9633
-3.8781 8.1728 -2.1261 0.9635
-4.2576 8.1121 -2.1532 0.9631
-4.7055 8.1500 -2.2118 0.9621
-5.9204 7.8786 -2.3162 0.9603
-7.4767 6.6237 -2.3476 0.9598
-8.2206 5.6742 -2.3476 0.9598
-8.4424 5.3386 -2.3476 0.9598
-8.8446 4.6420 -2.3476 0.9598
-9.1895 3.9153 -2.3476 0.9598
-10.0898 3.3685 -2.5000 0.9572
-10.2172 2.9594 -2.5000 0.9572
-10.6286 0.4283 -2.5000 0.9572
-9.6555 0.0000 -2.5000 0.9609
-9.6477 -0.3888 -2.5000 0.9609
-9.6242 -0.7770 -2.5000 0.9609
-9.3750 -2.3107 -2.5000 0.9609
-9.2743 -2.6863 -2.5000 0.9609
-9.0281 -3.4239 -2.5000 0.9609
-8.8829 -3.7846 -2.5000 0.9609
-8.7233 -4.1392 -2.5000 0.9609
-8.3619 -4.8278 -2.5000 0.9609
-8.1608 -5.1605 -2.5000 0.9609
-7.9463 -5.4850 -2.5000 0.9609
-7.7191 -5.8005 -2.5000 0.9609
-7.4792 -6.1066 -2.5000 0.9609
-7.2273 -6.4028 -2.5000 0.9609
-6.9636 -6.6886 -2.5000 0.9609
-6.6886 -6.9636 -2.5000 0.9609
-6.4028 -7.2273 -2.5000 0.9609
-5.4850 -7.9463 -2.5000 0.9609
-5.1606 -8.1608 -2.5000 0.9609
-4.8278 -8.3619 -2.5000 0.9609
-4.4871 -8.5495 -2.5000 0.9609
-3.7847 -8.8829 -2.5000 0.9609
-3.0576 -9.1586 -2.5000 0.9609
-2.6863 -9.2743 -2.5000 0.9609
-2.3107 -9.3749 -2.5000 0.9609
-1.9314 -9.4604 -2.5000 0.9609
-0.3888 -9.6477 -2.5000 0.9609
0.3888 -9.6477 -2.5000 0.9609
0.7770 -9.6242 -2.5000 0.9609
1.9313 -9.4604 -2.5000 0.9609
2.3107 -9.3749 -2.5000 0.9609
2.6864 -9.2743 -2.5000 0.9609
3.0576 -9.1586 -2.5000 0.9609
4.1392 -8.7233 -2.5000 0.9609
4.4871 -8.5495 -2.5000 0.9609
4.8277 -8.3619 -2.5000 0.9609
6.4028 -7.2273 -2.5000 0.9609
6.6886 -6.9636 -2.5000 0.9609
6.9636 -6.6886 -2.5000 0.9609
8.1607 -5.1605 -2.5000 0.9609
8.3619 -4.8278 -2.5000 0.9609
8.5495 -4.4871 -2.5000 0.9609
8.8829 -3.7846 -2.5000 0.9609
9.1586 -3.0576 -2.5000 0.9609
9.2743 -2.6863 -2.5000 0.9609
9.3749 -2.3107 -2.5000 0.9609
9.4604 -1.9314 -2.5000 0.9609
9.6242 -0.7770 -2.5000 0.9609
9.6477 -0.3888 -2.5000 0.9609
9.6242 0.7769 -2.5000 0.9609
9.5851 1.1638 -2.5000 0.9609
9.5305 1.5489 -2.5000 0.9609
9.3749 2.3107 -2.5000 0.9609
9.2743 2.6863 -2.5000 0.9609
8.6003 2.8712 -2.3476 0.9632
8.3414 3.5539 -2.3476 0.9632
8.1915 3.8869 -2.3476 0.9632
7.8521 4.5334 -2.3476 0.9632
7.2485 5.4469 -2.3476 0.9632
6.7867 6.0125 -2.3476 0.9632
6.5391 6.2809 -2.3476 0.9632
6.0125 6.7867 -2.3476 0.9632
5.7254 7.0123 -2.3439 0.9633
5.1080 7.4003 -2.3282 0.9635
4.8051 7.5987 -2.3278 0.9635
4.4949 7.7854 -2.3276 0.9635
4.1780 7.9606 -2.3278 0.9635
3.8543 8.1228 -2.3279 0.9635
3.4714 8.1477 -2.2931 0.9641
3.0928 8.1552 -2.2583 0.9646
1.7981 8.8078 -2.3275 0.9635
-1.2741 7.8396 -2.0565 0.9677
-1.6002 7.8383 -2.0713 0.9675
-1.9317 7.8370 -2.0899 0.9672
-2.0494 7.0752 -1.9072 0.9700
-2.8388 8.5032 -2.3211 0.9636
-3.1780 8.3798 -2.3205 0.9636
-3.8393 8.0912 -2.3188 0.9637
-4.1606 7.9273 -2.3180 0.9637
-4.7839 7.5650 -2.3175 0.9637
-5.4019 7.1887 -2.3282 0.9635
-6.2809 6.5391 -2.3476 0.9632
-6.5391 6.2809 -2.3476 0.9632
-7.6633 4.8460 -2.3476 0.9632
-7.8522 4.5334 -2.3476 0.9632
-8.0284 4.2136 -2.3476 0.9632
-8.1915 3.8869 -2.3476 0.9632
-8.3414 3.5539 -2.3476 0.9632
-8.4777 3.2152 -2.3476 0.9632
-9.1586 3.0576 -2.5000 0.9609
-8.8310 0.0000 -2.5000 0.9640
-8.8238 -0.3556 -2.5000 0.9640
-8.8023 -0.7106 -2.5000 0.9640
-8.7666 -1.0645 -2.5000 0.9640
-8.6525 -1.7664 -2.5000 0.9640
-8.5744 -2.1134 -2.5000 0.9640
-8.4823 -2.4569 -2.5000 0.9640
-8.3765 -2.7965 -2.5000 0.9640
-7.8195 -4.1040 -2.5000 0.9640
-7.6479 -4.4155 -2.5000 0.9640
-7.4639 -4.7199 -2.5000 0.9640
-7.0598 -5.3051 -2.5000 0.9640
-6.8405 -5.5851 -2.5000 0.9640
-6.6101 -5.8560 -2.5000 0.9640
-6.3689 -6.1174 -2.5000 0.9640
-5.8560 -6.6101 -2.5000 0.9640
-5.5851 -6.8405 -2.5000 0.9640
-4.7199 -7.4638 -2.5000 0.9640
-4.4155 -7.6479 -2.5000 0.9640
-4.1040 -7.8194 -2.5000 0.9640
-3.7858 -7.9784 -2.5000 0.9640
-3.4615 -8.1243 -2.5000 0.9640
-2.4570 -8.4823 -2.5000 0.9640
-1.4166 -8.7166 -2.5000 0.9640
-1.0645 -8.7666 -2.5000 0.9640
-0.7106 -8.8023 -2.5000 0.9640
-0.0000 -8.8310 -2.5000 0.9640
1.4166 -8.7166 -2.5000 0.9640
2.1134 -8.5744 -2.5000 0.9640
2.4569 -8.4823 -2.5000 0.9640
2.7965 -8.3765 -2.5000 0.9640
3.4614 -8.1243 -2.5000 0.9640
3.7858 -7.9783 -2.5000 0.9640
4.1039 -7.8194 -2.5000 0.9640
4.4155 -7.6479 -2.5000 0.9640
4.7198 -7.4638 -2.5000 0.9640
5.0166 -7.2677 -2.5000 0.9640
5.5851 -6.8405 -2.5000 0.9640
6.3689 -6.1174 -2.5000 0.9640
6.6101 -5.8560 -2.5000 0.9640
7.4638 -4.7199 -2.5000 0.9640
7.6478 -4.4155 -2.5000 0.9640
7.9783 -3.7858 -2.5000 0.9640
8.5743 -2.1134 -2.5000 0.9640
8.6525 -1.7664 -2.5000 0.9640
8.7666 -1.0645 -2.5000 0.9640
8.8023 0.7106 -2.5000 0.9640
8.7166 1.4166 -2.5000 0.9640
8.5743 2.1134 -2.5000 0.9640
8.4823 2.4569 -2.5000 0.9640
7.7537 2.9406 -2.3476 0.9661
7.6290 3.2504 -2.3476 0.9661
7.3428 3.8538 -2.3476 0.9661
7.0088 4.4321 -2.3476 0.9661
6.4235 5.2446 -2.3476 0.9661
5.9807 5.7445 -2.3476 0.9661
5.7445 5.9807 -2.3476 0.9661
5.4990 6.2071 -2.3476 0.9661
5.2446 6.4235 -2.3476 0.9661
4.9817 6.6295 -2.3476 0.9661
4.7107 6.8247 -2.3476 0.9661
4.4283 7.0028 -2.3455 0.9661
3.5230 7.4246 -2.3265 0.9664
3.2207 7.5593 -2.3261 0.9664
2.6012 7.7917 -2.3254 0.9664
2.2853 7.8898 -2.3254 0.9664
1.9657 7.9751 -2.3253 0.9664
1.6428 8.0472 -2.3251 0.9664
0.9290 7.6515 -2.1820 0.9685
-0.0000 7.6552 -2.1671 0.9687
-0.2853 7.0799 -2.0059 0.9710
-0.9295 7.6550 -2.1830 0.9685
-1.2439 7.6537 -2.1951 0.9683
-2.0518 7.0834 -2.0877 0.9698
-2.9054 7.6609 -2.3195 0.9665
-3.2111 7.5368 -2.3192 0.9665
-3.5116 7.4005 -2.3189 0.9665
-4.1238 7.1426 -2.3348 0.9663
-4.4321 7.0087 -2.3475 0.9661
-4.7108 6.8247 -2.3476 0.9661
-5.4991 6.2071 -2.3476 0.9661
-5.7445 5.9807 -2.3476 0.9661
-5.9807 5.7445 -2.3476 0.9661
-6.4235 5.2446 -2.3476 0.9661
-6.6295 4.9817 -2.3476 0.9661
-6.8247 4.7108 -2.3476 0.9661
-7.6291 3.2504 -2.3476 0.9661
-7.7538 2.9406 -2.3476 0.9661
-8.3765 2.7965 -2.5000 0.9640
-8.4823 2.4569 -2.5000 0.9640
-8.5744 2.1134 -2.5000 0.9640
-8.6525 1.7664 -2.5000 0.9640
-8.7666 1.0645 -2.5000 0.9640
-8.8024 0.7106 -2.5000 0.9640
-8.8238 0.3556 -2.5000 0.9640
-8.1280 0.0000 -2.5000 0.9666
-8.1016 -0.6540 -2.5000 0.9666
-8.0227 -1.3038 -2.5000 0.9666
-7.9637 -1.6258 -2.5000 0.9666
-7.8071 -2.2613 -2.5000 0.9666
-7.7097 -2.5739 -2.5000 0.9666
-7.0390 -4.0640 -2.5000 0.9666
-6.6892 -4.6172 -2.5000 0.9666
-6.4979 -4.8828 -2.5000 0.9666
-6.2960 -5.1405 -2.5000 0.9666
-6.0839 -5.3898 -2.5000 0.9666
-5.8619 -5.6304 -2.5000 0.9666
-5.6305 -5.8619 -2.5000 0.9666
-5.1405 -6.2960 -2.5000 0.9666
-4.8828 -6.4979 -2.5000 0.9666
-4.0640 -7.0390 -2.5000 0.9666
-1.9452 -7.8918 -2.5000 0.9666
-1.6258 -7.9637 -2.5000 0.9666
-0.3273 -8.1214 -2.5000 0.9666
-0.0000 -8.1280 -2.5000 0.9666
0.6540 -8.1016 -2.5000 0.9666
0.9797 -8.0687 -2.5000 0.9666
1.3038 -8.0227 -2.5000 0.9666
1.9451 -7.8918 -2.5000 0.9666
2.2613 -7.8071 -2.5000 0.9666
5.1405 -6.2960 -2.5000 0.9666
5.8619 -5.6304 -2.5000 0.9666
6.0838 -5.3898 -2.5000 0.9666
6.6892 -4.6172 -2.5000 0.9666
7.5997 -2.8822 -2.5000 0.9666
7.8918 -1.9452 -2.5000 0.9666
8.1016 -0.6540 -2.5000 0.9666
8.1213 -0.3273 -2.5000 0.9666
8.1279 -0.0000 -2.5000 0.9666
8.1213 0.3273 -2.5000 0.9666
8.0687 0.9797 -2.5000 0.9666
7.8918 1.9451 -2.5000 0.9666
7.8070 2.2613 -2.5000 0.9666
7.7096 2.5738 -2.5000 0.9666
7.1800 2.7230 -2.3619 0.9684
7.0217 2.9917 -2.3476 0.9686
6.6099 3.8162 -2.3476 0.9686
6.4509 4.0793 -2.3476 0.9686
6.1017 4.5851 -2.3476 0.9686
5.9121 4.8271 -2.3476 0.9686
5.7130 5.0612 -2.3476 0.9686
5.5045 5.2872 -2.3476 0.9686
5.0613 5.7130 -2.3476 0.9686
4.8271 5.9121 -2.3476 0.9686
4.3357 6.2814 -2.3476 0.9686
3.8162 6.6099 -2.3476 0.9686
3.5470 6.7582 -2.3476 0.9686
3.2720 6.8956 -2.3476 0.9686
2.9884 7.0141 -2.3450 0.9686
2.3940 7.1712 -2.3254 0.9689
2.1031 7.2606 -2.3250 0.9689
1.8087 7.3383 -2.3247 0.9689
1.1521 7.0891 -2.2091 0.9704
0.9083 7.4810 -2.3179 0.9690
0.3015 7.4835 -2.3036 0.9691
-0.2856 7.0879 -2.1819 0.9707
-0.5722 7.0881 -2.1873 0.9707
-0.9088 7.4845 -2.3190 0.9689
-1.2107 7.4495 -2.3214 0.9689
-1.8057 7.3260 -2.3208 0.9689
-2.3965 7.1783 -2.3277 0.9688
-4.0793 6.4509 -2.3476 0.9686
-4.3358 6.2814 -2.3476 0.9686
-4.5852 6.1017 -2.3476 0.9686
-4.8271 5.9121 -2.3476 0.9686
-5.5046 5.2872 -2.3476 0.9686
-5.9122 4.8271 -2.3476 0.9686
-6.6099 3.8162 -2.3476 0.9686
-6.7582 3.5470 -2.3476 0.9686
-6.8956 3.2720 -2.3476 0.9686
-7.0217 2.9917 -2.3476 0.9686
-7.1719 2.7199 -2.3592 0.9684
-7.7097 2.5739 -2.5000 0.9666
-7.8071 2.2613 -2.5000 0.9666
-7.9637 1.6258 -2.5000 0.9666
-8.0227 1.3038 -2.5000 0.9666
-8.1016 0.6540 -2.5000 0.9666
-7.5148 -0.3028 -2.5000 0.9688
-7.4661 -0.9066 -2.5000 0.9688
-7.3689 -1.5044 -2.5000 0.9688
-7.2240 -2.0925 -2.5000 0.9688
-6.9191 -2.9479 -2.5000 0.9688
-6.7948 -3.2241 -2.5000 0.9688
-6.6594 -3.4951 -2.5000 0.9688
-6.5133 -3.7604 -2.5000 0.9688
-5.4241 -5.2099 -2.5000 0.9688
-5.2099 -5.4241 -2.5000 0.9688
-4.0197 -6.3566 -2.5000 0.9688
-3.7605 -6.5133 -2.5000 0.9688
-3.4951 -6.6594 -2.5000 0.9688
-3.2242 -6.7948 -2.5000 0.9688
-2.9480 -6.9191 -2.5000 0.9688
-2.3816 -7.1338 -2.5000 0.9688
-1.7999 -7.3023 -2.5000 0.9688
-1.5044 -7.3689 -2.5000 0.9688
-1.2065 -7.4235 -2.5000 0.9688
-0.9066 -7.4661 -2.5000 0.9688
-0.6052 -7.4965 -2.5000 0.9688
2.3816 -7.1338 -2.5000 0.9688
2.6670 -7.0321 -2.5000 0.9688
3.7604 -6.5133 -2.5000 0.9688
4.0196 -6.3566 -2.5000 0.9688
4.2723 -6.1896 -2.5000 0.9688
5.2099 -5.4241 -2.5000 0.9688
5.4241 -5.2099 -2.5000 0.9688
6.5133 -3.7604 -2.5000 0.9688
6.6594 -3.4951 -2.5000 0.9688
6.9191 -2.9479 -2.5000 0.9688
7.2239 -2.0924 -2.5000 0.9688
7.3689 -1.5044 -2.5000 0.9688
7.4660 -0.9066 -2.5000 0.9688
7.4965 -0.6052 -2.5000 0.9688
7.5148 -0.3028 -2.5000 0.9688
7.5148 0.3028 -2.5000 0.9688
7.4965 0.6052 -2.5000 0.9688
7.4661 0.9065 -2.5000 0.9688
7.4235 1.2064 -2.5000 0.9688
7.3023 1.7999 -2.5000 0.9688
7.2239 2.0924 -2.5000 0.9688
6.4972 2.7682 -2.3476 0.9707
6.3805 3.0276 -2.3476 0.9707
6.2534 3.2821 -2.3476 0.9707
6.1162 3.5312 -2.3476 0.9707
5.9691 3.7746 -2.3476 0.9707
5.8122 4.0119 -2.3476 0.9707
5.6460 4.2427 -2.3476 0.9707
5.4706 4.4666 -2.3476 0.9707
5.2863 4.6832 -2.3476 0.9707
4.6832 5.2863 -2.3476 0.9707
4.4666 5.4706 -2.3476 0.9707
4.2427 5.6460 -2.3476 0.9707
3.5312 6.1162 -2.3476 0.9707
3.2821 6.2534 -2.3476 0.9707
3.0276 6.3805 -2.3476 0.9707
2.5044 6.6035 -2.3476 0.9707
1.6901 6.8572 -2.3476 0.9707
1.4127 6.9197 -2.3476 0.9707
1.1327 6.9708 -2.3475 0.9707
0.8509 7.0081 -2.3466 0.9707
-0.0000 7.0481 -2.3428 0.9707
-0.5677 7.0313 -2.3449 0.9707
-2.5044 6.6035 -2.3476 0.9707
-2.7683 6.4973 -2.3476 0.9707
-3.2821 6.2534 -2.3476 0.9707
-4.0119 5.8122 -2.3476 0.9707
-4.2427 5.6460 -2.3476 0.9707
-4.4666 5.4706 -2.3476 0.9707
-5.0934 4.8923 -2.3476 0.9707
-5.2863 4.6832 -2.3476 0.9707
-5.4706 4.4666 -2.3476 0.9707
-5.6460 4.2427 -2.3476 0.9707
-5.8123 4.0119 -2.3476 0.9707
-5.9691 3.7746 -2.3476 0.9707
-6.1163 3.5312 -2.3476 0.9707
-6.3805 3.0276 -2.3476 0.9707
-6.4973 2.7682 -2.3476 0.9707
-7.0322 2.6669 -2.5000 0.9688
-7.1338 2.3816 -2.5000 0.9688
-7.2240 2.0924 -2.5000 0.9688
-7.3689 1.5044 -2.5000 0.9688
-7.4235 1.2064 -2.5000 0.9688
-7.4661 0.9066 -2.5000 0.9688
-7.4965 0.6052 -2.5000 0.9688
-7.5148 0.3028 -2.5000 0.9688
-6.9909 0.0000 -2.5000 0.9707
-6.9852 -0.2815 -2.5000 0.9707
-6.9682 -0.5625 -2.5000 0.9707
-6.8496 -1.3984 -2.5000 0.9707
-6.7877 -1.6730 -2.5000 0.9707
-6.7149 -1.9450 -2.5000 0.9707
-6.6311 -2.2138 -2.5000 0.9707
-6.5366 -2.4790 -2.5000 0.9707
-6.4315 -2.7402 -2.5000 0.9707
-6.3159 -2.9969 -2.5000 0.9707
-5.7534 -3.9713 -2.5000 0.9707
-5.4152 -4.4213 -2.5000 0.9707
-4.6358 -5.2327 -2.5000 0.9707
-4.4214 -5.4152 -2.5000 0.9707
-4.1997 -5.5888 -2.5000 0.9707
-3.9713 -5.7534 -2.5000 0.9707
-3.7364 -5.9086 -2.5000 0.9707
-3.4954 -6.0543 -2.5000 0.9707
-2.4790 -6.5366 -2.5000 0.9707
-2.2138 -6.6311 -2.5000 0.9707
-1.9450 -6.7149 -2.5000 0.9707
-1.6730 -6.7877 -2.5000 0.9707
-1.1214 -6.9003 -2.5000 0.9707
-0.5625 -6.9682 -2.5000 0.9707
-0.2815 -6.9852 -2.5000 0.9707
0.8426 -6.9399 -2.5000 0.9707
1.6730 -6.7877 -2.5000 0.9707
2.4790 -6.5366 -2.5000 0.9707
2.7402 -6.4315 -2.5000 0.9707
2.9969 -6.3159 -2.5000 0.9707
3.2488 -6.1901 -2.5000 0.9707
3.7364 -5.9086 -2.5000 0.9707
4.4213 -5.4152 -2.5000 0.9707
4.8427 -5.0418 -2.5000 0.9707
5.4152 -4.4213 -2.5000 0.9707
5.9086 -3.7364 -2.5000 0.9707
6.0542 -3.4954 -2.5000 0.9707
6.1901 -3.2488 -2.5000 0.9707
6.3159 -2.9969 -2.5000 0.9707
6.4314 -2.7402 -2.5000 0.9707
6.5366 -2.4790 -2.5000 0.9707
6.7148 -1.9450 -2.5000 0.9707
6.7877 -1.6730 -2.5000 0.9707
6.9399 -0.8427 -2.5000 0.9707
6.9852 0.2815 -2.5000 0.9707
6.7877 1.6730 -2.5000 0.9707
6.7148 1.9450 -2.5000 0.9707
6.6311 2.2138 -2.5000 0.9707
5.9309 2.8142 -2.3476 0.9725
5.8127 3.0508 -2.3476 0.9725
5.5484 3.5086 -2.3476 0.9725
5.2481 3.9437 -2.3476 0.9725
5.0850 4.1518 -2.3476 0.9725
4.7345 4.5475 -2.3476 0.9725
4.5475 4.7345 -2.3476 0.9725
4.3532 4.9137 -2.3476 0.9725
3.7292 5.4026 -2.3476 0.9725
3.2823 5.6852 -2.3476 0.9725
3.0508 5.8127 -2.3476 0.9725
2.8142 5.9309 -2.3476 0.9725
2.3279 6.1381 -2.3476 0.9725
2.0788 6.2269 -2.3476 0.9725
1.8264 6.3055 -2.3476 0.9725
0.7913 6.5168 -2.3476 0.9725
-0.0000 6.5647 -2.3476 0.9725
-0.7913 6.5168 -2.3476 0.9725
-1.0531 6.4797 -2.3476 0.9725
-1.3131 6.4320 -2.3476 0.9725
-1.5711 6.3739 -2.3476 0.9725
-1.8264 6.3055 -2.3476 0.9725
-2.5732 6.0394 -2.3476 0.9725
-2.8143 5.9309 -2.3476 0.9725
-3.2824 5.6852 -2.3476 0.9725
-4.1518 5.0850 -2.3476 0.9725
-4.5475 4.7345 -2.3476 0.9725
-4.7345 4.5475 -2.3476 0.9725
-5.0851 4.1518 -2.3476 0.9725
-5.2481 3.9437 -2.3476 0.9725
-5.4026 3.7292 -2.3476 0.9725
-5.5484 3.5086 -2.3476 0.9725
-5.8128 3.0508 -2.3476 0.9725
-6.6311 2.2138 -2.5000 0.9707
-6.7149 1.9450 -2.5000 0.9707
-6.7877 1.6730 -2.5000 0.9707
-6.9682 0.5625 -2.5000 0.9707
-3.5504 0.0000 -1.3606 0.9849
-3.5687 -0.2881 -1.3720 0.9848
-3.5921 -0.4362 -1.3867 0.9846
-6.3918 -1.3049 -2.5000 0.9724
-6.3341 -1.5612 -2.5000 0.9724
-6.2661 -1.8150 -2.5000 0.9724
-6.0997 -2.3133 -2.5000 0.9724
-5.3689 -3.7059 -2.5000 0.9724
-5.2153 -3.9190 -2.5000 0.9724
-4.8830 -4.3260 -2.5000 0.9724
-4.7049 -4.5191 -2.5000 0.9724
-4.5191 -4.7049 -2.5000 0.9724
-4.3260 -4.8830 -2.5000 0.9724
-4.1259 -5.0533 -2.5000 0.9724
-3.2618 -5.6497 -2.5000 0.9724
-3.0317 -5.7764 -2.5000 0.9724
-2.5571 -6.0016 -2.5000 0.9724
-2.0658 -6.1879 -2.5000 0.9724
-1.5612 -6.3341 -2.5000 0.9724
-1.3049 -6.3918 -2.5000 0.9724
-1.0465 -6.4392 -2.5000 0.9724
-0.7864 -6.4761 -2.5000 0.9724
-0.5249 -6.5025 -2.5000 0.9724
0.7863 -6.4761 -2.5000 0.9724
1.3049 -6.3918 -2.5000 0.9724
1.5612 -6.3341 -2.5000 0.9724
2.0658 -6.1879 -2.5000 0.9724
2.3133 -6.0997 -2.5000 0.9724
2.5570 -6.0016 -2.5000 0.9724
3.2618 -5.6497 -2.5000 0.9724
3.4867 -5.5137 -2.5000 0.9724
3.9190 -5.2153 -2.5000 0.9724
4.3260 -4.8830 -2.5000 0.9724
4.5191 -4.7049 -2.5000 0.9724
4.8830 -4.3260 -2.5000 0.9724
5.0533 -4.1259 -2.5000 0.9724
5.2153 -3.9190 -2.5000 0.9724
5.5137 -3.4867 -2.5000 0.9724
5.8938 -2.7967 -2.5000 0.9724
6.0997 -2.3133 -2.5000 0.9724
6.3341 -1.5612 -2.5000 0.9724
6.3918 -1.3049 -2.5000 0.9724
6.4392 -1.0465 -2.5000 0.9724
6.5184 -0.2627 -2.5000 0.9724
6.5237 -0.0000 -2.5000 0.9724
6.5184 0.2627 -2.5000 0.9724
6.5025 0.5249 -2.5000 0.9724
6.4761 0.7863 -2.5000 0.9724
6.4392 1.0465 -2.5000 0.9724
6.3918 1.3049 -2.5000 0.9724
6.2661 1.8150 -2.5000 0.9724
6.1879 2.0658 -2.5000 0.9724
6.0997 2.3133 -2.5000 0.9724
5.7120 2.7104 -2.4229 0.9733
5.3052 3.0630 -2.3476 0.9741
5.1776 3.2741 -2.3476 0.9741
4.8974 3.6801 -2.3476 0.9741
4.7452 3.8743 -2.3476 0.9741
4.5853 4.0623 -2.3476 0.9741
4.4181 4.2436 -2.3476 0.9741
3.8743 4.7452 -2.3476 0.9741
3.4799 5.0416 -2.3476 0.9741
2.4012 5.6358 -2.3476 0.9741
2.1723 5.7279 -2.3476 0.9741
1.9399 5.8107 -2.3476 0.9741
1.4660 5.9480 -2.3476 0.9741
0.7384 6.0813 -2.3476 0.9741
0.4929 6.1061 -2.3476 0.9741
-0.2467 6.1210 -2.3476 0.9741
-0.7384 6.0813 -2.3476 0.9741
-1.2254 6.0022 -2.3476 0.9741
-1.4661 5.9479 -2.3476 0.9741
-1.9399 5.8107 -2.3476 0.9741
-2.6262 5.5345 -2.3476 0.9741
-2.8469 5.4243 -2.3476 0.9741
-3.2741 5.1776 -2.3476 0.9741
-3.4800 5.0416 -2.3476 0.9741
-4.0623 4.5854 -2.3476 0.9741
-4.2436 4.4181 -2.3476 0.9741
-4.4181 4.2436 -2.3476 0.9741
-4.5854 4.0623 -2.3476 0.9741
-5.3053 3.0630 -2.3476 0.9741
-5.4243 2.8469 -2.3476 0.9741
-5.7038 2.7065 -2.4194 0.9733
-6.0017 2.5570 -2.5000 0.9724
-6.0997 2.3133 -2.5000 0.9724
-6.2661 1.8150 -2.5000 0.9724
-6.3341 1.5612 -2.5000 0.9724
-6.3919 1.3049 -2.5000 0.9724
-6.4392 1.0465 -2.5000 0.9724
-3.5687 0.2881 -1.3720 0.9848
-2.8160 0.0000 -1.1525 0.9879
-2.8204 -0.1137 -1.1552 0.9879
-3.0070 -0.6139 -1.2561 0.9868
-5.8672 -1.6994 -2.5000 0.9739
-5.7114 -2.1661 -2.5000 0.9739
-5.6196 -2.3943 -2.5000 0.9739
-5.5186 -2.6186 -2.5000 0.9739
-5.4087 -2.8387 -2.5000 0.9739
-5.2900 -3.0542 -2.5000 0.9739
-5.0271 -3.4699 -2.5000 0.9739
-4.8833 -3.6695 -2.5000 0.9739
-4.7315 -3.8632 -2.5000 0.9739
-4.5721 -4.0506 -2.5000 0.9739
-4.4054 -4.2314 -2.5000 0.9739
-4.2314 -4.4053 -2.5000 0.9739
-3.2647 -5.1627 -2.5000 0.9739
-2.8387 -5.4087 -2.5000 0.9739
-2.6186 -5.5186 -2.5000 0.9739
-2.1660 -5.7114 -2.5000 0.9739
-1.2218 -5.9849 -2.5000 0.9739
-0.7363 -6.0638 -2.5000 0.9739
0.2460 -6.1034 -2.5000 0.9739
2.3942 -5.6195 -2.5000 0.9739
2.6186 -5.5186 -2.5000 0.9739
3.0542 -5.2900 -2.5000 0.9739
3.2647 -5.1627 -2.5000 0.9739
3.6695 -4.8833 -2.5000 0.9739
3.8632 -4.7316 -2.5000 0.9739
4.0505 -4.5721 -2.5000 0.9739
4.2314 -4.4053 -2.5000 0.9739
4.4053 -4.2314 -2.5000 0.9739
4.5721 -4.0506 -2.5000 0.9739
4.7315 -3.8632 -2.5000 0.9739
5.0270 -3.4699 -2.5000 0.9739
5.1627 -3.2647 -2.5000 0.9739
5.7940 -1.9343 -2.5000 0.9739
5.9308 -1.4618 -2.5000 0.9739
5.9849 -1.2218 -2.5000 0.9739
6.0637 -0.7363 -2.5000 0.9739
6.1034 -0.2459 -2.5000 0.9739
6.1083 -0.0000 -2.5000 0.9739
6.0885 0.4915 -2.5000 0.9739
6.0638 0.7363 -2.5000 0.9739
5.9849 1.2218 -2.5000 0.9739
5.7114 2.1660 -2.5000 0.9739
5.6195 2.3942 -2.5000 0.9739
5.5186 2.6186 -2.5000 0.9739
4.8480 3.0657 -2.3476 0.9755
4.7206 3.2584 -2.3476 0.9755
4.5856 3.4458 -2.3476 0.9755
4.4431 3.6277 -2.3476 0.9755
4.2934 3.8036 -2.3476 0.9755
3.9734 4.1368 -2.3476 0.9755
3.8036 4.2934 -2.3476 0.9755
3.6277 4.4431 -2.3476 0.9755
3.4458 4.5856 -2.3476 0.9755
2.8680 4.9675 -2.3476 0.9755
2.2483 5.2770 -2.3476 0.9755
2.0340 5.3632 -2.3476 0.9755
1.8164 5.4408 -2.3476 0.9755
1.3727 5.5693 -2.3476 0.9755
1.1473 5.6200 -2.3476 0.9755
0.6914 5.6941 -2.3476 0.9755
0.2310 5.7313 -2.3476 0.9755
-0.0000 5.7360 -2.3476 0.9755
-0.9201 5.6617 -2.3476 0.9755
-1.5959 5.5095 -2.3476 0.9755
-1.8164 5.4408 -2.3476 0.9755
-2.0340 5.3632 -2.3476 0.9755
-2.6656 5.0789 -2.3476 0.9755
-2.8680 4.9675 -2.3476 0.9755
-3.6277 4.4431 -2.3476 0.9755
-3.9735 4.1368 -2.3476 0.9755
-4.1368 3.9734 -2.3476 0.9755
-4.2934 3.8036 -2.3476 0.9755
-4.4431 3.6277 -2.3476 0.9755
-4.5856 3.4458 -2.3476 0.9755
-4.7206 3.2584 -2.3476 0.9755
-5.5186 2.6186 -2.5000 0.9739
-5.7114 2.1660 -2.5000 0.9739
-5.7940 1.9343 -2.5000 0.9739
-5.8672 1.6994 -2.5000 0.9739
-5.9308 1.4618 -2.5000 0.9739
-3.0070 0.6139 -1.2561 0.9868
-2.9322 0.3560 -1.2089 0.9873
-2.8096 0.2268 -1.1536 0.9879
-2.3650 -0.0000 -1.0307 0.9897
-2.3650 -0.1909 -1.0340 0.9897
-5.4411 -1.8165 -2.5000 0.9753
-5.2773 -2.2485 -2.5000 0.9753
-4.8483 -3.0659 -2.5000 0.9753
-4.5859 -3.4461 -2.5000 0.9753
-3.9737 -4.1370 -2.5000 0.9753
-3.6279 -4.4434 -2.5000 0.9753
-2.8682 -4.9678 -2.5000 0.9753
-2.4591 -5.1825 -2.5000 0.9753
-2.2485 -5.2773 -2.5000 0.9753
-1.8165 -5.4411 -2.5000 0.9753
-1.5960 -5.5098 -2.5000 0.9753
-1.3728 -5.5696 -2.5000 0.9753
-0.9202 -5.6620 -2.5000 0.9753
0.2310 -5.7317 -2.5000 0.9753
0.9202 -5.6620 -2.5000 0.9753
1.1474 -5.6204 -2.5000 0.9753
1.5959 -5.5099 -2.5000 0.9753
2.6658 -5.0793 -2.5000 0.9753
2.8682 -4.9678 -2.5000 0.9753
3.0659 -4.8483 -2.5000 0.9753
3.2586 -4.7209 -2.5000 0.9753
4.2937 -3.8039 -2.5000 0.9753
4.7209 -3.2586 -2.5000 0.9753
4.9678 -2.8682 -2.5000 0.9753
5.0792 -2.6658 -2.5000 0.9753
5.1825 -2.4591 -2.5000 0.9753
5.4411 -1.8165 -2.5000 0.9753
5.5696 -1.3728 -2.5000 0.9753
5.6204 -1.1474 -2.5000 0.9753
5.6945 -0.6914 -2.5000 0.9753
5.7177 -0.4616 -2.5000 0.9753
5.7363 -0.0000 -2.5000 0.9753
5.7317 0.2310 -2.5000 0.9753
5.7177 0.4616 -2.5000 0.9753
5.6945 0.6914 -2.5000 0.9753
5.6204 1.1474 -2.5000 0.9753
5.5098 1.5959 -2.5000 0.9753
5.3635 2.0341 -2.5000 0.9753
5.1825 2.4591 -2.5000 0.9753
4.7106 2.7197 -2.3706 0.9765
4.4331 3.0600 -2.3476 0.9768
4.3063 3.2360 -2.3476 0.9768
4.1725 3.4067 -2.3476 0.9768
3.8848 3.7314 -2.3476 0.9768
3.7314 3.8848 -2.3476 0.9768
3.4067 4.1725 -2.3476 0.9768
3.2360 4.3063 -2.3476 0.9768
2.8789 4.5527 -2.3476 0.9768
2.6933 4.6650 -2.3476 0.9768
2.5033 4.7696 -2.3476 0.9768
2.3092 4.8666 -2.3476 0.9768
1.9101 5.0366 -2.3476 0.9768
1.0775 5.2778 -2.3476 0.9768
0.8641 5.3169 -2.3476 0.9768
0.6493 5.3473 -2.3476 0.9768
0.4334 5.3692 -2.3476 0.9768
-0.0000 5.3866 -2.3476 0.9768
-0.4335 5.3692 -2.3476 0.9768
-0.6493 5.3473 -2.3476 0.9768
-1.2891 5.2301 -2.3476 0.9768
-1.7058 5.1094 -2.3476 0.9768
-1.9101 5.0366 -2.3476 0.9768
-2.1114 4.9556 -2.3476 0.9768
-2.3092 4.8666 -2.3476 0.9768
-2.6933 4.6650 -2.3476 0.9768
-3.0600 4.4331 -2.3476 0.9768
-3.2360 4.3063 -2.3476 0.9768
-3.4068 4.1725 -2.3476 0.9768
-3.5720 4.0319 -2.3476 0.9768
-4.0320 3.5720 -2.3476 0.9768
-4.1725 3.4068 -2.3476 0.9768
-4.7050 2.7164 -2.3677 0.9766
-5.1825 2.4591 -2.5000 0.9753
-5.2773 2.2484 -2.5000 0.9753
-5.3636 2.0341 -2.5000 0.9753
-5.5099 1.5959 -2.5000 0.9753
-2.4207 0.4942 -1.0767 0.9893
-2.4021 0.3904 -1.0606 0.9894
-2.3649 0.1909 -1.0340 0.9897
-2.3670 0.0954 -1.0324 0.9897
-2.2302 -0.3624 -1.0459 0.9901
-2.3851 -0.5879 -1.1371 0.9892
-5.1229 -1.7103 -2.5000 0.9765
-4.8794 -2.3153 -2.5000 0.9765
-4.6773 -2.7004 -2.5000 0.9765
-4.4449 -3.0681 -2.5000 0.9765
-4.0426 -3.5814 -2.5000 0.9765
-3.8951 -3.7413 -2.5000 0.9765
-3.7413 -3.8951 -2.5000 0.9765
-3.5815 -4.0426 -2.5000 0.9765
-3.0681 -4.4448 -2.5000 0.9765
-2.7005 -4.6773 -2.5000 0.9765
-2.1170 -4.9687 -2.5000 0.9765
-1.9152 -5.0499 -2.5000 0.9765
-1.7103 -5.1229 -2.5000 0.9765
-1.5026 -5.1876 -2.5000 0.9765
-1.2925 -5.2439 -2.5000 0.9765
-1.0803 -5.2917 -2.5000 0.9765
-0.8664 -5.3309 -2.5000 0.9765
-0.6510 -5.3615 -2.5000 0.9765
-0.4346 -5.3834 -2.5000 0.9765
-0.2175 -5.3965 -2.5000 0.9765
0.0000 -5.4009 -2.5000 0.9765
0.2175 -5.3965 -2.5000 0.9765
0.4346 -5.3834 -2.5000 0.9765
0.8663 -5.3309 -2.5000 0.9765
1.5027 -5.1876 -2.5000 0.9765
1.7103 -5.1229 -2.5000 0.9765
1.9152 -5.0499 -2.5000 0.9765
2.1169 -4.9687 -2.5000 0.9765
2.5099 -4.7822 -2.5000 0.9765
2.7004 -4.6773 -2.5000 0.9765
