ply
format ascii 1.0
element vertex 1568
property float32 x
property float32 y
property float32 z
property float32 I
end_header
3.9304 8.2832 0.7761 0.9639
3.5846 8.4134 0.7742 0.9640
3.0543 9.1487 0.8165 0.9620
0.3864 9.5896 0.8124 0.9622
-0.0000 9.6811 0.8195 0.9619
-0.3907 9.6951 0.8214 0.9618
-0.7736 9.5827 0.8138 0.9621
-1.5642 9.6247 0.8255 0.9616
-2.1734 8.8176 0.7688 0.9642
-2.4411 8.4276 0.7427 0.9654
-2.7594 8.2654 0.7377 0.9656
-3.1281 8.2480 0.7467 0.9652
-3.5143 8.2484 0.7590 0.9646
-22.5608 42.9861 4.1096 0.8229
-10.2179 17.6980 1.7300 0.9212
-22.2789 27.2867 2.9820 0.8681
-22.9294 23.8720 2.8020 0.8756
-25.6373 24.6250 3.0092 0.8670
-30.1278 26.6909 3.4073 0.8508
-21.6714 17.6941 2.3684 0.8938
-20.5516 15.4436 2.1762 0.9019
-20.8034 14.3596 2.1399 0.9035
-21.4673 12.3941 2.0984 0.9053
-23.7353 12.4572 2.2692 0.8980
-29.7290 14.1066 2.7856 0.8763
-31.7246 13.5166 2.9192 0.8707
-22.3702 8.4839 2.0253 0.9084
-31.2268 7.6967 2.7225 0.8789
-31.0130 6.3314 2.6795 0.8807
-40.3630 6.5596 3.4617 0.8486
-41.7940 -21.9352 2.9269 0.8277
-40.9108 -23.6199 2.9293 0.8275
-19.5651 -17.3332 1.6209 0.9005
-18.5799 -17.8462 1.5975 0.9019
-18.3117 -19.0645 1.6392 0.8995
-14.8250 -19.7285 1.5303 0.9058
-14.2190 -20.5997 1.5522 0.9046
-13.6201 -21.5383 1.5802 0.9029
-14.8253 -28.2473 1.9782 0.8800
-12.0252 -28.2242 1.9024 0.8843
-10.8781 -28.6831 1.9023 0.8843
-14.3975 -43.1257 2.8193 0.8334
-10.8704 -37.5289 2.4228 0.8551
-8.9825 -36.4435 2.3275 0.8603
-1.7185 -21.2867 1.3243 0.9180
0.0000 -19.0217 1.1795 0.9266
1.9120 -23.6835 1.4734 0.9092
11.4191 -39.4233 2.5451 0.8483
14.5871 -43.6937 2.8565 0.8314
7.5945 -17.8248 1.2015 0.9253
8.3768 -17.6537 1.2117 0.9247
9.3073 -17.7336 1.2419 0.9229
10.6622 -16.8608 1.2371 0.9232
11.6464 -16.8726 1.2713 0.9211
13.6661 -16.7379 1.3399 0.9170
24.9239 -15.7609 1.8286 0.8885
20.3470 8.6690 1.3715 0.9152
19.9980 9.4892 1.3726 0.9151
14.5557 8.4037 1.0423 0.9349
13.0826 8.2729 0.9598 0.9399
12.2279 9.1887 0.9485 0.9405
12.1565 9.9254 0.9732 0.9390
12.2616 11.7774 1.0543 0.9341
12.1565 12.6562 1.0882 0.9321
8.6708 9.7873 0.8108 0.9489
8.4260 10.3200 0.8262 0.9480
7.4495 10.7924 0.8132 0.9488
4.7775 8.2749 0.5925 0.9624
4.3430 8.2749 0.5795 0.9632
3.5846 8.4134 0.5671 0.9640
3.0543 9.1487 0.5981 0.9621
1.9591 9.5965 0.6074 0.9615
1.5733 9.6811 0.6082 0.9615
0.7770 9.6248 0.5988 0.9620
0.3864 9.5896 0.5951 0.9623
-0.3901 9.6811 0.6008 0.9619
-2.1734 8.8176 0.5631 0.9643
-2.4411 8.4276 0.5441 0.9654
-2.7594 8.2654 0.5404 0.9657
-3.5256 8.2749 0.5578 0.9646
-9.8957 18.8547 1.3204 0.9182
-24.1850 41.8896 2.9994 0.8238
-11.0289 17.4408 1.2796 0.9206
-22.7558 27.8708 2.2312 0.8657
-22.5573 25.4619 2.1094 0.8726
-32.4913 26.5283 2.6011 0.8453
-22.3811 15.4486 1.6864 0.8967
-21.7279 13.7399 1.5941 0.9021
-22.7098 13.1115 1.6261 0.9002
-31.7246 13.5166 2.1384 0.8709
-42.3519 14.1392 2.7687 0.8362
-30.5444 8.8473 1.9719 0.8803
-31.0510 7.6534 1.9831 0.8797
-31.7678 6.4855 2.0106 0.8781
-38.7151 6.2918 2.4322 0.8545
-43.0090 -20.4080 1.8771 0.8265
-19.6992 -17.4519 1.0377 0.9000
-17.9741 -18.7131 1.0231 0.9013
-18.3387 -20.7001 1.0905 0.8952
-19.7203 -24.1529 1.2295 0.8827
-16.5760 -28.7103 1.3072 0.8757
-17.3435 -33.0453 1.4716 0.8612
-12.4693 -26.2784 1.1469 0.8901
-12.0409 -28.2609 1.2113 0.8843
-11.0088 -29.0279 1.2241 0.8831
-13.9980 -41.9290 1.7430 0.8378
-10.9184 -37.6946 1.5474 0.8546
-7.0501 -28.6034 1.1616 0.8888
-5.4756 -26.8210 1.0794 0.8962
-2.2920 -28.3912 1.1231 0.8922
-0.8466 -21.0082 0.8290 0.9193
-0.0000 -21.3069 0.8402 0.9182
0.8811 -21.8649 0.8629 0.9161
3.7742 -23.2234 0.9277 0.9101
6.5057 -26.3945 1.0719 0.8969
7.0878 -24.4698 1.0045 0.9030
6.9369 -20.7786 0.8638 0.9160
7.7708 -20.4898 0.8641 0.9160
8.3684 -19.6413 0.8418 0.9181
8.7345 -16.6422 0.7411 0.9275
9.5340 -16.5133 0.7519 0.9265
10.3016 -16.2906 0.7600 0.9257
10.6549 -15.4362 0.7396 0.9277
12.2777 -16.3386 0.8059 0.9214
16.7411 -20.5041 1.0438 0.8995
17.2903 -19.5167 1.0281 0.9009
26.2722 7.6098 1.0786 0.8963
21.8190 8.2749 0.9201 0.9108
20.4634 8.7186 0.8771 0.9148
18.4725 9.6951 0.8226 0.9199
13.0826 8.2729 0.6103 0.9399
12.2279 9.1887 0.6031 0.9406
12.1565 9.9254 0.6188 0.9391
8.0390 9.8460 0.5012 0.9504
7.7902 10.3669 0.5113 0.9494
7.4594 10.8068 0.5178 0.9488
4.7775 8.2749 0.3768 0.9625
3.9304 8.2832 0.3615 0.9640
3.5846 8.4134 0.3606 0.9641
3.3731 8.8941 0.3751 0.9626
3.0543 9.1487 0.3803 0.9621
1.5733 9.6811 0.3867 0.9615
0.7770 9.6248 0.3807 0.9621
-0.0000 9.6811 0.3817 0.9620
-1.8622 9.1218 0.3671 0.9634
-3.5256 8.2749 0.3547 0.9646
-24.1256 34.9520 1.6746 0.8437
-29.9941 39.9149 1.9687 0.8188
-21.2958 24.0380 1.2663 0.8794
-20.0426 17.7562 1.0558 0.8984
-10.2447 7.6984 0.5053 0.9500
-23.4063 14.8013 1.0920 0.8951
-30.7086 17.7296 1.3982 0.8677
-29.2935 15.3744 1.3045 0.8760
-35.6375 13.5155 1.5029 0.8585
-30.7668 6.2811 1.2382 0.8819
-40.2696 4.8896 1.5995 0.8501
-41.7237 -21.8983 0.7960 0.8282
-40.0298 -25.3134 0.8000 0.8274
-21.0686 -15.8320 0.4452 0.8999
-18.8625 -18.1176 0.4418 0.9007
-18.0546 -18.7968 0.4403 0.9010
-18.1981 -20.5414 0.4636 0.8960
-15.8442 -19.4055 0.4232 0.9046
-15.3098 -20.3736 0.4305 0.9031
-13.7345 -21.7193 0.4341 0.9023
-18.3613 -31.8028 0.6203 0.8634
-17.4354 -36.7443 0.6870 0.8498
-6.3461 -25.7470 0.4479 0.8993
-5.3842 -26.3738 0.4547 0.8979
-3.2650 -26.8894 0.4575 0.8973
-2.1762 -26.9575 0.4568 0.8975
-0.0000 -20.8918 0.3529 0.9198
2.9660 -24.4274 0.4157 0.9062
6.9959 -24.1527 0.4248 0.9043
14.5336 -43.5333 0.7753 0.8323
8.0801 -15.3954 0.2937 0.9328
10.5299 -16.6517 0.3328 0.9242
12.3116 -15.0789 0.3288 0.9251
20.4531 -21.2940 0.4987 0.8886
24.9239 -15.7609 0.4981 0.8887
21.7494 8.2485 0.3929 0.9111
20.4634 8.7186 0.3757 0.9149
12.1565 9.9254 0.2651 0.9391
12.2616 10.8628 0.2767 0.9366
12.2616 11.7774 0.2872 0.9342
11.6698 13.1725 0.2973 0.9320
8.9533 10.9659 0.2391 0.9449
5.3006 8.3823 0.1675 0.9611
4.7775 8.2749 0.1614 0.9625
3.9304 8.2832 0.1549 0.9640
3.3731 8.8941 0.1607 0.9627
3.0543 9.1487 0.1629 0.9621
2.3723 9.6248 0.1674 0.9611
1.5733 9.6811 0.1657 0.9615
0.3864 9.5896 0.1621 0.9623
-0.7736 9.5827 0.1624 0.9623
-1.1687 9.6248 0.1638 0.9620
-1.5642 9.6247 0.1647 0.9617
-1.8622 9.1218 0.1573 0.9634
-2.4411 8.4276 0.1482 0.9655
-2.7594 8.2654 0.1472 0.9657
-3.1383 8.2749 0.1495 0.9652
-3.5256 8.2749 0.1519 0.9647
-3.9400 8.3033 0.1552 0.9639
-21.6906 41.3280 0.7884 0.8297
-29.7653 36.4560 0.7950 0.8284
-31.1076 32.3864 0.7585 0.8356
-30.2411 26.7913 0.6824 0.8508
-32.5047 26.5392 0.7088 0.8455
-10.2447 7.6984 0.2165 0.9500
-23.4001 14.7973 0.4677 0.8952
-29.7398 14.1117 0.5560 0.8766
-31.7480 13.5266 0.5829 0.8710
-36.0360 13.6666 0.6510 0.8571
-30.9304 8.9591 0.5439 0.8791
-30.1333 7.4272 0.5242 0.8832
-31.3318 6.3965 0.5402 0.8799
-40.0978 4.8687 0.6823 0.8508
-40.0839 -19.0200 -0.2498 0.8374
-36.3895 -23.0114 -0.2424 0.8418
-21.8351 -16.4080 -0.1538 0.8965
-18.6645 -17.9275 -0.1457 0.9017
-17.4806 -19.7315 -0.1484 0.8999
-15.6703 -19.1926 -0.1395 0.9056
-14.6051 -19.4358 -0.1369 0.9073
-14.3786 -20.8310 -0.1425 0.9037
-13.2403 -20.9379 -0.1395 0.9057
-15.8210 -27.4026 -0.1781 0.8811
-22.1888 -42.2772 -0.2688 0.8261
-19.8594 -41.8527 -0.2608 0.8309
-15.4719 -36.3139 -0.2222 0.8539
-9.3284 -24.5969 -0.1481 0.9001
-7.5610 -22.6481 -0.1344 0.9089
-6.5736 -22.6948 -0.1330 0.9098
-4.1697 -25.6572 -0.1463 0.9012
-2.2174 -27.4669 -0.1551 0.8956
1.9268 -23.8679 -0.1348 0.9087
3.0007 -24.7125 -0.1402 0.9052
11.5273 -46.7679 -0.2712 0.8248
10.5956 -36.5802 -0.2144 0.8587
8.4917 -19.9307 -0.1220 0.9170
8.3391 -17.5744 -0.1095 0.9251
9.1664 -15.8767 -0.1032 0.9293
10.5707 -16.7162 -0.1114 0.9239
11.1032 -16.0857 -0.1100 0.9248
15.6310 -20.8010 -0.1465 0.9012
17.4263 -21.3433 -0.1551 0.8956
18.8216 -19.5954 -0.1530 0.8970
26.2787 -25.2411 -0.2051 0.8644
21.8190 8.2749 -0.1314 0.9109
20.4634 8.7186 -0.1252 0.9149
20.0101 9.4949 -0.1247 0.9152
18.4458 9.6811 -0.1173 0.9200
14.5557 8.4037 -0.0946 0.9350
13.0826 8.2729 -0.0871 0.9400
11.7221 9.5708 -0.0852 0.9413
9.2714 9.6526 -0.0754 0.9479
7.2534 9.6526 -0.0680 0.9529
6.6063 9.5708 -0.0655 0.9545
5.3006 8.3823 -0.0558 0.9611
4.7775 8.2749 -0.0538 0.9625
4.3430 8.2749 -0.0526 0.9633
3.3731 8.8941 -0.0536 0.9627
1.9603 9.6021 -0.0552 0.9616
1.5733 9.6811 -0.0552 0.9615
1.1755 9.6811 -0.0549 0.9617
0.7770 9.6248 -0.0544 0.9621
-0.0000 9.6811 -0.0545 0.9620
-1.1687 9.6248 -0.0546 0.9620
-1.5642 9.6247 -0.0549 0.9617
-1.8622 9.1218 -0.0524 0.9634
-2.4411 8.4276 -0.0494 0.9655
-2.7594 8.2654 -0.0491 0.9657
-3.5256 8.2749 -0.0506 0.9647
-3.9400 8.3033 -0.0517 0.9639
-31.1076 32.3864 -0.2528 0.8356
-30.2411 26.7912 -0.2274 0.8508
-32.5047 26.5392 -0.2363 0.8455
-10.2447 7.6984 -0.0721 0.9500
-23.3938 14.7934 -0.1558 0.8952
-29.3646 15.4117 -0.1867 0.8758
-29.1150 9.7201 -0.1728 0.8845
-29.1150 8.4333 -0.1707 0.8858
-29.1150 7.1763 -0.1688 0.8870
-37.5261 6.0986 -0.2141 0.8589
-35.2547 -16.7286 -1.0988 0.8554
-31.5652 -16.5667 -1.0038 0.8671
-24.1670 -19.7317 -0.8785 0.8826
-17.3752 -18.0895 -0.7063 0.9045
-17.4706 -19.7202 -0.7418 0.8999
-17.6523 -23.4909 -0.8274 0.8891
-21.3733 -37.0196 -1.2036 0.8428
-16.7903 -35.3848 -1.1028 0.8549
-7.5113 -22.4989 -0.6679 0.9094
-6.5142 -22.4898 -0.6593 0.9106
-5.5645 -22.5758 -0.6547 0.9112
-4.8007 -23.5154 -0.6758 0.9084
-4.2684 -26.2643 -0.7492 0.8990
-2.4479 -30.3229 -0.8566 0.8854
-1.0938 -27.1432 -0.7649 0.8970
3.2220 -15.7823 -0.4536 0.9376
10.1744 -26.8277 -0.8079 0.8915
10.1462 -14.6993 -0.5029 0.9310
26.2951 -34.9924 -1.2325 0.8393
16.8406 -19.0091 -0.7151 0.9034
20.0062 -20.8286 -0.8132 0.8909
26.2346 -25.1987 -1.0243 0.8645
26.2949 -23.2952 -0.9892 0.8689
26.2456 -21.4289 -0.9541 0.8732
24.9239 -15.7609 -0.8303 0.8887
26.2722 7.6098 -0.7703 0.8963
21.8190 8.2749 -0.6571 0.9108
19.0772 9.0522 -0.5946 0.9190
17.3520 9.1070 -0.5518 0.9246
14.5557 8.4037 -0.4733 0.9350
12.9841 8.2106 -0.4326 0.9404
12.4606 8.6010 -0.4263 0.9412
12.1439 9.1255 -0.4277 0.9410
11.7221 9.5708 -0.4261 0.9412
10.8955 9.6526 -0.4099 0.9434
9.2714 9.6526 -0.3769 0.9479
8.5515 9.6526 -0.3631 0.9497
7.2534 9.6526 -0.3400 0.9528
5.3006 8.3822 -0.2793 0.9611
4.7597 8.2442 -0.2680 0.9626
4.3430 8.2749 -0.2631 0.9633
3.9304 8.2832 -0.2582 0.9640
3.0543 9.1487 -0.2716 0.9621
2.7878 9.6248 -0.2822 0.9607
2.3723 9.6248 -0.2791 0.9611
1.9606 9.6035 -0.2760 0.9615
1.5746 9.6890 -0.2764 0.9615
-0.3904 9.6871 -0.2730 0.9619
-1.1687 9.6248 -0.2730 0.9619
-1.5642 9.6248 -0.2746 0.9617
-2.4411 8.4276 -0.2471 0.9655
-3.1383 8.2749 -0.2492 0.9652
-3.9400 8.3033 -0.2588 0.9639
-24.1256 34.9520 -1.1959 0.8437
-29.7654 36.4560 -1.3252 0.8283
-32.3125 26.3823 -1.1746 0.8463
-29.8860 17.2547 -0.9717 0.8710
-29.6541 14.0710 -0.9242 0.8769
-31.8697 13.5784 -0.9754 0.8706
-29.1150 11.0419 -0.8768 0.8828
-29.1150 9.7201 -0.8643 0.8844
-29.4566 6.0136 -0.8465 0.8867
-49.2955 0.0000 -2.5000 0.8208
-49.1356 -3.9666 -2.5000 0.8208
-48.2993 -9.8604 -2.5000 0.8208
-45.6589 -13.2253 -2.4107 0.8266
-43.3186 -16.4285 -2.3496 0.8306
-40.5786 -17.2889 -2.2369 0.8381
-35.2547 -16.7286 -1.9790 0.8553
-28.7138 -16.5779 -1.6815 0.8756
-26.1214 -16.5182 -1.5674 0.8836
-23.8551 -16.4660 -1.4700 0.8904
-21.9466 -16.4918 -1.3922 0.8959
-20.0601 -16.3786 -1.3134 0.9015
-18.4456 -16.3414 -1.2498 0.9060
-15.5584 -16.1980 -1.1390 0.9140
-14.3250 -16.1696 -1.0955 0.9171
-21.3685 -37.0112 -2.1674 0.8427
-19.6572 -41.4268 -2.3255 0.8322
-6.4253 -22.1826 -1.1712 0.9117
-4.6891 -22.9686 -1.1889 0.9104
-5.5185 -45.4490 -2.3218 0.8325
-3.6838 -45.6321 -2.3217 0.8325
1.8435 -45.7460 -2.3219 0.8325
2.0248 -25.0814 -1.2761 0.9041
10.9649 -44.4863 -2.3236 0.8323
12.7504 -44.0196 -2.3242 0.8323
10.2323 -26.9802 -1.4634 0.8909
11.3321 -26.5974 -1.4662 0.8907
12.5761 -26.5034 -1.4877 0.8891
9.1028 -15.7665 -0.9233 0.9297
11.7002 -15.5701 -0.9877 0.9250
14.9571 -15.5720 -1.0950 0.9172
17.5107 -15.5131 -1.1864 0.9106
20.6395 -15.5096 -1.3093 0.9018
24.9239 -15.7609 -1.4955 0.8886
44.5363 -21.1327 -2.5000 0.8208
44.7605 -16.9754 -2.4278 0.8255
45.5201 -15.1968 -2.4338 0.8251
47.8630 -11.7973 -2.5000 0.8208
48.2992 -9.8604 -2.5000 0.8208
48.6571 -7.9075 -2.5000 0.8208
48.9361 -5.9419 -2.5000 0.8208
49.1356 -3.9667 -2.5000 0.8208
49.2555 -1.9849 -2.5000 0.8208
49.2955 -0.0000 -2.5000 0.8208
49.2555 1.9849 -2.5000 0.8208
46.9638 3.7913 -2.3895 0.8280
45.6912 7.4256 -2.3476 0.8308
44.9630 11.0824 -2.3485 0.8307
26.2722 7.6098 -1.3870 0.8962
19.0759 8.1275 -1.0516 0.9203
17.3507 8.2330 -0.9740 0.9260
15.8333 8.3100 -0.9068 0.9309
13.0826 8.2729 -0.7850 0.9399
12.6321 8.7193 -0.7784 0.9404
10.0494 9.6526 -0.7067 0.9457
8.5515 9.6526 -0.6540 0.9497
7.2534 9.6526 -0.6123 0.9528
6.6063 9.5708 -0.5898 0.9545
5.3006 8.3822 -0.5030 0.9611
4.2684 8.1328 -0.4658 0.9639
3.2990 8.6989 -0.4718 0.9634
2.7877 9.6242 -0.5081 0.9607
2.1420 8.6905 -0.4539 0.9648
1.5733 9.6811 -0.4974 0.9615
0.6948 8.6073 -0.4379 0.9660
0.3502 8.6908 -0.4411 0.9658
-0.0000 9.6811 -0.4910 0.9620
-0.7736 9.5826 -0.4876 0.9622
-2.7273 8.1693 -0.4368 0.9661
-3.0656 8.0834 -0.4384 0.9660
-3.4580 8.1163 -0.4474 0.9653
-3.9400 8.3033 -0.4661 0.9639
-22.5551 42.9752 -2.4614 0.8233
-27.4647 36.5489 -2.3186 0.8327
-29.0795 32.8240 -2.2239 0.8389
-28.9228 30.1118 -2.1174 0.8460
-32.5048 26.5393 -2.1281 0.8453
-23.3814 14.7855 -1.4030 0.8951
-29.8858 17.2546 -1.7501 0.8709
-29.1150 11.0419 -1.5792 0.8827
-29.1150 7.1763 -1.5207 0.8868
-29.4566 6.0136 -1.5247 0.8866
-45.9916 5.5844 -2.3496 0.8306
-46.1531 3.7259 -2.3482 0.8307
-33.8473 -4.1098 -2.5000 0.8722
-33.6544 -5.4694 -2.5000 0.8722
-32.7498 -9.4861 -2.5000 0.8722
-32.3412 -10.7971 -2.5000 0.8722
-31.8802 -12.0906 -2.5000 0.8722
-31.0010 -13.2083 -2.4708 0.8736
-28.9285 -13.7267 -2.3478 0.8795
-21.8508 -16.4198 -2.0041 0.8962
-20.0601 -16.3785 -1.8988 0.9013
-18.5951 -16.4738 -1.8215 0.9052
-10.2137 -16.1517 -1.4012 0.9262
-15.9584 -27.6407 -2.3402 0.8798
-7.6359 -16.0924 -1.3060 0.9311
-6.8486 -16.0742 -1.2811 0.9323
-5.3549 -16.0398 -1.2399 0.9344
-3.9455 -16.0074 -1.2088 0.9360
-3.2647 -15.9917 -1.1967 0.9366
-2.5964 -15.9763 -1.1868 0.9371
-0.6420 -15.9313 -1.1691 0.9381
-0.0000 -15.9165 -1.1670 0.9382
0.6408 -15.9017 -1.1669 0.9382
1.2825 -15.8869 -1.1687 0.9381
1.9272 -15.8721 -1.1723 0.9379
2.5770 -15.8571 -1.1779 0.9376
3.2246 -15.7951 -1.1820 0.9374
4.5797 -15.8110 -1.2069 0.9361
5.9841 -15.7786 -1.2373 0.9346
12.5625 -26.4748 -2.1486 0.8891
9.0688 -15.7076 -1.3299 0.9298
9.9212 -15.6891 -1.3611 0.9283
11.8984 -15.8340 -1.4522 0.9236
12.7555 -15.6227 -1.4788 0.9223
13.8690 -15.6549 -1.5335 0.9195
22.1715 -23.0830 -2.3468 0.8795
16.1827 -15.5437 -1.6452 0.9139
18.9593 -15.4798 -1.7947 0.9065
20.5510 -15.4431 -1.8849 0.9020
26.4005 -18.2229 -2.3521 0.8793
24.9239 -15.7609 -2.1622 0.8885
31.3676 -13.3645 -2.5000 0.8722
31.8803 -12.0906 -2.5000 0.8722
32.3413 -10.7971 -2.5000 0.8722
32.7498 -9.4861 -2.5000 0.8722
33.6544 -5.4694 -2.5000 0.8722
34.0683 1.3729 -2.5000 0.8722
33.9854 2.7436 -2.5000 0.8722
33.8473 4.1098 -2.5000 0.8722
33.6545 5.4694 -2.5000 0.8722
33.1053 8.1598 -2.5000 0.8722
19.1664 7.2689 -1.5030 0.9211
15.9227 7.5554 -1.2923 0.9318
14.5557 8.4037 -1.2324 0.9348
11.2402 8.4465 -1.0309 0.9452
10.3517 8.4519 -0.9799 0.9478
10.1750 9.0143 -0.9967 0.9469
10.0494 9.6526 -1.0217 0.9456
7.4963 8.4616 -0.8289 0.9557
6.9665 8.5325 -0.8077 0.9568
6.2554 9.0626 -0.8074 0.9568
3.3731 8.8941 -0.6975 0.9626
3.0543 9.1487 -0.7072 0.9621
1.9612 9.6064 -0.7189 0.9614
1.1760 9.6851 -0.7154 0.9616
0.3502 8.6904 -0.6377 0.9657
-0.3901 9.6811 -0.7104 0.9619
-1.5641 9.6242 -0.7149 0.9616
-2.4411 8.4276 -0.6433 0.9654
-3.9400 8.3033 -0.6739 0.9638
-15.6006 29.7244 -2.4614 0.8740
-16.7848 29.0721 -2.4614 0.8740
-19.0697 27.6272 -2.4614 0.8740
-21.2309 26.0032 -2.4614 0.8740
-22.2608 25.1272 -2.4614 0.8740
-23.2065 22.2902 -2.3593 0.8789
-10.1308 7.6128 -0.9292 0.9504
-25.9973 17.9447 -2.3162 0.8810
-28.2124 14.8071 -2.3362 0.8800
-28.8069 13.6691 -2.3379 0.8800
-29.1150 8.4333 -2.2225 0.8855
-31.6123 5.1375 -2.3483 0.8795
-33.3125 2.6893 -2.4505 0.8746
-25.9557 -2.0954 -2.5000 0.9006
-25.8503 -3.1388 -2.5000 0.9006
-25.7029 -4.1771 -2.5000 0.9006
-25.5139 -5.2087 -2.5000 0.9006
-25.0120 -7.2448 -2.5000 0.9006
-24.7000 -8.2461 -2.5000 0.9006
-24.3480 -9.2340 -2.5000 0.9006
-23.5260 -11.1632 -2.5000 0.9006
-23.0574 -12.1014 -2.5000 0.9006
-20.9089 -13.2220 -2.3750 0.9054
-20.1243 -13.8908 -2.3476 0.9064
-18.3106 -16.2218 -2.3485 0.9064
-17.6434 -16.9494 -2.3490 0.9064
-16.9616 -17.6589 -2.3507 0.9063
-14.3945 -16.2480 -2.0840 0.9165
-11.1639 -16.1736 -1.8867 0.9241
-10.2137 -16.1517 -1.8347 0.9261
-7.6359 -16.0924 -1.7100 0.9309
-5.5228 -22.4069 -2.2156 0.9114
-4.6298 -22.6784 -2.2221 0.9112
-1.2873 -15.9461 -1.5359 0.9377
-0.6420 -15.9313 -1.5307 0.9379
0.0000 -15.9165 -1.5281 0.9380
0.6408 -15.9017 -1.5279 0.9381
1.2825 -15.8870 -1.5302 0.9380
2.5770 -15.8571 -1.5423 0.9375
3.2246 -15.7951 -1.5477 0.9373
3.9009 -15.8266 -1.5649 0.9366
4.5797 -15.8110 -1.5803 0.9360
5.2732 -15.7950 -1.5987 0.9353
11.3648 -21.6537 -2.3478 0.9064
9.9241 -15.6937 -1.7826 0.9281
10.8144 -15.6674 -1.8277 0.9264
11.7569 -15.6457 -1.8789 0.9244
16.9727 -17.6705 -2.3523 0.9062
18.3032 -16.2152 -2.3476 0.9064
20.1242 -13.8907 -2.3476 0.9064
20.8833 -13.2058 -2.3721 0.9055
23.5260 -11.1632 -2.5000 0.9006
24.3480 -9.2339 -2.5000 0.9006
24.7000 -8.2460 -2.5000 0.9006
25.5139 -5.2087 -2.5000 0.9006
25.8503 -3.1388 -2.5000 0.9006
25.9557 -2.0953 -2.5000 0.9006
26.0190 -1.0485 -2.5000 0.9006
26.0401 0.0000 -2.5000 0.9006
26.0190 1.0485 -2.5000 0.9006
24.1360 3.9225 -2.3476 0.9064
23.9586 4.8912 -2.3476 0.9064
23.4873 6.8032 -2.3476 0.9064
23.1995 7.7452 -2.3481 0.9064
17.3491 7.3918 -1.8105 0.9270
15.8345 7.5135 -1.6826 0.9320
15.8334 8.3100 -1.7167 0.9307
13.0826 8.2729 -1.4860 0.9397
12.6321 8.7193 -1.4736 0.9402
10.0565 8.9093 -1.2899 0.9474
7.2759 8.2128 -1.0534 0.9569
6.7055 8.2128 -1.0179 0.9583
5.3006 8.3822 -0.9521 0.9609
3.9304 8.2832 -0.8802 0.9638
3.5846 8.4134 -0.8780 0.9639
3.2990 8.6989 -0.8932 0.9633
3.0868 9.2460 -0.9358 0.9616
2.1137 8.5754 -0.8479 0.9651
1.9615 9.6079 -0.9414 0.9614
1.5733 9.6811 -0.9416 0.9614
0.3864 9.5895 -0.9214 0.9622
-0.9970 8.2113 -0.7941 0.9673
-2.1341 8.6582 -0.8561 0.9648
-2.4411 8.4276 -0.8424 0.9654
-3.0832 8.1296 -0.8347 0.9657
-3.9400 8.3033 -0.8824 0.9637
-11.1769 21.2958 -2.3090 0.9079
-13.7027 21.6692 -2.4614 0.9021
-14.5642 21.0998 -2.4614 0.9021
-17.0013 19.1905 -2.4614 0.9021
-18.4904 17.7602 -2.4614 0.9021
-19.8595 16.2147 -2.4614 0.9021
-21.6692 13.7028 -2.4614 0.9021
-22.7015 11.9147 -2.4614 0.9021
-22.7484 10.7943 -2.4173 0.9038
-22.7136 9.6774 -2.3703 0.9056
-23.1012 6.6914 -2.3090 0.9079
-23.4005 5.7677 -2.3138 0.9077
-23.7816 4.8551 -2.3302 0.9071
-25.3763 3.0812 -2.4541 0.9024
-25.9557 2.0953 -2.5000 0.9006
-26.0190 1.0486 -2.5000 0.9006
-20.6208 -4.2098 -2.5000 0.9187
-19.9630 -6.6646 -2.5000 0.9187
-19.6785 -7.4630 -2.5000 0.9187
-19.0142 -9.0223 -2.5000 0.9187
-18.2265 -10.5231 -2.5000 0.9187
-16.8252 -12.6433 -2.5000 0.9187
-16.1681 -13.2008 -2.4794 0.9194
-13.6904 -14.2532 -2.3476 0.9235
-11.2304 -16.2701 -2.3484 0.9235
-10.5675 -16.7111 -2.3486 0.9234
-9.8867 -17.1244 -2.3488 0.9234
-7.6359 -16.0924 -2.1158 0.9308
-5.3549 -16.0398 -2.0087 0.9342
-4.6412 -16.0234 -1.9816 0.9350
-3.9455 -16.0074 -1.9584 0.9357
-3.2647 -15.9917 -1.9388 0.9364
-1.9408 -15.9836 -1.9126 0.9372
-1.2873 -15.9461 -1.9003 0.9376
-0.6420 -15.9313 -1.8939 0.9378
1.2825 -15.8870 -1.8933 0.9378
3.2246 -15.7951 -1.9149 0.9371
3.9009 -15.8266 -1.9362 0.9364
5.2731 -15.7950 -1.9780 0.9351
5.9841 -15.7786 -2.0045 0.9343
9.1066 -15.7730 -2.1635 0.9293
11.2270 -16.2651 -2.3476 0.9235
12.4991 -15.3086 -2.3476 0.9235
13.6904 -14.2532 -2.3476 0.9235
16.1527 -13.1883 -2.4770 0.9194
16.8252 -12.6433 -2.5000 0.9187
17.3206 -11.9556 -2.5000 0.9187
17.7880 -11.2484 -2.5000 0.9187
18.6354 -9.7806 -2.5000 0.9187
19.0143 -9.0223 -2.5000 0.9187
19.3620 -8.2494 -2.5000 0.9187
19.9630 -6.6646 -2.5000 0.9187
20.2152 -5.8554 -2.5000 0.9187
20.7736 -3.3760 -2.5000 0.9187
21.0291 -0.8474 -2.5000 0.9187
21.0461 0.0000 -2.5000 0.9187
21.0290 0.8475 -2.5000 0.9187
20.8927 2.5368 -2.5000 0.9187
19.5072 3.1702 -2.3476 0.9235
19.1889 4.7296 -2.3476 0.9235
18.9829 5.4985 -2.3476 0.9235
18.7461 6.2584 -2.3476 0.9235
18.4558 6.9994 -2.3447 0.9236
15.8341 7.5134 -2.0819 0.9318
14.5557 8.4037 -1.9965 0.9345
13.0826 8.2729 -1.8387 0.9396
12.6321 8.7193 -1.8233 0.9400
11.2402 8.4465 -1.6701 0.9449
9.6650 7.8912 -1.4821 0.9510
10.0494 9.6526 -1.6552 0.9454
7.2759 8.2128 -1.3033 0.9568
6.7055 8.2128 -1.2594 0.9582
5.3006 8.3822 -1.1781 0.9608
4.7215 8.1779 -1.1217 0.9627
4.2938 8.1813 -1.0975 0.9635
3.9304 8.2832 -1.0891 0.9637
3.6065 8.4647 -1.0929 0.9636
2.1137 8.5756 -1.0491 0.9650
1.9231 9.4198 -1.1420 0.9620
1.5413 9.4838 -1.1413 0.9620
0.6486 8.0338 -0.9574 0.9681
-0.0000 9.6031 -1.1407 0.9621
-0.3869 9.6012 -1.1414 0.9620
-1.8839 9.2278 -1.1187 0.9628
-2.4411 8.4276 -1.0422 0.9653
-2.7594 8.2654 -1.0351 0.9655
-3.1019 8.1791 -1.0391 0.9654
-3.4820 8.1726 -1.0552 0.9648
-9.0527 17.2485 -2.3139 0.9245
-13.1051 16.0508 -2.4614 0.9199
-13.7408 15.5101 -2.4614 0.9199
-10.1314 7.6132 -1.5054 0.9502
-17.0533 11.7710 -2.4614 0.9199
-17.5134 11.0748 -2.4614 0.9199
-18.3478 9.6297 -2.4614 0.9199
-19.3861 7.3522 -2.4628 0.9199
-19.7051 6.5786 -2.4677 0.9197
-20.2441 4.9897 -2.4767 0.9194
-20.9686 1.6928 -2.4989 0.9188
-21.0244 0.8473 -2.4994 0.9187
-17.6441 0.0000 -2.5000 0.9312
-17.6298 -0.7105 -2.5000 0.9312
-17.4156 -2.8303 -2.5000 0.9312
-16.4975 -6.2567 -2.5000 0.9312
-16.2322 -6.9159 -2.5000 0.9312
-14.5208 -10.0230 -2.5000 0.9312
-14.1055 -10.5996 -2.5000 0.9312
-13.6672 -11.1589 -2.5000 0.9312
-12.7250 -12.2225 -2.5000 0.9312
-10.7859 -13.2103 -2.4164 0.9334
-9.9534 -13.2456 -2.3476 0.9353
-7.6998 -14.6707 -2.3476 0.9353
-7.1028 -14.9688 -2.3476 0.9353
-6.4943 -15.2427 -2.3476 0.9353
-5.8754 -15.4923 -2.3476 0.9353
-5.2472 -15.7172 -2.3478 0.9352
-4.6103 -15.9165 -2.3479 0.9352
0.0000 -16.5729 -2.3482 0.9352
0.6673 -16.5592 -2.3482 0.9352
1.3335 -16.5186 -2.3481 0.9352
2.6582 -16.3566 -2.3480 0.9352
3.2159 -15.7527 -2.2780 0.9371
3.9654 -16.0882 -2.3477 0.9353
4.6097 -15.9145 -2.3476 0.9353
5.2467 -15.7159 -2.3476 0.9353
5.8751 -15.4918 -2.3476 0.9353
6.4943 -15.2427 -2.3476 0.9353
7.1028 -14.9688 -2.3476 0.9353
8.2843 -14.3488 -2.3476 0.9353
8.8553 -14.0036 -2.3476 0.9353
9.9534 -13.2456 -2.3476 0.9353
11.6823 -13.1865 -2.4961 0.9313
12.2225 -12.7250 -2.5000 0.9312
12.7252 -12.2225 -2.5000 0.9312
13.2068 -11.7002 -2.5000 0.9312
13.6672 -11.1589 -2.5000 0.9312
14.5208 -10.0230 -2.5000 0.9312
15.6231 -8.1996 -2.5000 0.9312
15.9406 -7.5639 -2.5000 0.9312
16.7361 -5.5873 -2.5000 0.9312
16.9475 -4.9089 -2.5000 0.9312
17.1314 -4.2225 -2.5000 0.9312
17.4156 -2.8303 -2.5000 0.9312
17.5155 -2.1268 -2.5000 0.9312
17.6298 -0.7104 -2.5000 0.9312
17.6441 0.0000 -2.5000 0.9312
17.6298 0.7105 -2.5000 0.9312
17.5869 1.4198 -2.5000 0.9312
16.0871 3.9651 -2.3476 0.9353
15.9144 4.6097 -2.3476 0.9353
15.7158 5.2467 -2.3476 0.9353
15.4918 5.8753 -2.3476 0.9353
14.9379 7.0881 -2.3427 0.9354
14.6100 7.6679 -2.3379 0.9355
12.5064 8.6326 -2.1532 0.9405
12.2279 9.1887 -2.1672 0.9401
9.6826 7.9056 -1.7711 0.9508
9.3880 8.3171 -1.7771 0.9506
9.0672 8.7091 -1.7814 0.9505
7.8885 8.2128 -1.6135 0.9550
7.2759 8.2128 -1.5546 0.9566
6.2554 8.3245 -1.4754 0.9588
6.2554 9.0626 -1.5603 0.9565
5.3006 8.3822 -1.4052 0.9607
4.7775 8.2749 -1.3538 0.9621
4.3430 8.2749 -1.3241 0.9629
3.9304 8.2832 -1.2991 0.9636
3.5846 8.4134 -1.2958 0.9637
3.0543 9.1487 -1.3666 0.9618
2.2218 7.6705 -1.1315 0.9683
2.1137 8.5757 -1.2515 0.9649
1.7881 8.7590 -1.2667 0.9645
1.0747 8.8509 -1.2633 0.9646
0.6345 7.8602 -1.1173 0.9686
-0.3592 8.9141 -1.2641 0.9646
-0.7182 8.8963 -1.2646 0.9646
-0.9540 7.8564 -1.1213 0.9685
-1.5641 9.6242 -1.3815 0.9614
-1.8622 9.1218 -1.3191 0.9631
-2.4411 8.4276 -1.2432 0.9652
-2.7594 8.2654 -1.2347 0.9654
-3.0832 8.1296 -1.2319 0.9655
-3.4580 8.1163 -1.2500 0.9650
-3.9400 8.3033 -1.3022 0.9636
-7.5907 14.4629 -2.3143 0.9361
-9.2731 13.4344 -2.3129 0.9362
-9.8004 13.0420 -2.3115 0.9362
-10.3114 12.6291 -2.3101 0.9363
-12.5286 12.0339 -2.4614 0.9322
-13.0030 11.5196 -2.4614 0.9322
-13.4563 10.9867 -2.4614 0.9322
-14.2967 9.8683 -2.4614 0.9322
-14.6825 9.2846 -2.4614 0.9322
-15.0444 8.6859 -2.4614 0.9322
-15.6964 7.4480 -2.4617 0.9322
-16.5892 5.5383 -2.4780 0.9318
-17.2767 3.5271 -2.4984 0.9312
-17.4074 2.8290 -2.4988 0.9312
-17.6298 0.7105 -2.5000 0.9312
-15.1754 0.0000 -2.5000 0.9403
-15.0648 -1.8292 -2.5000 0.9403
-14.8687 -3.0355 -2.5000 0.9403
-14.7344 -3.6317 -2.5000 0.9403
-14.5763 -4.2221 -2.5000 0.9403
-13.9611 -5.9483 -2.5000 0.9403
-13.7103 -6.5056 -2.5000 0.9403
-12.8261 -8.1107 -2.5000 0.9403
-12.1319 -9.1165 -2.5000 0.9403
-11.7550 -9.5976 -2.5000 0.9403
-11.3590 -10.0631 -2.5000 0.9403
-10.5124 -10.9445 -2.5000 0.9403
-10.0632 -11.3589 -2.5000 0.9403
-9.1165 -12.1319 -2.5000 0.9403
-8.6206 -12.4891 -2.5000 0.9403
-7.5877 -13.1423 -2.5000 0.9403
-6.9286 -13.2014 -2.4561 0.9413
-6.2682 -13.2099 -2.4088 0.9424
-5.6314 -13.2174 -2.3668 0.9434
-4.5126 -13.5169 -2.3476 0.9439
-3.9647 -13.6877 -2.3476 0.9439
-3.4103 -13.8362 -2.3476 0.9439
-2.2859 -14.0658 -2.3476 0.9439
-1.7177 -14.1464 -2.3476 0.9439
-1.1467 -14.2041 -2.3476 0.9439
2.2859 -14.0658 -2.3476 0.9439
2.8504 -13.9623 -2.3476 0.9439
3.4103 -13.8362 -2.3476 0.9439
4.5126 -13.5169 -2.3476 0.9439
5.0532 -13.3243 -2.3476 0.9439
5.6295 -13.2131 -2.3660 0.9434
6.9258 -13.1960 -2.4551 0.9414
7.5877 -13.1423 -2.5000 0.9403
8.6206 -12.4891 -2.5000 0.9403
10.5124 -10.9445 -2.5000 0.9403
11.3588 -10.0632 -2.5000 0.9403
11.7550 -9.5976 -2.5000 0.9403
12.1319 -9.1165 -2.5000 0.9403
13.9611 -5.9482 -2.5000 0.9403
14.1892 -5.3813 -2.5000 0.9403
14.3944 -4.8056 -2.5000 0.9403
14.5763 -4.2221 -2.5000 0.9403
15.1631 -0.6111 -2.5000 0.9403
15.1262 1.2211 -2.5000 0.9403
13.9624 2.8504 -2.3476 0.9439
13.6877 3.9647 -2.3476 0.9439
13.5169 4.5126 -2.3476 0.9439
13.3243 5.0532 -2.3476 0.9439
12.8745 6.1090 -2.3476 0.9439
11.9772 7.5739 -2.3345 0.9442
11.6679 8.0537 -2.3356 0.9441
11.3390 8.5207 -2.3366 0.9441
9.8691 8.7432 -2.1721 0.9480
8.4882 8.1530 -1.9389 0.9534
7.8885 8.2128 -1.8760 0.9549
6.2554 8.3245 -1.7154 0.9587
5.3006 8.3822 -1.6338 0.9606
4.3289 8.2480 -1.5345 0.9629
3.9304 8.2832 -1.5104 0.9635
3.5846 8.4134 -1.5066 0.9636
3.3560 8.8490 -1.5591 0.9624
2.2156 7.6493 -1.3119 0.9682
1.7517 8.5806 -1.4427 0.9651
1.3947 8.5820 -1.4323 0.9654
0.6210 7.6928 -1.2714 0.9692
0.3459 8.5842 -1.4153 0.9658
-0.0000 8.5828 -1.4139 0.9658
-1.5641 9.6242 -1.6063 0.9612
-2.1734 8.8176 -1.4961 0.9639
-2.7594 8.2654 -1.4355 0.9653
-3.5256 8.2749 -1.4818 0.9642
-3.9400 8.3033 -1.5141 0.9634
-7.0242 12.1663 -2.3143 0.9446
-7.5084 11.8736 -2.3143 0.9446
-8.4395 11.2309 -2.3143 0.9446
-9.7194 10.1190 -2.3114 0.9447
-10.4924 9.2955 -2.3093 0.9448
-10.1319 7.6136 -2.0879 0.9499
-12.2963 8.4876 -2.4614 0.9412
-12.6281 7.9855 -2.4614 0.9412
-13.2351 6.9463 -2.4624 0.9412
-13.5407 6.4252 -2.4691 0.9410
-13.8407 5.8970 -2.4784 0.9408
-14.5393 4.2113 -2.4936 0.9405
-14.7279 3.6301 -2.4989 0.9404
-15.0644 1.8292 -2.4999 0.9403
-15.1262 1.2211 -2.5000 0.9403
-15.1631 0.6111 -2.5000 0.9403
-13.3006 0.0000 -2.5000 0.9473
-13.2898 -0.5356 -2.5000 0.9473
-13.2036 -1.6032 -2.5000 0.9473
-13.1283 -2.1336 -2.5000 0.9473
-13.0318 -2.6604 -2.5000 0.9473
-12.4362 -4.7164 -2.5000 0.9473
-11.7771 -6.1811 -2.5000 0.9473
-10.6330 -7.9902 -2.5000 0.9473
-8.4119 -10.3027 -2.5000 0.9473
-7.5556 -10.9461 -2.5000 0.9473
-7.1087 -11.2415 -2.5000 0.9473
-6.1811 -11.7771 -2.5000 0.9473
-5.7019 -12.0164 -2.5000 0.9473
-5.2132 -12.2362 -2.5000 0.9473
-4.2119 -12.6161 -2.5000 0.9473
-3.7005 -12.7754 -2.5000 0.9473
-2.6605 -13.0318 -2.5000 0.9473
-2.1336 -13.1283 -2.5000 0.9473
-0.5317 -13.1940 -2.4820 0.9477
-0.0000 -13.1942 -2.4800 0.9477
0.5317 -13.1936 -2.4819 0.9477
1.0650 -13.1923 -2.4877 0.9476
1.6016 -13.1903 -2.4975 0.9474
3.1830 -12.9141 -2.5000 0.9473
4.2118 -12.6161 -2.5000 0.9473
5.2146 -12.2362 -2.5000 0.9473
6.6503 -11.5186 -2.5000 0.9473
7.5556 -10.9461 -2.5000 0.9473
8.8199 -9.9556 -2.5000 0.9473
9.2136 -9.5924 -2.5000 0.9473
9.5925 -9.2136 -2.5000 0.9473
9.9557 -8.8199 -2.5000 0.9473
10.3027 -8.4119 -2.5000 0.9473
10.9462 -7.5556 -2.5000 0.9473
11.2415 -7.1087 -2.5000 0.9473
11.5186 -6.6503 -2.5000 0.9473
11.7771 -6.1811 -2.5000 0.9473
12.0164 -5.7018 -2.5000 0.9473
12.4362 -4.7164 -2.5000 0.9473
12.6161 -4.2119 -2.5000 0.9473
12.9141 -3.1830 -2.5000 0.9473
13.0318 -2.6604 -2.5000 0.9473
13.1283 -2.1336 -2.5000 0.9473
13.2036 -1.6032 -2.5000 0.9473
13.2574 -1.0702 -2.5000 0.9473
13.2898 -0.5355 -2.5000 0.9473
13.2574 1.0703 -2.5000 0.9473
13.1283 2.1336 -2.5000 0.9473
13.0318 2.6605 -2.5000 0.9473
12.1268 2.9890 -2.3476 0.9504
11.9966 3.4749 -2.3476 0.9504
11.4903 4.8956 -2.3476 0.9504
11.0591 5.8043 -2.3476 0.9504
9.9196 7.4541 -2.3322 0.9508
9.2920 8.2321 -2.3334 0.9507
8.4384 8.1052 -2.1992 0.9535
7.9109 8.2361 -2.1465 0.9546
7.8561 9.6220 -2.3348 0.9507
6.2554 8.3245 -1.9572 0.9585
6.6063 9.5708 -2.1859 0.9538
4.7775 8.2749 -1.7960 0.9619
4.3430 8.2749 -1.7566 0.9627
3.0543 9.1487 -1.8129 0.9615
2.1677 7.4839 -1.4645 0.9688
2.0693 8.3953 -1.6252 0.9654
1.7142 8.3968 -1.6108 0.9657
0.6080 7.5313 -1.4202 0.9697
-0.0000 8.3989 -1.5787 0.9664
-1.5641 9.6243 -1.8327 0.9611
-1.8622 9.1218 -1.7499 0.9628
-2.1734 8.8176 -1.7070 0.9637
-2.7594 8.2654 -1.6379 0.9652
-3.1383 8.2749 -1.6635 0.9646
-3.5256 8.2749 -1.6906 0.9641
-3.9400 8.3033 -1.7275 0.9633
-6.5810 10.4070 -2.3144 0.9511
-8.1649 9.2163 -2.3143 0.9511
-8.5294 8.8800 -2.3143 0.9511
-8.8768 8.5263 -2.3135 0.9511
-9.5267 7.7783 -2.3117 0.9512
-9.8286 7.3857 -2.3108 0.9512
-11.6421 6.1103 -2.4713 0.9479
-12.5924 4.2040 -2.4953 0.9474
-12.9113 3.1824 -2.4994 0.9473
-13.0306 2.6602 -2.4998 0.9473
-13.1283 2.1336 -2.5000 0.9473
-13.2036 1.6032 -2.5000 0.9473
-13.2898 0.5356 -2.5000 0.9473
-11.8174 -0.4762 -2.5000 0.9528
-11.7407 -1.4256 -2.5000 0.9528
-11.6738 -1.8972 -2.5000 0.9528
-11.5880 -2.3657 -2.5000 0.9528
-11.3600 -3.2905 -2.5000 0.9528
-11.0584 -4.1939 -2.5000 0.9528
-10.8806 -4.6358 -2.5000 0.9528
-10.6851 -5.0701 -2.5000 0.9528
-10.4723 -5.4963 -2.5000 0.9528
-9.9961 -6.3211 -2.5000 0.9528
-9.1613 -7.4799 -2.5000 0.9528
-8.8526 -7.8427 -2.5000 0.9528
-8.5296 -8.1928 -2.5000 0.9528
-8.1928 -8.5296 -2.5000 0.9528
-7.4799 -9.1612 -2.5000 0.9528
-6.7185 -9.7334 -2.5000 0.9528
-6.3211 -9.9960 -2.5000 0.9528
-5.9135 -10.2425 -2.5000 0.9528
-4.6358 -10.8806 -2.5000 0.9528
-4.1939 -11.0584 -2.5000 0.9528
-3.7452 -11.2183 -2.5000 0.9528
-2.8304 -11.4833 -2.5000 0.9528
-2.3656 -11.5879 -2.5000 0.9528
-1.8971 -11.6738 -2.5000 0.9528
-0.9517 -11.7886 -2.5000 0.9528
-0.4762 -11.8174 -2.5000 0.9528
1.4256 -11.7407 -2.5000 0.9528
1.8972 -11.6738 -2.5000 0.9528
2.3657 -11.5879 -2.5000 0.9528
2.8304 -11.4833 -2.5000 0.9528
4.1939 -11.0584 -2.5000 0.9528
4.6358 -10.8806 -2.5000 0.9528
5.4963 -10.4723 -2.5000 0.9528
5.9133 -10.2425 -2.5000 0.9528
7.1050 -9.4550 -2.5000 0.9528
7.4798 -9.1613 -2.5000 0.9528
8.1928 -8.5296 -2.5000 0.9528
8.8526 -7.8427 -2.5000 0.9528
9.7334 -6.7185 -2.5000 0.9528
10.4723 -5.4963 -2.5000 0.9528
10.6851 -5.0701 -2.5000 0.9528
10.8806 -4.6358 -2.5000 0.9528
11.5879 -2.3657 -2.5000 0.9528
11.7408 -1.4256 -2.5000 0.9528
11.7886 -0.9517 -2.5000 0.9528
11.5879 2.3657 -2.5000 0.9528
11.0212 2.7165 -2.3994 0.9547
10.6675 3.0899 -2.3476 0.9556
10.5344 3.5169 -2.3476 0.9556
10.2173 4.3532 -2.3476 0.9556
9.8339 5.1612 -2.3476 0.9556
9.6181 5.5530 -2.3476 0.9556
9.3867 5.9358 -2.3476 0.9556
9.1400 6.3089 -2.3476 0.9556
8.5868 7.0109 -2.3432 0.9557
6.6276 8.8197 -2.3320 0.9559
6.2680 9.0808 -2.3324 0.9559
4.7775 8.2749 -2.0197 0.9617
3.9304 8.2832 -1.9380 0.9632
2.3443 7.0222 -1.5649 0.9702
2.0222 8.2043 -1.7861 0.9660
0.9967 8.2085 -1.7479 0.9668
0.5770 7.1478 -1.5158 0.9711
0.3308 8.2090 -1.7366 0.9670
-0.6624 8.2049 -1.7400 0.9669
-0.8672 7.1422 -1.5208 0.9710
-1.1503 7.0779 -1.5158 0.9711
-1.8622 9.1218 -1.9679 0.9627
-3.5256 8.2749 -1.9013 0.9639
-5.4780 9.4882 -2.3159 0.9562
-5.8543 9.2578 -2.3153 0.9562
-6.5773 8.7528 -2.3143 0.9562
-6.9244 8.4809 -2.3143 0.9562
-7.5844 7.8962 -2.3143 0.9562
-8.1952 7.2603 -2.3143 0.9562
-8.4739 6.9187 -2.3124 0.9563
-9.3245 5.8965 -2.3320 0.9559
-9.7983 5.1426 -2.3391 0.9558
-10.6321 5.0450 -2.4876 0.9530
-11.3586 3.2901 -2.4997 0.9528
-11.7407 1.4256 -2.5000 0.9528
-11.8174 0.4762 -2.5000 0.9528
-10.6286 -0.4283 -2.5000 0.9572
-10.6027 -0.8559 -2.5000 0.9572
-10.4995 -1.7063 -2.5000 0.9572
-10.4222 -2.1277 -2.5000 0.9572
-10.3281 -2.5457 -2.5000 0.9572
-10.0898 -3.3684 -2.5000 0.9572
-9.9459 -3.7720 -2.5000 0.9572
-9.6102 -4.5601 -2.5000 0.9572
-8.7542 -6.0426 -2.5000 0.9572
-8.5038 -6.3902 -2.5000 0.9572
-7.3687 -7.6716 -2.5000 0.9572
-6.7274 -8.2396 -2.5000 0.9572
-5.6852 -8.9904 -2.5000 0.9572
-4.9434 -9.4188 -2.5000 0.9572
-3.3685 -10.0898 -2.5000 0.9572
-1.7063 -10.4994 -2.5000 0.9572
-0.8559 -10.6027 -2.5000 0.9572
-0.4283 -10.6286 -2.5000 0.9572
0.4283 -10.6286 -2.5000 0.9572
0.8559 -10.6027 -2.5000 0.9572
1.2821 -10.5596 -2.5000 0.9572
1.7063 -10.4994 -2.5000 0.9572
2.5456 -10.3281 -2.5000 0.9572
4.1694 -9.7860 -2.5000 0.9572
4.9434 -9.4187 -2.5000 0.9572
5.3186 -9.2121 -2.5000 0.9572
6.3902 -8.5038 -2.5000 0.9572
6.7275 -8.2396 -2.5000 0.9572
8.2396 -6.7274 -2.5000 0.9572
8.5038 -6.3902 -2.5000 0.9572
8.9905 -5.6852 -2.5000 0.9572
9.2121 -5.3186 -2.5000 0.9572
9.6102 -4.5601 -2.5000 0.9572
10.0898 -3.3684 -2.5000 0.9572
10.3281 -2.5456 -2.5000 0.9572
10.5596 -1.2822 -2.5000 0.9572
10.6027 -0.8559 -2.5000 0.9572
10.6372 0.0000 -2.5000 0.9572
10.6286 0.4283 -2.5000 0.9572
10.6027 0.8559 -2.5000 0.9572
10.4995 1.7063 -2.5000 0.9572
10.3281 2.5457 -2.5000 0.9572
9.5944 2.7790 -2.3476 0.9598
9.0243 4.2821 -2.3476 0.9598
8.8446 4.6420 -2.3476 0.9598
8.6505 4.9944 -2.3476 0.9598
8.4424 5.3387 -2.3476 0.9598
7.9854 6.0007 -2.3476 0.9598
7.7373 6.3173 -2.3476 0.9598
6.8648 7.1472 -2.3291 0.9601
4.6882 8.1202 -2.2037 0.9622
4.2684 8.1328 -2.1587 0.9630
3.9304 8.2832 -2.1548 0.9630
3.2990 8.6989 -2.1865 0.9625
3.0868 9.2460 -2.2909 0.9607
1.9764 8.0184 -1.9409 0.9666
0.5703 7.0639 -1.6656 0.9713
-0.6474 8.0189 -1.8908 0.9675
-0.9063 7.4638 -1.7671 0.9696
-1.5642 9.6247 -2.2917 0.9607
-2.4411 8.4276 -2.0621 0.9646
-2.7594 8.2654 -2.0480 0.9648
-3.5256 8.2749 -2.1139 0.9637
-4.9285 8.5364 -2.3166 0.9603
-5.2671 8.3293 -2.3161 0.9603
-5.5970 8.1087 -2.3156 0.9603
-6.2291 7.6293 -2.3148 0.9603
-7.1558 6.8732 -2.3319 0.9601
-7.9740 5.9921 -2.3442 0.9598
-8.6471 4.9924 -2.3466 0.9598
-9.0239 4.2819 -2.3475 0.9598
-9.9445 3.7714 -2.4996 0.9572
-10.0893 3.3683 -2.4999 0.9572
-10.4222 2.1277 -2.5000 0.9572
-10.5596 1.2822 -2.5000 0.9572
-10.6027 0.8560 -2.5000 0.9572
-9.6555 0.0000 -2.5000 0.9609
-9.5851 -1.1638 -2.5000 0.9609
-9.5305 -1.5488 -2.5000 0.9609
-9.3749 -2.3107 -2.5000 0.9609
-9.1586 -3.0576 -2.5000 0.9609
-9.0280 -3.4239 -2.5000 0.9609
-8.7233 -4.1392 -2.5000 0.9609
-7.7190 -5.8005 -2.5000 0.9609
-7.4792 -6.1066 -2.5000 0.9609
-7.2273 -6.4028 -2.5000 0.9609
-6.9636 -6.6886 -2.5000 0.9609
-6.6886 -6.9636 -2.5000 0.9609
-5.8005 -7.7190 -2.5000 0.9609
-5.4850 -7.9463 -2.5000 0.9609
-4.8278 -8.3619 -2.5000 0.9609
-3.0576 -9.1586 -2.5000 0.9609
-2.3107 -9.3749 -2.5000 0.9609
-1.1639 -9.5851 -2.5000 0.9609
-0.7770 -9.6242 -2.5000 0.9609
-0.0000 -9.6555 -2.5000 0.9609
0.3888 -9.6477 -2.5000 0.9609
2.3107 -9.3749 -2.5000 0.9609
3.0576 -9.1586 -2.5000 0.9609
4.1392 -8.7233 -2.5000 0.9609
4.8278 -8.3619 -2.5000 0.9609
5.4850 -7.9463 -2.5000 0.9609
5.8005 -7.7190 -2.5000 0.9609
6.1066 -7.4792 -2.5000 0.9609
6.4028 -7.2273 -2.5000 0.9609
7.2272 -6.4028 -2.5000 0.9609
7.4792 -6.1066 -2.5000 0.9609
7.7190 -5.8005 -2.5000 0.9609
7.9463 -5.4850 -2.5000 0.9609
8.1607 -5.1605 -2.5000 0.9609
8.3619 -4.8278 -2.5000 0.9609
8.7233 -4.1392 -2.5000 0.9609
8.8829 -3.7846 -2.5000 0.9609
9.2743 -2.6863 -2.5000 0.9609
9.3749 -2.3107 -2.5000 0.9609
9.5305 -1.5488 -2.5000 0.9609
9.6242 -0.7769 -2.5000 0.9609
9.6477 -0.3888 -2.5000 0.9609
9.6555 0.0000 -2.5000 0.9609
9.6242 0.7769 -2.5000 0.9609
9.4604 1.9314 -2.5000 0.9609
9.2743 2.6863 -2.5000 0.9609
8.4777 3.2152 -2.3476 0.9632
8.3414 3.5539 -2.3476 0.9632
8.0283 4.2136 -2.3476 0.9632
7.8522 4.5335 -2.3476 0.9632
7.6633 4.8460 -2.3476 0.9632
7.2485 5.4469 -2.3476 0.9632
6.7867 6.0125 -2.3476 0.9632
6.5391 6.2809 -2.3476 0.9632
6.2809 6.5391 -2.3476 0.9632
6.0125 6.7867 -2.3476 0.9632
5.7263 7.0134 -2.3443 0.9633
5.4001 7.1864 -2.3275 0.9635
5.1056 7.3967 -2.3271 0.9635
4.4926 7.7814 -2.3264 0.9636
3.1866 8.4025 -2.3267 0.9635
2.1113 7.2889 -1.9648 0.9691
1.2742 7.8404 -2.0566 0.9677
0.9521 7.8417 -2.0453 0.9679
0.5709 7.0717 -1.8369 0.9711
0.3160 7.8419 -2.0321 0.9681
-0.0000 7.8406 -2.0301 0.9681
-0.3159 7.8394 -2.0314 0.9681
-0.6328 7.8381 -2.0360 0.9680
-0.9063 7.4643 -1.9468 0.9694
-1.4383 8.8503 -2.3216 0.9636
-2.1449 8.7022 -2.3206 0.9636
-4.1586 7.9236 -2.3169 0.9637
-4.7816 7.5614 -2.3164 0.9637
-5.4039 7.1913 -2.3291 0.9635
-5.7347 7.0231 -2.3475 0.9632
-6.0125 6.7867 -2.3476 0.9632
-6.2809 6.5391 -2.3476 0.9632
-7.0233 5.7343 -2.3476 0.9632
-7.4619 5.1506 -2.3476 0.9632
-8.1915 3.8869 -2.3476 0.9632
-9.0281 3.4239 -2.5000 0.9609
-9.1586 3.0576 -2.5000 0.9609
-9.5305 1.5489 -2.5000 0.9609
-9.5851 1.1638 -2.5000 0.9609
-9.6242 0.7769 -2.5000 0.9609
-8.8238 -0.3556 -2.5000 0.9640
-8.8023 -0.7106 -2.5000 0.9640
-8.4823 -2.4569 -2.5000 0.9640
-8.3765 -2.7965 -2.5000 0.9640
-8.2571 -3.1315 -2.5000 0.9640
-8.1243 -3.4614 -2.5000 0.9640
-7.6479 -4.4155 -2.5000 0.9640
-7.4639 -4.7199 -2.5000 0.9640
-7.2678 -5.0166 -2.5000 0.9640
-7.0599 -5.3051 -2.5000 0.9640
-6.3689 -6.1174 -2.5000 0.9640
-5.8560 -6.6101 -2.5000 0.9640
-5.5851 -6.8405 -2.5000 0.9640
-5.3051 -7.0599 -2.5000 0.9640
-4.4155 -7.6478 -2.5000 0.9640
-3.7858 -7.9783 -2.5000 0.9640
-3.4614 -8.1243 -2.5000 0.9640
-1.0645 -8.7666 -2.5000 0.9640
-0.7106 -8.8023 -2.5000 0.9640
-0.3556 -8.8238 -2.5000 0.9640
-0.0000 -8.8310 -2.5000 0.9640
0.3556 -8.8238 -2.5000 0.9640
0.7106 -8.8023 -2.5000 0.9640
1.4166 -8.7166 -2.5000 0.9640
1.7664 -8.6525 -2.5000 0.9640
2.1134 -8.5743 -2.5000 0.9640
2.4569 -8.4823 -2.5000 0.9640
2.7965 -8.3765 -2.5000 0.9640
3.1315 -8.2571 -2.5000 0.9640
3.7858 -7.9783 -2.5000 0.9640
4.4155 -7.6478 -2.5000 0.9640
4.7198 -7.4638 -2.5000 0.9640
5.0166 -7.2677 -2.5000 0.9640
5.5851 -6.8405 -2.5000 0.9640
5.8560 -6.6101 -2.5000 0.9640
6.6101 -5.8560 -2.5000 0.9640
7.2677 -5.0166 -2.5000 0.9640
7.4638 -4.7199 -2.5000 0.9640
7.6478 -4.4155 -2.5000 0.9640
8.1243 -3.4614 -2.5000 0.9640
8.3765 -2.7965 -2.5000 0.9640
8.4823 -2.4569 -2.5000 0.9640
8.5744 -2.1134 -2.5000 0.9640
8.7166 -1.4166 -2.5000 0.9640
8.8238 -0.3556 -2.5000 0.9640
8.8310 0.0000 -2.5000 0.9640
8.8238 0.3556 -2.5000 0.9640
8.8023 0.7106 -2.5000 0.9640
8.7666 1.0645 -2.5000 0.9640
8.6525 1.7664 -2.5000 0.9640
8.5744 2.1134 -2.5000 0.9640
7.7537 2.9406 -2.3476 0.9661
7.4920 3.5550 -2.3476 0.9661
7.1816 4.1463 -2.3476 0.9661
7.0088 4.4321 -2.3476 0.9661
6.2071 5.4990 -2.3476 0.9661
5.9807 5.7445 -2.3476 0.9661
5.7445 5.9807 -2.3476 0.9661
5.4990 6.2071 -2.3476 0.9661
4.9817 6.6295 -2.3476 0.9661
4.7107 6.8247 -2.3476 0.9661
4.4290 7.0038 -2.3459 0.9661
3.5213 7.4211 -2.3254 0.9664
3.2192 7.5556 -2.3250 0.9664
2.9118 7.6779 -2.3246 0.9664
2.5999 7.7876 -2.3242 0.9664
1.2439 7.6544 -2.1953 0.9683
0.5715 7.0796 -2.0107 0.9709
0.3085 7.6558 -2.1691 0.9686
-0.3084 7.6533 -2.1684 0.9687
-1.6393 8.0296 -2.3200 0.9665
-1.9608 7.9550 -2.3194 0.9665
-2.2790 7.8682 -2.3190 0.9665
-2.5937 7.7690 -2.3187 0.9665
-3.2096 7.5332 -2.3181 0.9665
-3.8044 7.2488 -2.3175 0.9665
-4.4317 7.0087 -2.3475 0.9661
-4.7108 6.8247 -2.3476 0.9661
-4.9817 6.6295 -2.3476 0.9661
-5.2446 6.4235 -2.3476 0.9661
-5.4990 6.2071 -2.3476 0.9661
-6.4235 5.2446 -2.3476 0.9661
-6.6295 4.9817 -2.3476 0.9661
-6.8247 4.7108 -2.3476 0.9661
-7.0088 4.4321 -2.3476 0.9661
-7.3428 3.8538 -2.3476 0.9661
-7.4920 3.5550 -2.3476 0.9661
-7.6291 3.2504 -2.3476 0.9661
-8.3765 2.7965 -2.5000 0.9640
-8.5744 2.1134 -2.5000 0.9640
-8.7166 1.4166 -2.5000 0.9640
-8.7666 1.0644 -2.5000 0.9640
-8.8023 0.7106 -2.5000 0.9640
-8.1280 0.0000 -2.5000 0.9666
-8.1214 -0.3273 -2.5000 0.9666
-8.0687 -0.9797 -2.5000 0.9666
-7.8918 -1.9451 -2.5000 0.9666
-7.8071 -2.2613 -2.5000 0.9666
-7.5998 -2.8822 -2.5000 0.9666
-7.4775 -3.1859 -2.5000 0.9666
-7.3432 -3.4844 -2.5000 0.9666
-7.0390 -4.0640 -2.5000 0.9666
-6.8697 -4.3441 -2.5000 0.9666
-6.6892 -4.6172 -2.5000 0.9666
-6.4979 -4.8828 -2.5000 0.9666
-6.2960 -5.1405 -2.5000 0.9666
-5.8619 -5.6304 -2.5000 0.9666
-5.3898 -6.0839 -2.5000 0.9666
-5.1405 -6.2960 -2.5000 0.9666
-4.8828 -6.4978 -2.5000 0.9666
-4.6172 -6.6892 -2.5000 0.9666
-4.3441 -6.8697 -2.5000 0.9666
-4.0640 -7.0390 -2.5000 0.9666
-3.7773 -7.1969 -2.5000 0.9666
-3.4844 -7.3432 -2.5000 0.9666
-3.1859 -7.4775 -2.5000 0.9666
-2.8822 -7.5998 -2.5000 0.9666
-2.2613 -7.8071 -2.5000 0.9666
-1.9451 -7.8918 -2.5000 0.9666
-1.6258 -7.9637 -2.5000 0.9666
-0.9797 -8.0687 -2.5000 0.9666
-0.6540 -8.1016 -2.5000 0.9666
-0.3273 -8.1213 -2.5000 0.9666
0.9797 -8.0687 -2.5000 0.9666
1.3038 -8.0227 -2.5000 0.9666
1.6258 -7.9637 -2.5000 0.9666
1.9452 -7.8918 -2.5000 0.9666
3.1859 -7.4775 -2.5000 0.9666
3.4844 -7.3432 -2.5000 0.9666
3.7773 -7.1969 -2.5000 0.9666
4.0640 -7.0390 -2.5000 0.9666
4.3441 -6.8697 -2.5000 0.9666
4.6172 -6.6892 -2.5000 0.9666
4.8828 -6.4978 -2.5000 0.9666
5.1405 -6.2959 -2.5000 0.9666
5.3898 -6.0839 -2.5000 0.9666
5.6304 -5.8619 -2.5000 0.9666
5.8619 -5.6304 -2.5000 0.9666
6.2960 -5.1405 -2.5000 0.9666
7.1970 -3.7772 -2.5000 0.9666
7.3432 -3.4844 -2.5000 0.9666
7.4775 -3.1859 -2.5000 0.9666
7.5998 -2.8822 -2.5000 0.9666
7.8070 -2.2613 -2.5000 0.9666
7.9637 -1.6258 -2.5000 0.9666
8.0227 -1.3038 -2.5000 0.9666
8.0687 -0.9797 -2.5000 0.9666
8.1213 -0.3273 -2.5000 0.9666
8.1279 0.0000 -2.5000 0.9666
8.1016 0.6540 -2.5000 0.9666
8.0687 0.9797 -2.5000 0.9666
8.0227 1.3038 -2.5000 0.9666
7.9637 1.6258 -2.5000 0.9666
7.8918 1.9452 -2.5000 0.9666
7.1794 2.7228 -2.3617 0.9684
7.0217 2.9917 -2.3476 0.9686
6.8956 3.2720 -2.3476 0.9686
6.7582 3.5470 -2.3476 0.9686
6.6099 3.8162 -2.3476 0.9686
6.4509 4.0793 -2.3476 0.9686
6.2814 4.3358 -2.3476 0.9686
5.9121 4.8271 -2.3476 0.9686
4.8271 5.9122 -2.3476 0.9686
4.5851 6.1017 -2.3476 0.9686
4.3357 6.2814 -2.3476 0.9686
4.0793 6.4509 -2.3476 0.9686
3.8162 6.6099 -2.3476 0.9686
3.5470 6.7582 -2.3476 0.9686
3.2720 6.8956 -2.3476 0.9686
2.9889 7.0152 -2.3454 0.9686
2.6936 7.1024 -2.3364 0.9687
2.3933 7.1688 -2.3246 0.9689
2.1021 7.2571 -2.3239 0.9689
1.8079 7.3348 -2.3235 0.9689
1.5108 7.4006 -2.3232 0.9689
1.2114 7.4543 -2.3229 0.9689
0.9088 7.4852 -2.3192 0.9689
0.3016 7.4852 -2.3042 0.9691
-0.6040 7.4815 -2.3086 0.9691
-0.9064 7.4652 -2.3130 0.9690
-1.2101 7.4459 -2.3203 0.9689
-2.0980 7.2430 -2.3194 0.9689
-2.3973 7.1809 -2.3285 0.9688
-2.6957 7.1081 -2.3383 0.9687
-3.5470 6.7582 -2.3476 0.9686
-4.0793 6.4509 -2.3476 0.9686
-4.8271 5.9121 -2.3476 0.9686
-5.9122 4.8271 -2.3476 0.9686
-6.1017 4.5852 -2.3476 0.9686
-6.2814 4.3358 -2.3476 0.9686
-6.4509 4.0793 -2.3476 0.9686
-6.7582 3.5470 -2.3476 0.9686
-7.5998 2.8822 -2.5000 0.9666
-7.8918 1.9452 -2.5000 0.9666
-7.9637 1.6258 -2.5000 0.9666
-8.0227 1.3038 -2.5000 0.9666
-8.1016 0.6540 -2.5000 0.9666
-8.1214 0.3273 -2.5000 0.9666
-7.5209 0.0000 -2.5000 0.9688
-7.5148 -0.3028 -2.5000 0.9688
-7.4965 -0.6052 -2.5000 0.9688
-7.4661 -0.9065 -2.5000 0.9688
-7.4235 -1.2064 -2.5000 0.9688
-7.3689 -1.5044 -2.5000 0.9688
-7.3024 -1.7999 -2.5000 0.9688
-7.1338 -2.3816 -2.5000 0.9688
-7.0321 -2.6669 -2.5000 0.9688
-6.7948 -3.2242 -2.5000 0.9688
-6.6594 -3.4951 -2.5000 0.9688
-6.0125 -4.5181 -2.5000 0.9688
-5.4241 -5.2099 -2.5000 0.9688
-5.2099 -5.4241 -2.5000 0.9688
-4.9873 -5.6295 -2.5000 0.9688
-4.7566 -5.8257 -2.5000 0.9688
-4.2723 -6.1896 -2.5000 0.9688
-3.4951 -6.6594 -2.5000 0.9688
-3.2242 -6.7947 -2.5000 0.9688
-1.7999 -7.3023 -2.5000 0.9688
-1.5044 -7.3689 -2.5000 0.9688
-0.6052 -7.4965 -2.5000 0.9688
0.3028 -7.5148 -2.5000 0.9688
0.6052 -7.4965 -2.5000 0.9688
0.9065 -7.4660 -2.5000 0.9688
1.2064 -7.4235 -2.5000 0.9688
1.5044 -7.3689 -2.5000 0.9688
1.7999 -7.3023 -2.5000 0.9688
2.0925 -7.2239 -2.5000 0.9688
2.6669 -7.0321 -2.5000 0.9688
2.9479 -6.9191 -2.5000 0.9688
3.2242 -6.7947 -2.5000 0.9688
3.4951 -6.6594 -2.5000 0.9688
4.2724 -6.1896 -2.5000 0.9688
4.5181 -6.0125 -2.5000 0.9688
4.7565 -5.8257 -2.5000 0.9688
4.9873 -5.6295 -2.5000 0.9688
5.8257 -4.7565 -2.5000 0.9688
6.3566 -4.0197 -2.5000 0.9688
6.9191 -2.9479 -2.5000 0.9688
7.1338 -2.3816 -2.5000 0.9688
7.2239 -2.0924 -2.5000 0.9688
7.3023 -1.7999 -2.5000 0.9688
7.4235 -1.2064 -2.5000 0.9688
7.4965 -0.6052 -2.5000 0.9688
7.5148 -0.3028 -2.5000 0.9688
7.4965 0.6052 -2.5000 0.9688
7.4661 0.9066 -2.5000 0.9688
7.3689 1.5044 -2.5000 0.9688
7.1338 2.3816 -2.5000 0.9688
5.9691 3.7746 -2.3476 0.9707
5.8122 4.0119 -2.3476 0.9707
5.6460 4.2427 -2.3476 0.9707
5.4706 4.4666 -2.3476 0.9707
5.2863 4.6832 -2.3476 0.9707
4.8923 5.0934 -2.3476 0.9707
4.6832 5.2863 -2.3476 0.9707
4.4666 5.4706 -2.3476 0.9707
4.2427 5.6460 -2.3476 0.9707
4.0119 5.8123 -2.3476 0.9707
3.7746 5.9691 -2.3476 0.9707
3.0276 6.3806 -2.3476 0.9707
2.7682 6.4973 -2.3476 0.9707
1.9649 6.7836 -2.3476 0.9707
1.6902 6.8572 -2.3476 0.9707
1.1325 6.9709 -2.3476 0.9707
0.8511 7.0092 -2.3470 0.9707
0.5676 7.0312 -2.3448 0.9707
0.0000 7.0492 -2.3432 0.9707
-0.2839 7.0452 -2.3438 0.9707
-0.8515 7.0107 -2.3475 0.9707
-1.4127 6.9197 -2.3476 0.9707
-1.6902 6.8572 -2.3476 0.9707
-1.9649 6.7836 -2.3476 0.9707
-2.2365 6.6989 -2.3476 0.9707
-2.7682 6.4973 -2.3476 0.9707
-3.0276 6.3806 -2.3476 0.9707
-3.2821 6.2535 -2.3476 0.9707
-4.4666 5.4706 -2.3476 0.9707
-4.8923 5.0934 -2.3476 0.9707
-5.0934 4.8923 -2.3476 0.9707
-5.2863 4.6833 -2.3476 0.9707
-5.4706 4.4666 -2.3476 0.9707
-5.6460 4.2427 -2.3476 0.9707
-5.8123 4.0119 -2.3476 0.9707
-6.3805 3.0276 -2.3476 0.9707
-7.2239 2.0924 -2.5000 0.9688
-7.4661 0.9065 -2.5000 0.9688
-7.5148 0.3029 -2.5000 0.9688
-6.9909 0.0000 -2.5000 0.9707
-6.9852 -0.2815 -2.5000 0.9707
-6.9682 -0.5625 -2.5000 0.9707
-6.6311 -2.2138 -2.5000 0.9707
-6.4315 -2.7402 -2.5000 0.9707
-6.3159 -2.9969 -2.5000 0.9707
-6.0543 -3.4954 -2.5000 0.9707
-5.7534 -3.9713 -2.5000 0.9707
-5.5888 -4.1997 -2.5000 0.9707
-5.2327 -4.6358 -2.5000 0.9707
-4.8427 -5.0418 -2.5000 0.9707
-4.6358 -5.2327 -2.5000 0.9707
-4.4214 -5.4152 -2.5000 0.9707
-3.2488 -6.1901 -2.5000 0.9707
-2.7402 -6.4314 -2.5000 0.9707
-2.2138 -6.6311 -2.5000 0.9707
-0.8427 -6.9399 -2.5000 0.9707
-0.5625 -6.9682 -2.5000 0.9707
0.0000 -6.9909 -2.5000 0.9707
0.2815 -6.9852 -2.5000 0.9707
0.5625 -6.9682 -2.5000 0.9707
1.1214 -6.9003 -2.5000 0.9707
1.9450 -6.7149 -2.5000 0.9707
2.4790 -6.5366 -2.5000 0.9707
2.7402 -6.4314 -2.5000 0.9707
3.7364 -5.9086 -2.5000 0.9707
3.9712 -5.7534 -2.5000 0.9707
4.1997 -5.5888 -2.5000 0.9707
4.4213 -5.4152 -2.5000 0.9707
4.6358 -5.2327 -2.5000 0.9707
4.8427 -5.0418 -2.5000 0.9707
5.0418 -4.8427 -2.5000 0.9707
5.5888 -4.1997 -2.5000 0.9707
5.9086 -3.7364 -2.5000 0.9707
6.0543 -3.4954 -2.5000 0.9707
6.1901 -3.2488 -2.5000 0.9707
6.5366 -2.4790 -2.5000 0.9707
6.9003 -1.1214 -2.5000 0.9707
6.9852 -0.2815 -2.5000 0.9707
6.7148 1.9450 -2.5000 0.9707
6.6311 2.2138 -2.5000 0.9707
6.3426 2.7024 -2.4655 0.9711
5.8127 3.0508 -2.3476 0.9725
5.6852 3.2824 -2.3476 0.9725
5.4026 3.7292 -2.3476 0.9725
5.2481 3.9437 -2.3476 0.9725
5.0850 4.1518 -2.3476 0.9725
4.7345 4.5475 -2.3476 0.9725
4.1518 5.0851 -2.3476 0.9725
3.9437 5.2481 -2.3476 0.9725
3.7292 5.4026 -2.3476 0.9725
3.2824 5.6852 -2.3476 0.9725
2.8142 5.9309 -2.3476 0.9725
2.5731 6.0394 -2.3476 0.9725
2.3279 6.1381 -2.3476 0.9725
1.3131 6.4320 -2.3476 0.9725
0.5282 6.5434 -2.3476 0.9725
0.2644 6.5594 -2.3476 0.9725
-0.2643 6.5594 -2.3476 0.9725
-0.5282 6.5434 -2.3476 0.9725
-0.7913 6.5168 -2.3476 0.9725
-1.8264 6.3055 -2.3476 0.9725
-2.3279 6.1381 -2.3476 0.9725
-2.5731 6.0394 -2.3476 0.9725
-2.8142 5.9309 -2.3476 0.9725
-3.0508 5.8128 -2.3476 0.9725
-3.5086 5.5484 -2.3476 0.9725
-3.7292 5.4026 -2.3476 0.9725
-3.9437 5.2481 -2.3476 0.9725
-4.1518 5.0850 -2.3476 0.9725
-4.3532 4.9138 -2.3476 0.9725
-4.5475 4.7345 -2.3476 0.9725
-4.7345 4.5475 -2.3476 0.9725
-5.0851 4.1518 -2.3476 0.9725
-5.4026 3.7292 -2.3476 0.9725
-5.5484 3.5086 -2.3476 0.9725
