ply
format ascii 1.0
element vertex 1569
property float32 x
property float32 y
property float32 z
property float32 I
end_header
-21.9952 11.5440 2.1028 0.9051
-43.5894 14.5523 3.8902 0.8315
-31.9864 9.2650 2.8190 0.8749
-40.8334 6.6361 3.5020 0.8470
-40.5946 4.9290 3.4617 0.8486
-42.5437 -22.3287 2.9794 0.8248
-19.4457 -18.6778 1.6720 0.8976
-18.6875 -19.4557 1.6728 0.8975
-16.3116 -19.9781 1.5993 0.9018
-15.2683 -20.3184 1.5760 0.9032
-17.7428 -28.0580 2.0586 0.8754
-17.4876 -30.2895 2.1688 0.8692
-21.4390 -40.8487 2.8607 0.8312
-10.8935 -37.6087 2.4280 0.8548
-5.2308 -25.6219 1.6216 0.9005
-2.5760 -21.2150 1.3252 0.9179
-1.7103 -21.1859 1.3180 0.9183
0.0000 -18.9181 1.1731 0.9270
2.9940 -24.6580 1.5403 0.9052
3.8172 -23.4878 1.4756 0.9090
4.8076 -23.5490 1.4904 0.9082
12.9020 -44.5428 2.8756 0.8304
9.0921 -17.3235 1.2132 0.9246
9.8300 -17.0261 1.2191 0.9242
10.7846 -17.0545 1.2513 0.9223
12.7253 -16.9343 1.3135 0.9186
18.5292 -20.9151 1.7327 0.8941
25.7403 7.4558 1.6618 0.8982
20.8956 7.9246 1.3858 0.9143
20.0225 8.5308 1.3496 0.9165
18.2504 9.5785 1.2781 0.9207
16.6705 9.6247 1.1937 0.9258
11.9579 8.9857 0.9275 0.9418
11.6907 9.5452 0.9359 0.9413
11.6758 13.1792 1.0918 0.9319
7.8496 10.4459 0.8103 0.9490
11.6758 16.9152 1.2745 0.9209
6.9613 11.0085 0.8077 0.9491
2.6224 9.0536 0.5845 0.9629
2.3723 9.6248 0.6147 0.9611
1.9649 9.6248 0.6091 0.9614
0.3863 9.5871 0.5950 0.9623
-0.0000 9.6247 0.5968 0.9622
-0.3901 9.6811 0.6008 0.9619
-0.7816 9.6811 0.6023 0.9618
-1.1755 9.6811 0.6047 0.9617
-1.5642 9.6247 0.6047 0.9617
-1.9649 9.6247 0.6091 0.9614
-2.5967 8.9647 0.5788 0.9633
-3.1518 8.3105 0.5511 0.9650
-3.9265 8.2749 0.5680 0.9640
-4.3350 8.2597 0.5784 0.9633
-10.7487 18.6173 1.3331 0.9175
-23.5533 28.8476 2.3094 0.8614
-31.5319 30.2868 2.7112 0.8393
-23.3521 17.5480 1.8114 0.8895
-21.8735 13.8319 1.6048 0.9015
-23.5509 12.3605 1.6493 0.8989
-23.4609 11.1323 1.6103 0.9012
-31.8439 13.5674 2.1464 0.8705
-42.7888 14.2850 2.7973 0.8346
-31.1325 6.3557 1.9704 0.8804
-39.4780 6.4158 2.4802 0.8519
-42.8835 -22.5070 1.9097 0.8238
-21.7869 -16.3718 1.0746 0.8966
-21.3542 -17.4351 1.0870 0.8955
-20.0506 -17.7633 1.0562 0.8983
-19.5282 -18.7571 1.0677 0.8973
-18.9148 -19.6924 1.0767 0.8965
-19.8308 -22.3843 1.1792 0.8872
-19.3826 -23.7394 1.2084 0.8845
-15.2895 -20.3465 1.0036 0.9031
-14.6314 -21.1972 1.0156 0.9020
-16.5571 -28.6776 1.3057 0.8759
-12.2162 -28.6726 1.2289 0.8827
-15.9396 -42.0291 1.7724 0.8353
-6.8551 -27.8122 1.1295 0.8917
-4.3495 -26.7637 1.0692 0.8971
0.9424 -23.3845 0.9228 0.9106
3.9237 -24.1435 0.9645 0.9067
8.0243 -16.9108 0.7381 0.9278
8.6879 -16.5533 0.7372 0.9279
9.4831 -16.4251 0.7479 0.9269
14.3311 -19.0713 0.9407 0.9089
19.1810 -19.9696 1.0918 0.8951
20.0907 8.5598 0.8611 0.9163
19.5630 9.2828 0.8538 0.9170
16.7139 9.6498 0.7610 0.9257
13.0857 8.2749 0.6105 0.9399
12.2167 8.4326 0.5853 0.9423
11.9579 8.9857 0.5898 0.9419
11.7809 11.3157 0.6441 0.9367
7.4817 9.9564 0.4911 0.9514
7.2160 10.4542 0.5009 0.9504
4.8476 8.3964 0.3823 0.9619
4.3430 8.2749 0.3685 0.9633
2.9426 8.8140 0.3664 0.9635
2.6224 9.0536 0.3717 0.9630
2.3723 9.6248 0.3909 0.9611
1.5578 9.5857 0.3829 0.9619
-0.0000 9.6247 0.3795 0.9622
-0.7816 9.6811 0.3830 0.9619
-1.1755 9.6811 0.3845 0.9617
-1.9649 9.6248 0.3873 0.9614
-2.3293 9.4503 0.3838 0.9618
-3.5256 8.2749 0.3547 0.9646
-3.9265 8.2749 0.3612 0.9640
-24.1905 41.8992 1.9077 0.8239
-30.3826 26.9166 1.6005 0.8500
-21.3057 17.3955 1.0846 0.8957
-21.8149 15.0578 1.0452 0.8993
-31.1521 19.6994 1.4534 0.8628
-31.1889 18.0069 1.4201 0.8657
-41.9033 13.9894 1.7419 0.8379
-41.2222 -23.7997 0.8040 0.8266
-21.8263 -17.8206 0.4760 0.8934
-23.6799 -26.7291 0.6032 0.8669
-15.4003 -20.4941 0.4330 0.9025
-14.0321 -20.3289 0.4173 0.9059
-15.7389 -36.9405 0.6783 0.8516
-5.4484 -26.6881 0.4601 0.8968
-4.3847 -26.9802 0.4617 0.8964
-3.2205 -26.5232 0.4513 0.8986
-0.9034 -22.4163 0.3790 0.9142
0.0000 -20.6184 0.3483 0.9208
0.8047 -19.9680 0.3376 0.9232
2.8167 -23.1974 0.3947 0.9108
6.0289 -24.4603 0.4255 0.9041
11.4866 -39.6564 0.6974 0.8477
6.2048 -18.5856 0.3310 0.9246
8.1507 -15.5298 0.2963 0.9322
8.9012 -15.4172 0.3007 0.9313
10.6592 -16.8562 0.3369 0.9233
11.9841 -17.3619 0.3564 0.9191
13.6655 -16.7372 0.3650 0.9172
16.9715 -19.1568 0.4323 0.9027
20.0907 8.5598 0.3689 0.9163
18.4414 9.6788 0.3518 0.9201
16.7140 9.6498 0.3260 0.9257
11.6907 9.5452 0.2549 0.9414
11.6758 13.1792 0.2974 0.9320
11.7208 15.5975 0.3296 0.9249
4.3430 8.2749 0.1579 0.9633
3.5149 8.2499 0.1515 0.9648
3.1913 8.4148 0.1520 0.9646
2.9426 8.8140 0.1570 0.9635
2.6224 9.0536 0.1592 0.9630
1.9649 9.6248 0.1659 0.9615
1.5578 9.5857 0.1640 0.9619
0.3863 9.5871 0.1621 0.9623
-0.0000 9.6247 0.1626 0.9622
-0.3901 9.6811 0.1637 0.9620
-1.1755 9.6811 0.1647 0.9617
-1.9649 9.6248 0.1659 0.9615
-2.8215 8.4514 0.1505 0.9650
-3.1518 8.3105 0.1501 0.9651
-3.9265 8.2749 0.1547 0.9640
-4.3350 8.2597 0.1576 0.9634
-2.1633 3.4210 0.0684 0.9839
-30.7183 34.6738 0.7825 0.8308
-31.6023 32.9014 0.7706 0.8332
-31.5320 30.2868 0.7385 0.8395
-30.4882 27.0102 0.6880 0.8496
-11.1530 7.6983 0.2289 0.9472
-31.2617 19.7687 0.6248 0.8625
-31.2618 18.0490 0.6098 0.8655
-29.8733 15.6787 0.5699 0.8737
-29.9926 14.2316 0.5608 0.8756
-23.7052 8.9902 0.4283 0.9035
-42.1453 14.0702 0.7505 0.8371
-30.6525 7.5552 0.5333 0.8814
-31.7681 6.4855 0.5477 0.8783
-40.5762 6.5943 0.6944 0.8484
-44.6829 -16.9459 -0.2691 0.8260
-40.3764 -19.1588 -0.2516 0.8363
-39.5114 -20.7372 -0.2512 0.8365
-41.9171 -24.2009 -0.2725 0.8240
-35.3662 -24.4116 -0.2419 0.8421
-22.2480 -16.7183 -0.1567 0.8947
-21.4150 -17.4848 -0.1557 0.8953
-17.9657 -18.7042 -0.1460 0.9015
-14.2859 -22.5913 -0.1505 0.8986
-22.8428 -43.5233 -0.2767 0.8215
-17.2492 -36.3520 -0.2265 0.8513
-6.5944 -22.7663 -0.1334 0.9095
-5.7857 -23.4735 -0.1361 0.9078
-4.1233 -25.3714 -0.1447 0.9023
-0.9032 -22.4112 -0.1263 0.9142
0.0000 -23.6133 -0.1329 0.9099
0.9650 -23.9465 -0.1349 0.9086
1.8971 -23.5001 -0.1327 0.9100
3.0502 -25.1208 -0.1425 0.9037
9.1112 -36.9658 -0.2144 0.8587
10.0253 -26.4345 -0.1592 0.8931
8.1723 -17.2228 -0.1073 0.9266
10.3883 -16.4277 -0.1094 0.9252
14.6659 -21.2472 -0.1454 0.9019
17.7837 -20.0736 -0.1510 0.8983
14.9171 -15.5304 -0.1212 0.9175
25.8708 -19.4407 -0.1822 0.8786
20.0907 8.5598 -0.1230 0.9164
19.5630 9.2828 -0.1219 0.9170
13.0857 8.2749 -0.0872 0.9399
12.2167 8.4326 -0.0836 0.9423
11.6907 9.5452 -0.0850 0.9414
10.8955 9.6526 -0.0820 0.9434
9.2714 9.6526 -0.0754 0.9479
8.5515 9.6526 -0.0726 0.9497
7.2534 9.6526 -0.0680 0.9529
6.6627 9.6526 -0.0660 0.9542
6.0522 9.5708 -0.0638 0.9557
4.3430 8.2749 -0.0526 0.9633
2.9426 8.8140 -0.0523 0.9635
1.1755 9.6811 -0.0549 0.9617
0.7815 9.6811 -0.0547 0.9619
0.3863 9.5871 -0.0540 0.9623
-1.1755 9.6811 -0.0549 0.9617
-1.5642 9.6247 -0.0549 0.9617
-2.3293 9.4503 -0.0548 0.9618
-2.5967 8.9647 -0.0525 0.9634
-2.1633 3.4210 -0.0228 0.9839
-30.7183 34.6738 -0.2608 0.8309
-31.5319 30.2868 -0.2462 0.8396
-30.1879 19.0897 -0.2011 0.8669
-29.8733 15.6787 -0.1900 0.8738
-29.9926 14.2316 -0.1869 0.8756
-31.8696 13.5783 -0.1950 0.8706
-23.7052 8.9902 -0.1427 0.9036
-29.5957 9.8805 -0.1757 0.8827
-29.5957 7.2947 -0.1716 0.8852
-29.7095 6.0653 -0.1707 0.8858
-37.5261 6.0986 -0.2141 0.8589
-47.3905 5.7542 -0.2688 0.8262
-44.6511 -16.9339 -1.3447 0.8261
-39.4651 -16.8145 -1.2079 0.8423
-23.6213 -16.3046 -0.8082 0.8915
-19.7761 -17.5201 -0.7439 0.8997
-15.5503 -16.1896 -0.6321 0.9141
-19.1785 -25.5220 -0.8989 0.8801
-16.5456 -23.9704 -0.8201 0.8900
-9.3768 -16.2412 -0.5281 0.9277
-10.2629 -24.0880 -0.7373 0.9005
-8.5330 -22.4997 -0.6776 0.9082
-6.5269 -22.5334 -0.6606 0.9104
-5.7486 -23.3231 -0.6764 0.9084
-3.2684 -16.0096 -0.4601 0.9367
-4.3549 -26.7966 -0.7644 0.8971
-2.1883 -27.1071 -0.7658 0.8969
5.7529 -19.8613 -0.5822 0.9206
6.4249 -19.2449 -0.5713 0.9220
8.1656 -19.1654 -0.5866 0.9200
9.1390 -15.8292 -0.5147 0.9295
9.5214 -15.0569 -0.5016 0.9312
15.3750 -20.4604 -0.7207 0.9027
18.7193 -21.1296 -0.7949 0.8932
14.8654 -15.4766 -0.6042 0.9177
18.5959 8.8239 -0.5796 0.9209
16.8706 8.8544 -0.5365 0.9266
12.1762 8.4046 -0.4166 0.9425
11.6017 9.4725 -0.4217 0.9418
10.8955 9.6526 -0.4099 0.9434
8.5514 9.6526 -0.3631 0.9497
7.8811 9.6526 -0.3509 0.9514
7.2534 9.6526 -0.3400 0.9528
6.6627 9.6526 -0.3303 0.9542
6.0522 9.5708 -0.3189 0.9557
4.8476 8.3964 -0.2730 0.9619
2.9426 8.8140 -0.2617 0.9635
0.7821 9.6876 -0.2737 0.9619
-0.0000 8.6073 -0.2424 0.9661
-0.7816 9.6811 -0.2735 0.9619
-1.5642 9.6247 -0.2746 0.9617
-2.8215 8.4514 -0.2509 0.9650
-5.0359 8.7224 -0.2836 0.9605
-29.6159 33.4295 -1.2576 0.8363
-32.3760 26.4341 -1.1769 0.8460
-10.2447 7.6983 -0.3608 0.9500
-11.1530 7.6984 -0.3816 0.9472
-29.8733 15.6787 -0.9500 0.8737
-29.9926 14.2316 -0.9348 0.8756
-29.5957 9.8805 -0.8786 0.8826
-29.5957 8.5725 -0.8676 0.8840
-37.5261 6.0986 -1.0705 0.8589
-49.2555 -1.9849 -2.5000 0.8208
-48.9361 -5.9419 -2.5000 0.8208
-48.6571 -7.9076 -2.5000 0.8208
-48.2992 -9.8604 -2.5000 0.8208
-43.3181 -16.4284 -2.3495 0.8306
-31.6964 -16.6355 -1.8154 0.8664
-28.9433 -16.7104 -1.6949 0.8747
-26.2245 -16.5834 -1.5736 0.8831
-21.8356 -16.4084 -1.3852 0.8964
-20.0462 -16.3672 -1.3125 0.9015
-16.9662 -16.2962 -1.1930 0.9101
-15.5349 -16.1735 -1.1373 0.9141
-14.3150 -16.1583 -1.0948 0.9172
-19.1704 -25.5112 -1.6184 0.8800
-21.3168 -40.6157 -2.3263 0.8322
-19.6574 -41.4272 -2.3255 0.8322
-10.1863 -23.9082 -1.3179 0.9011
-8.4718 -22.3383 -1.2116 0.9087
-7.4025 -22.1731 -1.1855 0.9106
-5.5715 -22.6042 -1.1807 0.9110
-3.6839 -45.6326 -2.3218 0.8325
-0.9027 -22.4009 -1.1370 0.9141
1.0755 -26.6869 -1.3545 0.8986
10.9650 -44.4867 -2.3236 0.8323
9.3093 -27.8846 -1.4909 0.8889
12.5356 -26.4181 -1.4830 0.8895
21.3337 -40.6483 -2.3281 0.8321
23.0225 -39.8762 -2.3351 0.8316
11.6920 -15.5592 -0.9870 0.9250
14.9024 -15.5151 -1.0910 0.9174
17.5264 -15.5271 -1.1875 0.9105
18.9461 -15.4690 -1.2404 0.9067
20.7874 -15.6207 -1.3187 0.9011
40.5696 -28.0031 -2.5000 0.8208
42.6914 -24.6479 -2.5000 0.8208
43.6492 -22.9089 -2.5000 0.8208
44.2061 -20.9760 -2.4815 0.8220
44.3178 -16.8075 -2.4038 0.8271
45.1420 -15.0706 -2.4136 0.8265
46.9163 -13.5895 -2.4771 0.8223
47.8630 -11.7972 -2.5000 0.8208
48.2992 -9.8605 -2.5000 0.8208
48.6571 -7.9076 -2.5000 0.8208
49.1356 -3.9667 -2.5000 0.8208
46.5377 3.7569 -2.3678 0.8294
45.9529 5.5797 -2.3476 0.8308
45.3552 9.2593 -2.3476 0.8308
25.7403 7.4558 -1.3591 0.8982
43.9084 14.6587 -2.3476 0.8308
43.8234 16.6200 -2.3769 0.8288
18.6735 7.9560 -1.0294 0.9219
16.9458 8.0409 -0.9512 0.9276
13.0857 8.2749 -0.7852 0.9399
11.9578 8.9857 -0.7586 0.9419
10.3071 9.1313 -0.6983 0.9463
7.2534 9.6526 -0.6123 0.9528
6.6627 9.6526 -0.5948 0.9541
6.0522 9.5708 -0.5743 0.9557
4.8476 8.3964 -0.4917 0.9619
2.8826 8.6346 -0.4617 0.9642
2.6223 9.0532 -0.4780 0.9630
1.1755 9.6811 -0.4946 0.9617
0.7815 9.6811 -0.4926 0.9618
-0.0000 8.6073 -0.4365 0.9661
-0.3901 9.6811 -0.4914 0.9619
-0.7816 9.6811 -0.4926 0.9618
-1.1755 9.6811 -0.4946 0.9617
-1.4124 8.6905 -0.4465 0.9654
-1.9648 9.6239 -0.4981 0.9614
-3.4700 8.1444 -0.4490 0.9652
-4.3350 8.2597 -0.4731 0.9633
-5.0359 8.7224 -0.5108 0.9605
-2.1633 3.4210 -0.2053 0.9839
-27.4502 36.5295 -2.3173 0.8328
-28.9293 35.4320 -2.3198 0.8326
-28.9920 30.1839 -2.1225 0.8457
-31.3473 30.1095 -2.2043 0.8402
-30.4882 27.0102 -2.0657 0.8495
-32.3760 26.4341 -2.1197 0.8459
-29.6864 18.7726 -1.7813 0.8688
-29.8733 15.6787 -1.7110 0.8736
-23.7052 8.9902 -1.2857 0.9034
-29.5957 8.5725 -1.5626 0.8839
-29.7095 6.0653 -1.5378 0.8856
-46.1522 3.7258 -2.3482 0.8307
-49.2555 1.9849 -2.5000 0.8208
-33.9853 -2.7436 -2.5000 0.8722
-33.8473 -4.1098 -2.5000 0.8722
-33.6544 -5.4694 -2.5000 0.8722
-33.4069 -6.8201 -2.5000 0.8722
-32.3412 -10.7971 -2.5000 0.8722
-28.9286 -13.7267 -2.3478 0.8795
-28.3551 -14.8819 -2.3480 0.8795
-21.8356 -16.4084 -2.0027 0.8962
-20.0462 -16.3672 -1.8975 0.9014
-18.4458 -16.3416 -1.8069 0.9059
-17.1753 -16.4971 -1.7462 0.9089
-15.5349 -16.1736 -1.6443 0.9140
-12.1627 -16.1856 -1.4845 0.9220
-9.3068 -16.1198 -1.3648 0.9281
-6.8438 -16.0631 -1.2802 0.9324
-4.6380 -16.0122 -1.2223 0.9353
-2.5946 -15.9652 -1.1860 0.9372
-1.2864 -15.9351 -1.1722 0.9379
-0.6416 -15.9202 -1.1683 0.9381
0.0000 -15.9054 -1.1662 0.9382
1.2816 -15.8759 -1.1678 0.9381
1.9259 -15.8611 -1.1715 0.9379
3.8982 -15.8156 -1.1943 0.9368
4.5765 -15.8000 -1.2061 0.9362
5.2996 -15.8742 -1.2271 0.9351
5.9799 -15.7677 -1.2365 0.9346
10.8069 -15.6565 -1.3949 0.9265
11.7488 -15.6348 -1.4340 0.9246
12.7466 -15.6118 -1.4778 0.9223
21.2156 -23.9475 -2.3458 0.8796
17.5301 -15.5303 -1.7172 0.9103
26.3980 -18.2212 -2.3519 0.8793
27.0610 -17.1123 -2.3476 0.8795
27.7281 -16.0088 -2.3476 0.8795
30.1906 -15.8452 -2.5000 0.8722
31.3676 -13.3645 -2.5000 0.8722
32.3413 -10.7971 -2.5000 0.8722
32.7498 -9.4861 -2.5000 0.8722
33.6544 -5.4694 -2.5000 0.8722
33.8474 -4.1098 -2.5000 0.8722
33.9854 -2.7436 -2.5000 0.8722
34.0683 -1.3729 -2.5000 0.8722
34.0683 1.3729 -2.5000 0.8722
33.4070 6.8201 -2.5000 0.8722
33.1053 8.1597 -2.5000 0.8722
18.5950 7.9226 -1.4820 0.9221
16.8697 8.0048 -1.3691 0.9278
15.3530 8.0579 -1.2713 0.9328
15.3519 8.8634 -1.2998 0.9314
11.2402 8.4465 -1.0309 0.9452
10.3517 8.4519 -0.9799 0.9478
9.6943 8.5884 -0.9496 0.9494
9.6943 9.3115 -0.9856 0.9475
9.2714 9.6526 -0.9813 0.9477
6.4599 8.5966 -0.7885 0.9578
5.9739 8.6547 -0.7711 0.9587
5.7747 9.1320 -0.7922 0.9576
4.8476 8.3964 -0.7109 0.9619
4.3430 8.2749 -0.6852 0.9632
3.9265 8.2749 -0.6716 0.9639
3.5149 8.2499 -0.6575 0.9647
3.1913 8.4148 -0.6599 0.9645
2.9426 8.8140 -0.6813 0.9634
2.6224 9.0534 -0.6911 0.9629
1.5578 9.5856 -0.7121 0.9618
0.7815 9.6811 -0.7122 0.9618
-0.0000 8.2418 -0.6043 0.9675
-0.7816 9.6811 -0.7122 0.9618
-1.4123 8.6902 -0.6455 0.9653
-1.9648 9.6239 -0.7202 0.9614
-2.8215 8.4514 -0.6533 0.9649
-3.1518 8.3105 -0.6517 0.9650
-16.7848 29.0721 -2.4614 0.8740
-2.1633 3.4210 -0.2968 0.9839
-19.0697 27.6272 -2.4614 0.8740
-20.1667 26.8370 -2.4614 0.8740
-22.2608 25.1272 -2.4614 0.8740
-24.4104 19.9305 -2.3106 0.8813
-25.2170 18.9493 -2.3128 0.8812
-25.9832 17.9349 -2.3149 0.8811
-28.2118 14.8067 -2.3361 0.8800
-28.8063 13.6687 -2.3379 0.8800
-31.6116 5.1374 -2.3482 0.8795
-33.3146 2.6894 -2.4506 0.8745
-34.0682 1.3729 -2.5000 0.8722
-26.0312 0.0000 -2.4991 0.9007
-25.9557 -2.0954 -2.5000 0.9006
-25.8503 -3.1388 -2.5000 0.9006
-25.7030 -4.1772 -2.5000 0.9006
-25.5139 -5.2087 -2.5000 0.9006
-25.2835 -6.2318 -2.5000 0.9006
-24.7000 -8.2461 -2.5000 0.9006
-24.3480 -9.2339 -2.5000 0.9006
-20.9086 -13.2218 -2.3750 0.9054
-15.5349 -16.1735 -2.1530 0.9138
-13.2353 -16.2103 -2.0091 0.9193
-12.1627 -16.1856 -1.9437 0.9219
-9.3068 -16.1198 -1.7870 0.9279
-10.4772 -22.0803 -2.3464 0.9065
-6.0853 -16.0456 -1.6475 0.9334
-5.3512 -16.0287 -1.6223 0.9344
-3.2441 -15.8904 -1.5570 0.9369
-1.2864 -15.9351 -1.5348 0.9378
-0.6416 -15.9202 -1.5297 0.9380
0.0000 -15.9054 -1.5270 0.9381
5.8464 -23.7198 -2.3454 0.9065
6.7977 -23.4682 -2.3457 0.9065
5.3023 -15.8825 -1.6075 0.9349
10.8069 -15.6565 -1.8264 0.9264
16.2425 -18.3340 -2.3515 0.9063
17.6373 -16.9408 -2.3478 0.9064
18.3033 -16.2152 -2.3476 0.9064
20.8830 -13.2056 -2.3721 0.9055
22.5516 -13.0201 -2.5000 0.9006
23.9564 -10.2069 -2.5000 0.9006
25.5139 -5.2087 -2.5000 0.9006
25.7030 -4.1771 -2.5000 0.9006
25.8503 -3.1388 -2.5000 0.9006
25.9557 -2.0954 -2.5000 0.9006
26.0190 -1.0485 -2.5000 0.9006
26.0190 1.0485 -2.5000 0.9006
24.1361 3.9225 -2.3476 0.9064
23.4873 6.8032 -2.3476 0.9064
18.6575 7.0759 -1.9157 0.9229
15.3541 7.2856 -1.6316 0.9340
11.2402 8.4465 -1.3498 0.9451
10.3450 8.4465 -1.2822 0.9477
9.2714 9.6526 -1.2849 0.9476
7.2759 8.2128 -1.0534 0.9569
6.7055 8.2128 -1.0179 0.9583
6.1721 8.2135 -0.9864 0.9596
5.7747 8.3662 -0.9760 0.9600
5.7747 9.1320 -1.0373 0.9575
4.8476 8.3964 -0.9308 0.9618
3.8541 8.1223 -0.8631 0.9645
2.8826 8.6346 -0.8739 0.9641
2.6223 9.0532 -0.9049 0.9628
1.5578 9.5856 -0.9323 0.9617
1.1755 9.6811 -0.9363 0.9616
-0.0000 8.0583 -0.7736 0.9681
-0.3902 9.6811 -0.9302 0.9618
-1.1755 9.6811 -0.9363 0.9616
-1.3497 8.3050 -0.8078 0.9668
-2.5337 8.7474 -0.8743 0.9641
-3.1518 8.3105 -0.8533 0.9649
-3.4700 8.1444 -0.8499 0.9651
-4.3350 8.2597 -0.8956 0.9632
-12.8191 22.2033 -2.4614 0.9021
-2.1633 3.4210 -0.3886 0.9839
-14.5642 21.0998 -2.4614 0.9021
-16.2147 19.8595 -2.4614 0.9021
-17.7602 18.4903 -2.4614 0.9021
-19.1904 17.0013 -2.4614 0.9021
-19.8595 16.2147 -2.4614 0.9021
-21.0998 14.5642 -2.4614 0.9021
-21.6692 13.7028 -2.4614 0.9021
-22.2034 12.8191 -2.4614 0.9021
-23.1629 10.9909 -2.4614 0.9021
-23.1930 9.8816 -2.4203 0.9037
-23.1237 7.7198 -2.3404 0.9067
-23.1563 6.7073 -2.3145 0.9077
-23.8453 4.8680 -2.3365 0.9068
-25.7486 3.1264 -2.4901 0.9010
-26.0156 1.0484 -2.4997 0.9007
-21.0460 0.0000 -2.5000 0.9187
-20.8927 -2.5368 -2.5000 0.9187
-20.7736 -3.3761 -2.5000 0.9187
-20.4346 -5.0367 -2.5000 0.9187
-19.6785 -7.4631 -2.5000 0.9187
-19.3620 -8.2494 -2.5000 0.9187
-18.6354 -9.7806 -2.5000 0.9187
-17.7880 -11.2484 -2.5000 0.9187
-17.3206 -11.9556 -2.5000 0.9187
-16.1678 -13.2006 -2.4793 0.9194
-13.6904 -14.2532 -2.3476 0.9235
-12.4991 -15.3087 -2.3476 0.9235
-11.8748 -15.8025 -2.3480 0.9235
-11.2304 -16.2700 -2.3483 0.9235
-10.5674 -16.7110 -2.3486 0.9234
-9.3337 -16.1665 -2.2174 0.9276
-9.1987 -17.5266 -2.3512 0.9234
-7.6306 -16.0812 -2.1144 0.9308
-6.8438 -16.0631 -2.0740 0.9321
-6.0853 -16.0456 -2.0385 0.9332
-3.2441 -15.8904 -1.9265 0.9368
-2.5946 -15.9652 -1.9213 0.9369
-1.9367 -15.9500 -1.9086 0.9373
-1.2864 -15.9351 -1.8990 0.9376
1.2816 -15.8759 -1.8920 0.9379
3.2319 -15.8310 -1.9193 0.9370
5.9799 -15.7677 -2.0031 0.9343
7.7587 -18.2104 -2.3513 0.9234
8.4871 -17.8861 -2.3517 0.9234
10.5644 -16.7062 -2.3479 0.9235
11.2269 -16.2650 -2.3476 0.9235
12.4991 -15.3086 -2.3476 0.9235
13.1054 -14.7929 -2.3476 0.9235
13.6904 -14.2532 -2.3476 0.9235
14.9100 -13.2091 -2.3662 0.9229
16.8252 -12.6433 -2.5000 0.9187
17.7880 -11.2484 -2.5000 0.9187
18.6354 -9.7806 -2.5000 0.9187
19.0144 -9.0223 -2.5000 0.9187
19.9630 -6.6646 -2.5000 0.9187
20.7736 -3.3760 -2.5000 0.9187
21.0291 -0.8474 -2.5000 0.9187
21.0462 0.0000 -2.5000 0.9187
21.0291 0.8474 -2.5000 0.9187
20.9779 1.6935 -2.5000 0.9187
19.5072 3.1702 -2.3476 0.9235
19.3638 3.9531 -2.3476 0.9235
19.1889 4.7296 -2.3476 0.9235
18.9829 5.4985 -2.3476 0.9235
16.8676 7.1866 -2.1779 0.9288
15.3528 8.0578 -2.0596 0.9325
13.0857 8.2749 -1.8391 0.9395
12.2167 8.4326 -1.7633 0.9420
8.9025 7.8870 -1.4128 0.9532
7.2759 8.2128 -1.3033 0.9568
6.7055 8.2128 -1.2594 0.9582
5.7589 8.3433 -1.2042 0.9600
5.6562 8.9446 -1.2571 0.9583
4.2967 8.1868 -1.0983 0.9634
3.8772 8.1711 -1.0743 0.9642
2.6433 9.1259 -1.1286 0.9625
2.3722 9.6243 -1.1775 0.9609
1.6370 8.0184 -0.9721 0.9676
1.5424 9.4911 -1.1422 0.9620
0.7728 9.5727 -1.1408 0.9621
-0.0000 7.8821 -0.9363 0.9687
-0.7731 9.5764 -1.1412 0.9620
-1.3886 8.5442 -1.0282 0.9657
-2.3293 9.4503 -1.1562 0.9616
-2.8398 8.5063 -1.0653 0.9645
-3.8711 8.1580 -1.0726 0.9643
-4.3350 8.2597 -1.1081 0.9631
-5.0359 8.7224 -1.1964 0.9602
-2.1633 3.4210 -0.4808 0.9838
-12.4481 16.5655 -2.4614 0.9199
-13.7407 15.5101 -2.4614 0.9199
-14.9442 14.3541 -2.4614 0.9199
-16.5655 12.4481 -2.4614 0.9199
-17.0533 11.7710 -2.4614 0.9199
-18.7206 8.8830 -2.4614 0.9199
-19.0632 8.1220 -2.4614 0.9199
-19.3806 7.3501 -2.4621 0.9199
-19.7100 6.5801 -2.4683 0.9197
-19.9948 5.7916 -2.4727 0.9196
-20.5327 4.1918 -2.4893 0.9191
-20.8796 2.5352 -2.4984 0.9188
-20.9694 1.6928 -2.4990 0.9187
-17.6441 0.0000 -2.5000 0.9312
-17.5155 -2.1268 -2.5000 0.9312
-17.2875 -3.5293 -2.5000 0.9312
-17.1314 -4.2225 -2.5000 0.9312
-16.9475 -4.9089 -2.5000 0.9312
-16.4975 -6.2567 -2.5000 0.9312
-16.2322 -6.9159 -2.5000 0.9312
-15.9406 -7.5639 -2.5000 0.9312
-14.9126 -9.4302 -2.5000 0.9312
-14.1055 -10.5996 -2.5000 0.9312
-13.2068 -11.7002 -2.5000 0.9312
-12.7250 -12.2225 -2.5000 0.9312
-12.2225 -12.7250 -2.5000 0.9312
-8.8553 -14.0036 -2.3476 0.9353
-7.1028 -14.9688 -2.3476 0.9353
-6.4943 -15.2427 -2.3476 0.9353
-5.2471 -15.7171 -2.3478 0.9353
-3.9658 -16.0898 -2.3480 0.9352
-3.2441 -15.8904 -2.2979 0.9366
-1.9976 -16.4518 -2.3482 0.9352
-1.3335 -16.5191 -2.3482 0.9352
1.3335 -16.5185 -2.3481 0.9352
2.5607 -15.7567 -2.2618 0.9375
3.3145 -16.2355 -2.3479 0.9352
3.9654 -16.0881 -2.3477 0.9353
5.8753 -15.4918 -2.3476 0.9353
6.4943 -15.2427 -2.3476 0.9353
8.2843 -14.3488 -2.3476 0.9353
9.4120 -13.6356 -2.3476 0.9353
9.9534 -13.2456 -2.3476 0.9353
10.7789 -13.2018 -2.4148 0.9335
11.6821 -13.1864 -2.4961 0.9313
12.7249 -12.2225 -2.5000 0.9312
13.2068 -11.7002 -2.5000 0.9312
14.1055 -10.5996 -2.5000 0.9312
14.5208 -10.0230 -2.5000 0.9312
14.9127 -9.4302 -2.5000 0.9312
15.6231 -8.1996 -2.5000 0.9312
16.2322 -6.9159 -2.5000 0.9312
16.4975 -6.2567 -2.5000 0.9312
17.2875 -3.5293 -2.5000 0.9312
17.5155 -2.1268 -2.5000 0.9312
17.6298 -0.7104 -2.5000 0.9312
17.6441 0.0000 -2.5000 0.9312
17.6298 0.7104 -2.5000 0.9312
15.9144 4.6097 -2.3476 0.9353
15.7158 5.2467 -2.3476 0.9353
15.4918 5.8753 -2.3476 0.9353
15.2427 6.4943 -2.3476 0.9353
12.8728 8.1403 -2.1580 0.9403
12.2167 8.4326 -2.1033 0.9418
11.9578 8.9857 -2.1193 0.9414
10.3450 8.4465 -1.8923 0.9475
8.9178 7.9005 -1.6881 0.9530
7.2759 8.2128 -1.5546 0.9566
6.7055 8.2128 -1.5023 0.9581
5.7747 9.1320 -1.5309 0.9573
4.3430 8.2749 -1.3241 0.9629
3.9265 8.2749 -1.2978 0.9637
3.5149 8.2499 -1.2706 0.9644
3.1913 8.4148 -1.2752 0.9643
2.9425 8.8140 -1.3166 0.9632
1.6011 7.8427 -1.1341 0.9682
1.0753 8.8562 -1.2640 0.9646
0.7175 8.8884 -1.2635 0.9646
-0.3590 8.9088 -1.2633 0.9646
-0.7178 8.8911 -1.2639 0.9646
-3.1518 8.3105 -1.2593 0.9647
-4.3350 8.2597 -1.3217 0.9630
-9.2782 13.4418 -2.3142 0.9361
-10.3170 12.6360 -2.3114 0.9362
-12.5286 12.0338 -2.4614 0.9322
-14.2967 9.8683 -2.4614 0.9322
-15.3819 8.0731 -2.4614 0.9322
-15.6965 7.4481 -2.4617 0.9322
-16.3326 6.1942 -2.4750 0.9319
-16.5933 5.5397 -2.4787 0.9318
-17.0766 4.2090 -2.4920 0.9314
-15.1754 0.0000 -2.5000 0.9403
-15.1631 -0.6111 -2.5000 0.9403
-15.1262 -1.2211 -2.5000 0.9403
-15.0648 -1.8292 -2.5000 0.9403
-14.5763 -4.2221 -2.5000 0.9403
-14.3944 -4.8056 -2.5000 0.9403
-14.1893 -5.3813 -2.5000 0.9403
-13.7103 -6.5056 -2.5000 0.9403
-13.4372 -7.0524 -2.5000 0.9403
-13.1423 -7.5877 -2.5000 0.9403
-11.3590 -10.0632 -2.5000 0.9403
-10.5124 -10.9445 -2.5000 0.9403
-8.6206 -12.4891 -2.5000 0.9403
-8.1108 -12.8261 -2.5000 0.9403
-6.9285 -13.2012 -2.4561 0.9414
-6.2681 -13.2097 -2.4087 0.9424
-5.6313 -13.2172 -2.3668 0.9434
-2.8504 -13.9623 -2.3476 0.9439
-1.7177 -14.1464 -2.3476 0.9439
0.5738 -14.2388 -2.3476 0.9439
1.1467 -14.2041 -2.3476 0.9439
1.7177 -14.1464 -2.3476 0.9439
2.8504 -13.9623 -2.3476 0.9439
3.4103 -13.8362 -2.3476 0.9439
3.9647 -13.6877 -2.3476 0.9439
5.0532 -13.3243 -2.3476 0.9439
6.2658 -13.2049 -2.4078 0.9425
8.6206 -12.4891 -2.5000 0.9403
9.1165 -12.1319 -2.5000 0.9403
10.5124 -10.9445 -2.5000 0.9403
10.9445 -10.5124 -2.5000 0.9403
11.7548 -9.5976 -2.5000 0.9403
12.1319 -9.1165 -2.5000 0.9403
12.8261 -8.1107 -2.5000 0.9403
13.4371 -7.0524 -2.5000 0.9403
13.7102 -6.5056 -2.5000 0.9403
13.9611 -5.9482 -2.5000 0.9403
14.3944 -4.8056 -2.5000 0.9403
14.7344 -3.6317 -2.5000 0.9403
14.8687 -3.0355 -2.5000 0.9403
15.1631 -0.6111 -2.5000 0.9403
15.1262 1.2211 -2.5000 0.9403
15.0648 1.8292 -2.5000 0.9403
13.6877 3.9647 -2.3476 0.9439
13.3243 5.0532 -2.3476 0.9439
13.1100 5.5856 -2.3476 0.9439
12.8744 6.1090 -2.3476 0.9439
12.3066 7.1052 -2.3410 0.9440
11.9801 7.5758 -2.3351 0.9442
10.9939 8.9762 -2.3381 0.9441
8.9333 7.9142 -1.9661 0.9528
9.1027 8.7432 -2.0793 0.9501
7.2759 8.2128 -1.8076 0.9565
4.8476 8.3964 -1.5972 0.9615
4.3291 8.2485 -1.5346 0.9629
3.5149 8.2499 -1.4773 0.9643
1.8884 7.6617 -1.3000 0.9685
1.6322 7.9953 -1.3443 0.9675
0.6929 8.5829 -1.4185 0.9657
-0.0000 7.5490 -1.2436 0.9699
-0.3459 8.5833 -1.4152 0.9658
-1.3887 8.5446 -1.4261 0.9655
-2.3293 9.4503 -1.6034 0.9613
-3.9265 8.2749 -1.5089 0.9636
-4.3350 8.2597 -1.5367 0.9629
-2.1633 3.4210 -0.6668 0.9837
-8.4395 11.2309 -2.3143 0.9446
-8.8849 10.8820 -2.3143 0.9446
-9.3138 10.5131 -2.3138 0.9447
-9.7248 10.1246 -2.3127 0.9447
-10.1198 9.7201 -2.3116 0.9447
-11.9446 8.9758 -2.4614 0.9412
-12.6281 7.9855 -2.4614 0.9412
-13.2352 6.9464 -2.4624 0.9412
-13.5369 6.4233 -2.4684 0.9411
-14.8644 3.0346 -2.4993 0.9404
-14.9768 2.4340 -2.4996 0.9403
-15.0648 1.8292 -2.5000 0.9403
-15.1262 1.2211 -2.5000 0.9403
-13.3006 0.0000 -2.5000 0.9473
-13.2898 -0.5356 -2.5000 0.9473
-13.0318 -2.6605 -2.5000 0.9473
-12.9141 -3.1831 -2.5000 0.9473
-12.6161 -4.2119 -2.5000 0.9473
-12.2362 -5.2134 -2.5000 0.9473
-12.0164 -5.7018 -2.5000 0.9473
-11.5186 -6.6503 -2.5000 0.9473
-11.2415 -7.1087 -2.5000 0.9473
-10.9462 -7.5556 -2.5000 0.9473
-10.6330 -7.9902 -2.5000 0.9473
-10.3027 -8.4119 -2.5000 0.9473
-8.8199 -9.9556 -2.5000 0.9473
-8.4119 -10.3027 -2.5000 0.9473
-7.5556 -10.9461 -2.5000 0.9473
-7.1087 -11.2415 -2.5000 0.9473
-6.6503 -11.5186 -2.5000 0.9473
-5.2134 -12.2362 -2.5000 0.9473
-4.2119 -12.6161 -2.5000 0.9473
-1.6017 -13.1914 -2.4977 0.9474
-0.5317 -13.1939 -2.4819 0.9477
1.6016 -13.1901 -2.4974 0.9474
2.1335 -13.1283 -2.5000 0.9473
3.7005 -12.7754 -2.5000 0.9473
4.7164 -12.4362 -2.5000 0.9473
5.7018 -12.0164 -2.5000 0.9473
6.1811 -11.7771 -2.5000 0.9473
7.5556 -10.9461 -2.5000 0.9473
7.9902 -10.6330 -2.5000 0.9473
8.8199 -9.9556 -2.5000 0.9473
9.2135 -9.5924 -2.5000 0.9473
9.5925 -9.2136 -2.5000 0.9473
9.9556 -8.8199 -2.5000 0.9473
10.3027 -8.4119 -2.5000 0.9473
10.9462 -7.5556 -2.5000 0.9473
11.2415 -7.1087 -2.5000 0.9473
11.5186 -6.6503 -2.5000 0.9473
11.7771 -6.1811 -2.5000 0.9473
12.0164 -5.7018 -2.5000 0.9473
12.2362 -5.2134 -2.5000 0.9473
12.4362 -4.7164 -2.5000 0.9473
12.7754 -3.7004 -2.5000 0.9473
12.9141 -3.1830 -2.5000 0.9473
13.0318 -2.6605 -2.5000 0.9473
13.1283 -2.1336 -2.5000 0.9473
13.2898 -0.5356 -2.5000 0.9473
13.3006 0.0000 -2.5000 0.9473
13.1283 2.1336 -2.5000 0.9473
12.1268 2.9890 -2.3476 0.9504
11.9966 3.4749 -2.3476 0.9504
11.8470 3.9551 -2.3476 0.9504
11.6781 4.4289 -2.3476 0.9504
11.4903 4.8956 -2.3476 0.9504
11.2839 5.3542 -2.3476 0.9504
11.0591 5.8043 -2.3476 0.9504
10.2477 7.0735 -2.3405 0.9506
9.9218 7.4557 -2.3328 0.9507
8.9480 7.9272 -2.2470 0.9525
8.9579 8.6042 -2.3346 0.9507
7.9098 8.2350 -2.1462 0.9546
7.3617 9.0164 -2.1879 0.9537
6.1715 8.2128 -1.9310 0.9590
5.7747 8.3662 -1.9107 0.9595
3.5149 8.2499 -1.6855 0.9642
2.9426 8.8140 -1.7466 0.9629
2.6224 9.0534 -1.7716 0.9624
1.7504 7.1015 -1.3748 0.9707
0.6780 8.3991 -1.5838 0.9663
-0.0000 7.3140 -1.3748 0.9707
-0.3385 8.3994 -1.5800 0.9664
-1.0196 8.3967 -1.5898 0.9662
-1.3644 8.3953 -1.5987 0.9660
-2.5967 8.9647 -1.7543 0.9627
-2.8215 8.4514 -1.6747 0.9644
-3.1518 8.3105 -1.6706 0.9645
-3.5256 8.2749 -1.6906 0.9641
-4.3350 8.2597 -1.7533 0.9627
-6.1600 10.6694 -2.3157 0.9511
-2.1633 3.4210 -0.7608 0.9837
-6.9949 10.1339 -2.3145 0.9511
-7.3968 9.8434 -2.3143 0.9511
-7.7872 9.5376 -2.3143 0.9511
-8.1649 9.2163 -2.3143 0.9511
-8.5294 8.8800 -2.3143 0.9511
-8.8800 8.5294 -2.3143 0.9511
-9.5319 7.7825 -2.3130 0.9511
-9.8339 7.3897 -2.3121 0.9512
-10.4043 6.5793 -2.3138 0.9511
-10.6915 6.1727 -2.3205 0.9510
-12.3886 4.6983 -2.4904 0.9475
-12.5943 4.2046 -2.4957 0.9474
-13.2574 1.0703 -2.5000 0.9473
-13.2898 0.5356 -2.5000 0.9473
-11.7886 -0.9517 -2.5000 0.9528
-11.6738 -1.8972 -2.5000 0.9528
-11.4833 -2.8304 -2.5000 0.9528
-11.2183 -3.7452 -2.5000 0.9528
-11.0584 -4.1939 -2.5000 0.9528
-10.8806 -4.6358 -2.5000 0.9528
-10.4723 -5.4963 -2.5000 0.9528
-10.2425 -5.9135 -2.5000 0.9528
-9.9960 -6.3211 -2.5000 0.9528
-9.4550 -7.1050 -2.5000 0.9528
-7.1050 -9.4550 -2.5000 0.9528
-6.3211 -9.9960 -2.5000 0.9528
-5.9135 -10.2425 -2.5000 0.9528
-5.4963 -10.4723 -2.5000 0.9528
-5.0701 -10.6851 -2.5000 0.9528
-4.6358 -10.8806 -2.5000 0.9528
-4.1939 -11.0584 -2.5000 0.9528
-2.8304 -11.4833 -2.5000 0.9528
-2.3658 -11.5880 -2.5000 0.9528
-1.8970 -11.6738 -2.5000 0.9528
0.0000 -11.8270 -2.5000 0.9528
0.9517 -11.7886 -2.5000 0.9528
2.3657 -11.5880 -2.5000 0.9528
2.8304 -11.4833 -2.5000 0.9528
3.7452 -11.2183 -2.5000 0.9528
5.0701 -10.6851 -2.5000 0.9528
5.9134 -10.2425 -2.5000 0.9528
6.3211 -9.9960 -2.5000 0.9528
6.7185 -9.7334 -2.5000 0.9528
7.1050 -9.4550 -2.5000 0.9528
7.8427 -8.8526 -2.5000 0.9528
9.1612 -7.4799 -2.5000 0.9528
10.4723 -5.4963 -2.5000 0.9528
10.6851 -5.0701 -2.5000 0.9528
10.8806 -4.6358 -2.5000 0.9528
11.3600 -3.2905 -2.5000 0.9528
11.4833 -2.8304 -2.5000 0.9528
11.5879 -2.3657 -2.5000 0.9528
11.7886 -0.9517 -2.5000 0.9528
11.8174 -0.4762 -2.5000 0.9528
11.7407 1.4256 -2.5000 0.9528
11.6738 1.8972 -2.5000 0.9528
10.6675 3.0899 -2.3476 0.9556
10.5344 3.5169 -2.3476 0.9556
10.3843 3.9382 -2.3476 0.9556
10.2173 4.3532 -2.3476 0.9556
10.0337 4.7611 -2.3476 0.9556
9.8339 5.1612 -2.3476 0.9556
9.6181 5.5530 -2.3476 0.9556
9.3867 5.9358 -2.3476 0.9556
8.8786 6.6718 -2.3476 0.9556
8.5862 7.0104 -2.3431 0.9557
8.2543 7.3126 -2.3310 0.9559
7.6396 7.9536 -2.3312 0.9559
7.3148 8.2566 -2.3317 0.9559
6.6292 8.8218 -2.3326 0.9559
6.2696 9.0830 -2.3329 0.9559
5.8982 9.3272 -2.3327 0.9559
4.8476 8.3964 -2.0494 0.9611
3.9265 8.2749 -1.9361 0.9632
3.5149 8.2499 -1.8955 0.9640
3.1913 8.4148 -1.9023 0.9639
2.9426 8.8140 -1.9642 0.9627
2.6224 9.0534 -1.9924 0.9622
1.7310 7.0229 -1.5289 0.9709
-0.3308 8.2082 -1.7365 0.9670
-0.6625 8.2069 -1.7404 0.9669
-1.4344 7.0262 -1.5158 0.9711
-2.3293 9.4503 -2.0574 0.9610
-2.8215 8.4514 -1.8834 0.9642
-3.1518 8.3105 -1.8788 0.9643
-3.5256 8.2749 -1.9013 0.9639
-4.3350 8.2597 -1.9718 0.9626
-6.2227 9.0151 -2.3155 0.9562
-6.5792 8.7553 -2.3150 0.9562
-6.9249 8.4815 -2.3145 0.9562
-7.2603 8.1952 -2.3143 0.9562
-7.8962 7.5844 -2.3143 0.9562
-8.1952 7.2603 -2.3143 0.9562
-9.0755 6.2644 -2.3310 0.9559
-9.5836 5.5331 -2.3392 0.9558
-9.8119 5.1497 -2.3423 0.9557
-10.0185 4.7538 -2.3440 0.9557
-10.8510 4.6232 -2.4932 0.9529
-11.0454 4.1890 -2.4970 0.9529
-11.2156 3.7443 -2.4994 0.9528
-11.3590 3.2902 -2.4998 0.9528
-11.4833 2.8304 -2.5000 0.9528
-11.6738 1.8972 -2.5000 0.9528
-11.7408 1.4256 -2.5000 0.9528
-11.8174 0.4762 -2.5000 0.9528
-10.6372 -0.0000 -2.5000 0.9572
-10.6286 -0.4283 -2.5000 0.9572
-10.6027 -0.8559 -2.5000 0.9572
-10.5596 -1.2822 -2.5000 0.9572
-10.4222 -2.1277 -2.5000 0.9572
-10.3281 -2.5457 -2.5000 0.9572
-10.2172 -2.9595 -2.5000 0.9572
-10.0898 -3.3685 -2.5000 0.9572
-8.9905 -5.6852 -2.5000 0.9572
-8.7542 -6.0426 -2.5000 0.9572
-5.6852 -8.9904 -2.5000 0.9572
-5.3186 -9.2121 -2.5000 0.9572
-4.9433 -9.4188 -2.5000 0.9572
-4.1694 -9.7860 -2.5000 0.9572
-3.7720 -9.9459 -2.5000 0.9572
-3.3685 -10.0898 -2.5000 0.9572
-2.9595 -10.2172 -2.5000 0.9572
-2.5457 -10.3281 -2.5000 0.9572
-1.2822 -10.5596 -2.5000 0.9572
-0.4283 -10.6286 -2.5000 0.9572
-0.0000 -10.6372 -2.5000 0.9572
0.4283 -10.6286 -2.5000 0.9572
0.8559 -10.6027 -2.5000 0.9572
2.9595 -10.2172 -2.5000 0.9572
4.1694 -9.7860 -2.5000 0.9572
4.5601 -9.6102 -2.5000 0.9572
5.3186 -9.2121 -2.5000 0.9572
6.0426 -8.7542 -2.5000 0.9572
7.0538 -7.9621 -2.5000 0.9572
7.3686 -7.6716 -2.5000 0.9572
7.6716 -7.3686 -2.5000 0.9572
7.9621 -7.0538 -2.5000 0.9572
8.7542 -6.0426 -2.5000 0.9572
8.9904 -5.6852 -2.5000 0.9572
9.4188 -4.9433 -2.5000 0.9572
9.6102 -4.5601 -2.5000 0.9572
10.3281 -2.5457 -2.5000 0.9572
10.4994 -1.7063 -2.5000 0.9572
10.6027 -0.8559 -2.5000 0.9572
10.6286 0.4283 -2.5000 0.9572
10.6027 0.8559 -2.5000 0.9572
10.5596 1.2822 -2.5000 0.9572
10.4222 2.1277 -2.5000 0.9572
10.3281 2.5457 -2.5000 0.9572
9.4747 3.1631 -2.3476 0.9598
9.0243 4.2821 -2.3476 0.9598
8.8446 4.6420 -2.3476 0.9598
8.6505 4.9944 -2.3476 0.9598
8.4424 5.3387 -2.3476 0.9598
7.9854 6.0007 -2.3476 0.9598
7.4767 6.6238 -2.3476 0.9598
6.8667 7.1487 -2.3296 0.9601
6.2666 7.6752 -2.3287 0.9601
5.6304 8.1570 -2.3294 0.9601
5.2979 8.3780 -2.3297 0.9601
4.8476 8.3964 -2.2786 0.9609
3.1913 8.4148 -2.1151 0.9637
1.7417 7.0663 -1.7104 0.9705
1.6324 7.9962 -1.9180 0.9670
0.9738 8.0205 -1.8989 0.9673
-0.6475 8.0208 -1.8912 0.9675
-1.4425 7.0659 -1.6949 0.9708
-3.1518 8.3105 -2.0889 0.9641
-4.9299 8.5389 -2.3173 0.9603
-5.5984 8.1106 -2.3162 0.9603
-5.9188 7.8765 -2.3156 0.9603
-6.5321 7.3731 -2.3151 0.9603
-7.2025 6.9181 -2.3471 0.9598
-7.4754 6.6226 -2.3472 0.9598
-7.7362 6.3164 -2.3473 0.9598
-7.9845 6.0000 -2.3473 0.9598
-8.2200 5.6738 -2.3474 0.9598
-8.6504 4.9943 -2.3476 0.9598
-8.8446 4.6420 -2.3476 0.9598
-9.1894 3.9152 -2.3476 0.9598
-10.3281 2.5457 -2.5000 0.9572
-10.5596 1.2822 -2.5000 0.9572
-10.6027 0.8559 -2.5000 0.9572
-10.6286 0.4283 -2.5000 0.9572
-9.5851 -1.1639 -2.5000 0.9609
-9.4604 -1.9314 -2.5000 0.9609
-9.2743 -2.6863 -2.5000 0.9609
-8.7233 -4.1393 -2.5000 0.9609
-8.5495 -4.4871 -2.5000 0.9609
-8.3619 -4.8278 -2.5000 0.9609
-8.1607 -5.1605 -2.5000 0.9609
-7.9463 -5.4850 -2.5000 0.9609
-7.4792 -6.1066 -2.5000 0.9609
-7.2273 -6.4028 -2.5000 0.9609
-6.9636 -6.6886 -2.5000 0.9609
-6.6886 -6.9636 -2.5000 0.9609
-6.1066 -7.4792 -2.5000 0.9609
-5.1606 -8.1608 -2.5000 0.9609
-4.8278 -8.3619 -2.5000 0.9609
-4.4871 -8.5495 -2.5000 0.9609
-3.4239 -9.0281 -2.5000 0.9609
-2.6863 -9.2743 -2.5000 0.9609
-1.5489 -9.5305 -2.5000 0.9609
-1.1639 -9.5851 -2.5000 0.9609
-0.3888 -9.6477 -2.5000 0.9609
0.7770 -9.6242 -2.5000 0.9609
1.1639 -9.5851 -2.5000 0.9609
1.9313 -9.4604 -2.5000 0.9609
2.6864 -9.2743 -2.5000 0.9609
3.0576 -9.1586 -2.5000 0.9609
4.8278 -8.3619 -2.5000 0.9609
5.1605 -8.1607 -2.5000 0.9609
5.4850 -7.9463 -2.5000 0.9609
5.8005 -7.7190 -2.5000 0.9609
6.1066 -7.4792 -2.5000 0.9609
6.9636 -6.6886 -2.5000 0.9609
7.2272 -6.4028 -2.5000 0.9609
7.7190 -5.8005 -2.5000 0.9609
8.1607 -5.1605 -2.5000 0.9609
8.5496 -4.4871 -2.5000 0.9609
8.8829 -3.7846 -2.5000 0.9609
9.0281 -3.4239 -2.5000 0.9609
9.2743 -2.6863 -2.5000 0.9609
9.3749 -2.3107 -2.5000 0.9609
9.4604 -1.9313 -2.5000 0.9609
9.6242 -0.7769 -2.5000 0.9609
9.6555 0.0000 -2.5000 0.9609
9.6477 0.3888 -2.5000 0.9609
9.4604 1.9314 -2.5000 0.9609
9.2743 2.6863 -2.5000 0.9609
8.6003 2.8712 -2.3476 0.9632
8.4777 3.2152 -2.3476 0.9632
8.3414 3.5539 -2.3476 0.9632
8.1915 3.8869 -2.3476 0.9632
7.8522 4.5334 -2.3476 0.9632
7.4619 5.1506 -2.3476 0.9632
7.2485 5.4469 -2.3476 0.9632
7.0233 5.7343 -2.3476 0.9632
6.7867 6.0125 -2.3476 0.9632
6.5391 6.2809 -2.3476 0.9632
6.2809 6.5391 -2.3476 0.9632
6.0125 6.7867 -2.3476 0.9632
4.8039 7.5967 -2.3272 0.9635
4.1769 7.9584 -2.3271 0.9635
3.8532 8.1205 -2.3272 0.9635
3.1874 8.4045 -2.3273 0.9635
-0.0000 7.0719 -1.8310 0.9712
-0.3160 7.8413 -2.0319 0.9681
-0.6329 7.8400 -2.0365 0.9680
-0.9518 7.8387 -2.0445 0.9679
-1.2737 7.8374 -2.0559 0.9677
-1.4441 7.0738 -1.8693 0.9706
-2.1455 8.7047 -2.3213 0.9636
-2.8378 8.5003 -2.3203 0.9636
-3.4910 8.1936 -2.3060 0.9639
-3.8382 8.0889 -2.3182 0.9637
-4.4747 7.7504 -2.3172 0.9637
-5.0827 7.3636 -2.3166 0.9637
-6.2809 6.5391 -2.3476 0.9632
-6.7867 6.0125 -2.3476 0.9632
-7.8522 4.5335 -2.3476 0.9632
-8.0284 4.2136 -2.3476 0.9632
-8.1915 3.8869 -2.3476 0.9632
-8.3414 3.5539 -2.3476 0.9632
-9.2743 2.6863 -2.5000 0.9609
-9.4604 1.9313 -2.5000 0.9609
-9.5305 1.5489 -2.5000 0.9609
-9.6242 0.7769 -2.5000 0.9609
-9.6477 0.3888 -2.5000 0.9609
-8.8310 0.0000 -2.5000 0.9640
-8.8238 -0.3556 -2.5000 0.9640
-8.8023 -0.7106 -2.5000 0.9640
-8.7666 -1.0644 -2.5000 0.9640
-8.7166 -1.4166 -2.5000 0.9640
-8.6525 -1.7664 -2.5000 0.9640
-8.5744 -2.1134 -2.5000 0.9640
-8.2571 -3.1315 -2.5000 0.9640
-7.8194 -4.1040 -2.5000 0.9640
-7.6479 -4.4155 -2.5000 0.9640
-6.6101 -5.8560 -2.5000 0.9640
-6.1174 -6.3689 -2.5000 0.9640
-5.8560 -6.6101 -2.5000 0.9640
-5.5851 -6.8405 -2.5000 0.9640
-5.3052 -7.0599 -2.5000 0.9640
-4.7199 -7.4638 -2.5000 0.9640
-4.1040 -7.8194 -2.5000 0.9640
-3.7858 -7.9783 -2.5000 0.9640
-3.1315 -8.2571 -2.5000 0.9640
-2.4569 -8.4823 -2.5000 0.9640
-2.1134 -8.5744 -2.5000 0.9640
-1.4166 -8.7166 -2.5000 0.9640
-0.3556 -8.8238 -2.5000 0.9640
0.3556 -8.8238 -2.5000 0.9640
0.7106 -8.8023 -2.5000 0.9640
2.1134 -8.5744 -2.5000 0.9640
2.4569 -8.4823 -2.5000 0.9640
4.1039 -7.8194 -2.5000 0.9640
4.4155 -7.6479 -2.5000 0.9640
4.7198 -7.4639 -2.5000 0.9640
5.3051 -7.0599 -2.5000 0.9640
5.8560 -6.6101 -2.5000 0.9640
6.1174 -6.3689 -2.5000 0.9640
6.8405 -5.5851 -2.5000 0.9640
7.0599 -5.3051 -2.5000 0.9640
7.4638 -4.7199 -2.5000 0.9640
7.6479 -4.4155 -2.5000 0.9640
7.9783 -3.7858 -2.5000 0.9640
8.1243 -3.4614 -2.5000 0.9640
8.2571 -3.1315 -2.5000 0.9640
8.3765 -2.7965 -2.5000 0.9640
8.6525 -1.7664 -2.5000 0.9640
8.8023 -0.7106 -2.5000 0.9640
8.8238 0.3556 -2.5000 0.9640
8.8023 0.7106 -2.5000 0.9640
8.7666 1.0645 -2.5000 0.9640
8.7166 1.4166 -2.5000 0.9640
8.6525 1.7664 -2.5000 0.9640
8.5743 2.1134 -2.5000 0.9640
8.4823 2.4569 -2.5000 0.9640
8.1205 2.7110 -2.4236 0.9650
7.7537 2.9406 -2.3476 0.9661
7.6290 3.2504 -2.3476 0.9661
7.0088 4.4321 -2.3476 0.9661
6.8247 4.7108 -2.3476 0.9661
6.4235 5.2446 -2.3476 0.9661
5.4990 6.2071 -2.3476 0.9661
5.2446 6.4235 -2.3476 0.9661
4.7108 6.8247 -2.3476 0.9661
4.4287 7.0033 -2.3457 0.9661
3.8188 7.2760 -2.3262 0.9664
3.5221 7.4227 -2.3259 0.9664
2.6005 7.7895 -2.3248 0.9664
1.7457 7.0824 -2.0650 0.9701
1.5620 7.6511 -2.2107 0.9681
1.2436 7.6524 -2.1948 0.9683
0.2853 7.0800 -2.0059 0.9710
-0.9292 7.6527 -2.1823 0.9685
-1.2435 7.6515 -2.1945 0.9683
-1.4458 7.0818 -2.0462 0.9704
-1.9612 7.9570 -2.3200 0.9665
-2.2796 7.8699 -2.3195 0.9665
-2.5942 7.7707 -2.3192 0.9665
-4.1241 7.1432 -2.3350 0.9663
-4.9817 6.6295 -2.3476 0.9661
-5.2446 6.4235 -2.3476 0.9661
-5.4990 6.2071 -2.3476 0.9661
-5.7445 5.9807 -2.3476 0.9661
-5.9807 5.7445 -2.3476 0.9661
-6.6295 4.9817 -2.3476 0.9661
-7.0089 4.4321 -2.3476 0.9661
-7.3428 3.8538 -2.3476 0.9661
-7.6291 3.2504 -2.3476 0.9661
-7.7537 2.9406 -2.3476 0.9661
-8.4823 2.4569 -2.5000 0.9640
-8.5744 2.1134 -2.5000 0.9640
-8.6525 1.7664 -2.5000 0.9640
-8.8238 0.3556 -2.5000 0.9640
-8.1213 -0.3273 -2.5000 0.9666
-8.1016 -0.6540 -2.5000 0.9666
-7.8918 -1.9452 -2.5000 0.9666
-7.8071 -2.2613 -2.5000 0.9666
-7.1970 -3.7772 -2.5000 0.9666
-7.0390 -4.0640 -2.5000 0.9666
-6.8697 -4.3441 -2.5000 0.9666
-6.6892 -4.6172 -2.5000 0.9666
-6.0839 -5.3898 -2.5000 0.9666
-5.3898 -6.0839 -2.5000 0.9666
-3.7772 -7.1969 -2.5000 0.9666
-3.4844 -7.3432 -2.5000 0.9666
-3.1859 -7.4776 -2.5000 0.9666
-2.8822 -7.5998 -2.5000 0.9666
-2.5739 -7.7097 -2.5000 0.9666
-1.9452 -7.8918 -2.5000 0.9666
-1.6258 -7.9637 -2.5000 0.9666
-1.3038 -8.0227 -2.5000 0.9666
-0.9797 -8.0687 -2.5000 0.9666
-0.6540 -8.1016 -2.5000 0.9666
-0.3273 -8.1214 -2.5000 0.9666
-0.0000 -8.1280 -2.5000 0.9666
0.3273 -8.1214 -2.5000 0.9666
0.6540 -8.1016 -2.5000 0.9666
0.9797 -8.0687 -2.5000 0.9666
1.3038 -8.0227 -2.5000 0.9666
1.9451 -7.8918 -2.5000 0.9666
2.2613 -7.8071 -2.5000 0.9666
3.1859 -7.4775 -2.5000 0.9666
3.4844 -7.3432 -2.5000 0.9666
3.7772 -7.1970 -2.5000 0.9666
4.3441 -6.8697 -2.5000 0.9666
4.6172 -6.6892 -2.5000 0.9666
5.3898 -6.0839 -2.5000 0.9666
5.6305 -5.8619 -2.5000 0.9666
6.0838 -5.3898 -2.5000 0.9666
6.4978 -4.8828 -2.5000 0.9666
6.6892 -4.6172 -2.5000 0.9666
6.8697 -4.3441 -2.5000 0.9666
7.0390 -4.0640 -2.5000 0.9666
7.1969 -3.7773 -2.5000 0.9666
7.3432 -3.4844 -2.5000 0.9666
7.4775 -3.1859 -2.5000 0.9666
7.5998 -2.8822 -2.5000 0.9666
7.8071 -2.2613 -2.5000 0.9666
7.8918 -1.9451 -2.5000 0.9666
8.0687 -0.9797 -2.5000 0.9666
8.1016 -0.6540 -2.5000 0.9666
8.1214 0.3273 -2.5000 0.9666
8.0687 0.9797 -2.5000 0.9666
7.9637 1.6258 -2.5000 0.9666
7.8918 1.9451 -2.5000 0.9666
7.8070 2.2613 -2.5000 0.9666
7.7097 2.5739 -2.5000 0.9666
7.0217 2.9917 -2.3476 0.9686
6.8956 3.2720 -2.3476 0.9686
6.7582 3.5470 -2.3476 0.9686
6.4509 4.0793 -2.3476 0.9686
6.2814 4.3357 -2.3476 0.9686
5.9121 4.8271 -2.3476 0.9686
4.0793 6.4509 -2.3476 0.9686
3.8162 6.6099 -2.3476 0.9686
3.5470 6.7582 -2.3476 0.9686
2.9886 7.0146 -2.3452 0.9686
2.6936 7.1025 -2.3364 0.9687
2.3936 7.1693 -2.3248 0.9689
1.7477 7.0906 -2.2462 0.9699
0.6042 7.4845 -2.3096 0.9691
0.2856 7.0880 -2.1819 0.9707
-0.0000 7.0877 -2.1800 0.9708
-0.9085 7.4822 -2.3183 0.9689
-1.2104 7.4476 -2.3208 0.9689
-2.3969 7.1797 -2.3281 0.9688
-2.6955 7.1076 -2.3381 0.9687
-3.2720 6.8956 -2.3476 0.9686
-2.1633 3.4210 -1.2450 0.9832
-4.3357 6.2814 -2.3476 0.9686
-4.5852 6.1017 -2.3476 0.9686
-4.8271 5.9121 -2.3476 0.9686
-5.2872 5.5046 -2.3476 0.9686
-5.7130 5.0613 -2.3476 0.9686
-6.1017 4.5851 -2.3476 0.9686
-6.6099 3.8162 -2.3476 0.9686
-7.0217 2.9917 -2.3476 0.9686
-7.2937 2.7661 -2.3993 0.9679
-7.7097 2.5739 -2.5000 0.9666
-8.0227 1.3038 -2.5000 0.9666
-8.0687 0.9797 -2.5000 0.9666
-8.1016 0.6540 -2.5000 0.9666
-8.1214 0.3273 -2.5000 0.9666
-7.4965 -0.6052 -2.5000 0.9688
-7.4661 -0.9066 -2.5000 0.9688
-7.4235 -1.2064 -2.5000 0.9688
-7.3689 -1.5044 -2.5000 0.9688
-7.1338 -2.3816 -2.5000 0.9688
-7.0321 -2.6669 -2.5000 0.9688
-6.9191 -2.9479 -2.5000 0.9688
-6.5133 -3.7604 -2.5000 0.9688
-6.1896 -4.2724 -2.5000 0.9688
-5.8257 -4.7566 -2.5000 0.9688
-5.4241 -5.2099 -2.5000 0.9688
-4.5181 -6.0125 -2.5000 0.9688
-3.4951 -6.6594 -2.5000 0.9688
-2.9479 -6.9191 -2.5000 0.9688
-2.3816 -7.1338 -2.5000 0.9688
-2.0925 -7.2240 -2.5000 0.9688
-1.7999 -7.3023 -2.5000 0.9688
-1.5044 -7.3689 -2.5000 0.9688
-0.6052 -7.4965 -2.5000 0.9688
1.7999 -7.3023 -2.5000 0.9688
2.6669 -7.0322 -2.5000 0.9688
2.9479 -6.9191 -2.5000 0.9688
3.4951 -6.6594 -2.5000 0.9688
4.2723 -6.1896 -2.5000 0.9688
4.9873 -5.6295 -2.5000 0.9688
5.2099 -5.4241 -2.5000 0.9688
5.4241 -5.2099 -2.5000 0.9688
6.0125 -4.5181 -2.5000 0.9688
6.1896 -4.2724 -2.5000 0.9688
6.5133 -3.7604 -2.5000 0.9688
6.6594 -3.4951 -2.5000 0.9688
6.7948 -3.2241 -2.5000 0.9688
6.9191 -2.9479 -2.5000 0.9688
7.0321 -2.6670 -2.5000 0.9688
7.1338 -2.3816 -2.5000 0.9688
7.2239 -2.0925 -2.5000 0.9688
7.4235 -1.2064 -2.5000 0.9688
7.4965 -0.6052 -2.5000 0.9688
7.4965 0.6052 -2.5000 0.9688
7.3023 1.7999 -2.5000 0.9688
7.2239 2.0924 -2.5000 0.9688
7.1338 2.3816 -2.5000 0.9688
6.4973 2.7682 -2.3476 0.9707
6.3805 3.0276 -2.3476 0.9707
6.1162 3.5312 -2.3476 0.9707
5.9691 3.7746 -2.3476 0.9707
5.8122 4.0119 -2.3476 0.9707
5.6460 4.2427 -2.3476 0.9707
5.4706 4.4666 -2.3476 0.9707
4.8923 5.0934 -2.3476 0.9707
4.6832 5.2863 -2.3476 0.9707
4.2427 5.6460 -2.3476 0.9707
4.0119 5.8122 -2.3476 0.9707
3.5312 6.1162 -2.3476 0.9707
3.2821 6.2534 -2.3476 0.9707
2.2364 6.6989 -2.3476 0.9707
1.4127 6.9197 -2.3476 0.9707
0.5676 7.0307 -2.3447 0.9707
0.2839 7.0440 -2.3434 0.9707
-0.2839 7.0446 -2.3436 0.9707
-0.5677 7.0319 -2.3451 0.9707
-0.8512 7.0114 0.9707
-2.7417 -6.4351 -2.5014 0.9707
-2.2150 -6.6348 -2.5014 0.9707
-1.6740 -6.7916 -2.5014 0.9707
-1.1220 -6.9042 -2.5014 0.9707
-0.8431 -6.9438 -2.5014 0.9707
-0.2817 -6.9891 -2.5014 0.9707
0.2817 -6.9891 -2.5014 0.9707
1.3991 -6.8535 -2.5014 0.9707
1.6740 -6.7916 -2.5014 0.9707
1.9461 -6.7187 -2.5014 0.9707
2.4804 -6.5403 -2.5014 0.9707
2.9986 -6.3195 -2.5014 0.9707
3.4974 -6.0577 -2.5014 0.9707
4.4238 -5.4182 -2.5014 0.9707
4.8455 -5.0447 -2.5014 0.9707
5.0447 -4.8455 -2.5014 0.9707
5.4182 -4.4238 -2.5014 0.9707
5.5920 -4.2021 -2.5014 0.9707
5.7566 -3.9735 -2.5014 0.9707
5.9119 -3.7385 -2.5014 0.9707
6.0577 -3.4974 -2.5014 0.9707
6.1936 -3.2507 -2.5014 0.9707
6.3195 -2.9986 -2.5014 0.9707
6.6348 -2.2150 -2.5014 0.9707
6.7186 -1.9461 -2.5014 0.9707
6.9042 -1.1220 -2.5014 0.9707
6.9891 -0.2817 -2.5014 0.9707
6.9948 0.0000 -2.5014 0.9707
6.9438 0.8431 -2.5014 0.9707
6.9042 1.1221 -2.5014 0.9707
6.8534 1.3991 -2.5014 0.9707
6.7916 1.6740 -2.5014 0.9707
6.4480 1.8677 -2.4006 0.9719
5.4167 3.7388 -2.3537 0.9724
5.2630 3.9549 -2.3543 0.9724
2.6834 3.0289 -1.4471 0.9830
4.1637 5.0997 -2.3543 0.9724
3.9550 5.2632 -2.3543 0.9724
3.7399 5.4182 -2.3543 0.9724
2.8979 5.5213 -2.2299 0.9739
2.6586 5.6027 -2.2177 0.9740
2.1345 5.6281 -2.1525 0.9748
1.8447 5.5254 -2.0831 0.9756
1.1866 5.8118 -2.1212 0.9751
0.6647 5.4739 -1.9719 0.9768
0.2244 5.5662 -1.9921 0.9766
0.0000 5.5962 -2.0012 0.9765
-0.2250 5.5850 -1.9989 0.9765
-0.4446 5.5072 -1.9758 0.9768
-0.6577 5.4166 -1.9513 0.9771
-1.5737 5.4329 -2.0227 0.9763
-1.8311 5.4849 -2.0679 0.9757
-2.1326 5.6231 -2.1506 0.9748
-2.3025 5.4043 -2.1007 0.9754
-3.2732 5.6694 -2.3411 0.9726
-4.1637 5.0997 -2.3543 0.9724
-4.3657 4.9279 -2.3543 0.9724
-4.5606 4.7481 -2.3543 0.9724
-4.9279 4.3657 -2.3543 0.9724
-5.0997 4.1637 -2.3543 0.9724
-5.2632 3.9550 -2.3543 0.9724
-5.5638 3.5183 -2.3541 0.9724
-5.8258 3.0576 -2.3529 0.9724
-6.0430 2.5747 -2.3490 0.9725
-6.1418 2.3293 -2.3490 0.9725
-6.3778 1.5720 -2.3490 0.9725
-6.9722 0.5629 -2.5014 0.9707
-3.5504 0.0000 -1.3606 0.9849
-3.5589 -0.1434 -1.3649 0.9849
-3.5687 -0.2881 -1.3720 0.9848
-3.5921 -0.4362 -1.3867 0.9846
-6.4428 -1.0471 -2.5014 0.9724
-6.2696 -1.8160 -2.5014 0.9724
-6.1914 -2.0670 -2.5014 0.9724
-6.1032 -2.3146 -2.5014 0.9724
-6.0050 -2.5586 -2.5014 0.9724
-5.8971 -2.7982 -2.5014 0.9724
-5.7797 -3.0334 -2.5014 0.9724
-5.6528 -3.2637 -2.5014 0.9724
-5.2182 -3.9213 -2.5014 0.9724
-5.0561 -4.1282 -2.5014 0.9724
-4.8858 -4.3284 -2.5014 0.9724
-4.5217 -4.7075 -2.5014 0.9724
-4.3284 -4.8858 -2.5014 0.9724
-3.7079 -5.3719 -2.5014 0.9724
-3.4886 -5.5168 -2.5014 0.9724
-2.3146 -6.1032 -2.5014 0.9724
-2.0670 -6.1914 -2.5014 0.9724
-1.8160 -6.2696 -2.5014 0.9724
-1.5621 -6.3377 -2.5014 0.9724
-1.3056 -6.3954 -2.5014 0.9724
-1.0471 -6.4428 -2.5014 0.9724
-0.7868 -6.4798 -2.5014 0.9724
-0.2628 -6.5221 -2.5014 0.9724
2.3146 -6.1032 -2.5014 0.9724
2.5585 -6.0050 -2.5014 0.9724
2.7982 -5.8971 -2.5014 0.9724
3.0334 -5.7797 -2.5014 0.9724
3.4886 -5.5168 -2.5014 0.9724
4.1282 -5.0561 -2.5014 0.9724
4.3284 -4.8858 -2.5014 0.9724
4.7075 -4.5217 -2.5014 0.9724
5.0561 -4.1282 -2.5014 0.9724
5.2182 -3.9213 -2.5014 0.9724
5.5168 -3.4886 -2.5014 0.9724
5.7797 -3.0334 -2.5014 0.9724
5.8971 -2.7982 -2.5014 0.9724
6.0050 -2.5585 -2.5014 0.9724
6.1914 -2.0670 -2.5014 0.9724
6.4428 -1.0471 -2.5014 0.9724
6.4798 -0.7868 -2.5014 0.9724
6.5062 -0.5252 -2.5014 0.9724
6.5062 0.5252 -2.5014 0.9724
6.4798 0.7868 -2.5014 0.9724
6.2696 1.8160 -2.5014 0.9724
5.8142 1.9411 -2.3490 0.9741
5.6418 2.4037 -2.3501 0.9741
5.5419 2.6296 -2.3507 0.9741
5.4329 2.8514 -2.3513 0.9741
5.0533 3.4881 -2.3531 0.9740
4.7585 3.8852 -2.3542 0.9740
4.5985 4.0739 -2.3543 0.9740
2.9449 2.8286 -1.5648 0.9827
2.6827 3.0281 -1.5503 0.9828
3.8855 4.7588 -2.3543 0.9740
3.6907 4.9114 -2.3543 0.9740
3.0718 5.3205 -2.3543 0.9740
2.6337 5.5504 -2.3543 0.9740
2.4081 5.6520 -2.3543 0.9740
2.1785 5.7443 -2.3543 0.9740
1.8836 5.6420 -2.2794 0.9748
1.3460 5.4608 -2.1553 0.9762
0.6574 5.4136 -2.0898 0.9769
-0.4418 5.4728 -2.1041 0.9768
-0.6542 5.3881 -2.0800 0.9770
-1.1242 5.5069 -2.1539 0.9762
-1.3297 5.393.0-2.1292 0.9765
-1.5677 5.4122 -2.1593 0.9762
-2.1725 5.7284 -2.3478 0.9741
-2.5624 5.4002 -2.2906 0.9747
-3.0718 5.3205 -2.3543 0.9740
-3.2835 5.1925 -2.3543 0.9740
-3.4899 5.0561 -2.3543 0.9740
-3.8855 4.7588 -2.3543 0.9740
-4.0739 4.5985 -2.3543 0.9740
-4.4308 4.2558 -2.3543 0.9740
-4.7588 3.8855 -2.3543 0.9740
-5.0553 3.4895 -2.3540 0.9740
-5.4352 2.8526 -2.3523 0.9740
-5.5443 2.6308 -2.3517 0.9741
-5.6443 2.4048 -2.3511 0.9741
-5.7350 2.1750 -2.3505 0.9741
-5.9515 1.4669 -2.3490 0.9741
-6.3954 1.3056 -2.5014 0.9724
-3.5921 0.4362 -1.3867 0.9846
-3.5589 0.1434 -1.3649 0.9849
-2.8096 -0.2268 -1.1536 0.9879
-2.9323 -0.3560 -1.2089 0.9873
-3.0246 -0.4916 -1.2541 0.9868
-3.0070 -0.6139 -1.2561 0.9868
-5.7972 -1.9354 -2.5014 0.9739
-5.6227 -2.3956 -2.5014 0.9739
-5.4117 -2.8403 -2.5014 0.9739
-5.2929 -3.0559 -2.5014 0.9739
-5.0299 -3.4719 -2.5014 0.9739
-4.7342 -3.8654 -2.5014 0.9739
-4.5747 -4.0529 -2.5014 0.9739
-4.0529 -4.5747 -2.5014 0.9739
-3.8654 -4.7342 -2.5014 0.9739
-3.6716 -4.8860 -2.5014 0.9739
-3.4719 -5.0299 -2.5014 0.9739
-3.0559 -5.2929 -2.5014 0.9739
-1.9354 -5.7972 -2.5014 0.9739
-1.2225 -5.9883 -2.5014 0.9739
-0.9804 -6.0326 -2.5014 0.9739
-0.7367 -6.0672 -2.5014 0.9739
-0.4918 -6.0919 -2.5014 0.9739
-0.2461 -6.1068 -2.5014 0.9739
0.0000 -6.1118 -2.5014 0.9739
0.2461 -6.1068 -2.5014 0.9739
0.4918 -6.0920 -2.5014 0.9739
1.4627 -5.9342 -2.5014 0.9739
1.9354 -5.7972 -2.5014 0.9739
2.1673 -5.7146 -2.5014 0.9739
2.3956 -5.6227 -2.5014 0.9739
2.6201 -5.5217 -2.5014 0.9739
3.0559 -5.2929 -2.5014 0.9739
3.4719 -5.0299 -2.5014 0.9739
3.8654 -4.7342 -2.5014 0.9739
4.0529 -4.5747 -2.5014 0.9739
4.2338 -4.4078 -2.5014 0.9739
4.4078 -4.2338 -2.5014 0.9739
4.5747 -4.0529 -2.5014 0.9739
5.0299 -3.4719 -2.5014 0.9739
5.1656 -3.2665 -2.5014 0.9739
5.2929 -3.0559 -2.5014 0.9739
5.5217 -2.6201 -2.5014 0.9739
5.6227 -2.3956 -2.5014 0.9739
5.7146 -2.1673 -2.5014 0.9739
5.7972 -1.9354 -2.5014 0.9739
5.8705 -1.7004 -2.5014 0.9739
5.9883 -1.2225 -2.5014 0.9739
6.0326 -0.9804 -2.5014 0.9739
6.0672 -0.7367 -2.5014 0.9739
