ply
format ascii 1.0
element vertex 1578
property float32 x
property float32 y
property float32 z
property float32 I
end_header
-6.7833 -15.9209 -1.2689 0.9329
-6.0314 -15.9036 -1.2471 0.9341
-3.9079 -15.8547 -1.1973 0.9366
-3.2244 -15.7942 -1.1819 0.9374
-1.2750 -15.7940 -1.1618 0.9384
-0.0000 -15.7647 -1.1559 0.9387
1.9088 -15.7207 -1.1611 0.9385
2.5379 -15.6165 -1.1601 0.9385
6.5113 -26.4170 -1.9949 0.8966
7.8308 -27.0350 -2.0637 0.8933
10.1015 -30.2576 -2.3389 0.8799
6.6514 -15.6115 -1.2442 0.9342
7.3995 -15.5942 -1.2656 0.9331
17.0765 -27.0043 -2.3427 0.8797
10.7612 -15.5903 -1.3890 0.9268
11.6448 -15.4964 -1.4213 0.9252
12.7361 -15.5990 -1.4766 0.9224
13.6870 -15.4494 -1.5134 0.9206
14.8144 -15.4234 -1.5681 0.9178
24.5902 -23.6192 -2.5000 0.8722
26.4110 -21.5639 -2.5000 0.8722
27.2579 -20.4830 -2.5000 0.8722
28.0606 -19.3688 -2.5000 0.8722
28.8177 -18.2232 -2.5000 0.8722
30.1904 -15.8452 -2.5000 0.8722
30.8041 -14.6167 -2.5000 0.8722
32.7498 -9.4861 -2.5000 0.8722
33.1052 -8.1597 -2.5000 0.8722
33.4069 -6.8201 -2.5000 0.8722
33.6544 -5.4694 -2.5000 0.8722
33.8474 -4.1098 -2.5000 0.8722
33.9854 -2.7436 -2.5000 0.8722
34.0683 -1.3729 -2.5000 0.8722
34.0683 1.3729 -2.5000 0.8722
33.9854 2.7436 -2.5000 0.8722
32.7499 9.4861 -2.5000 0.8722
32.3414 10.7971 -2.5000 0.8722
19.6328 7.4457 -1.5396 0.9192
31.3677 13.3645 -2.5000 0.8722
30.1906 15.8453 -2.5000 0.8722
12.4856 8.6182 -1.1124 0.9410
10.7208 8.0562 -0.9833 0.9476
10.7604 8.7856 -1.0185 0.9458
9.2400 9.6199 -0.9780 0.9479
7.3087 8.2499 -0.8081 0.9568
6.6596 8.1566 -0.7721 0.9586
6.2928 8.3742 -0.7681 0.9589
6.0295 8.7353 -0.7783 0.9583
5.1595 8.9366 -0.7566 0.9595
4.7131 8.9801 -0.7436 0.9601
3.8574 9.0537 -0.7216 0.9613
3.2225 9.6526 -0.7461 0.9600
2.3792 9.6526 -0.7289 0.9609
1.5687 9.6526 -0.7170 0.9615
0.7278 9.0152 -0.6632 0.9644
-0.7340 9.0924 -0.6688 0.9641
-1.0581 8.7143 -0.6436 0.9654
-1.3568 8.3484 -0.6202 0.9666
-2.0396 8.2749 -0.6249 0.9664
-2.3969 8.2749 -0.6317 0.9660
-2.7868 8.3475 -0.6453 0.9653
-4.2549 8.9669 -0.7277 0.9610
-5.7742 9.1311 -0.7921 0.9576
-6.0810 8.0924 -0.7422 0.9602
-7.4996 9.1854 -0.8695 0.9536
-8.8667 8.5165 -0.9014 0.9519
-26.8370 20.1667 -2.4614 0.8740
-29.0721 16.7848 -2.4614 0.8740
-29.5172 15.4919 -2.4442 0.8749
-29.4447 11.1670 -2.3090 0.8813
-30.2764 8.7697 -2.3112 0.8812
-30.6188 7.5469 -2.3122 0.8812
-30.8902 6.3063 -2.3116 0.8812
-31.7840 3.8593 -2.3476 0.8795
-33.4547 2.7008 -2.4610 0.8741
-26.0402 0.0000 -2.5000 0.9006
-25.8503 -3.1388 -2.5000 0.9006
-25.5139 -5.2087 -2.5000 0.9006
-24.3480 -9.2339 -2.5000 0.9006
-23.5260 -11.1632 -2.5000 0.9006
-23.0574 -12.1014 -2.5000 0.9006
-22.5515 -13.0201 -2.5000 0.9006
-20.9049 -13.2194 -2.3746 0.9054
-20.1242 -13.8908 -2.3476 0.9064
-19.5486 -14.6898 -2.3476 0.9064
-18.9421 -15.4658 -2.3477 0.9064
-17.6447 -16.9477 -2.3488 0.9064
-14.2572 -16.0931 -2.0641 0.9172
-13.1182 -16.0668 -1.9913 0.9200
-12.0550 -16.0423 -1.9265 0.9225
-11.0574 -16.0194 -1.8687 0.9248
-10.1163 -15.9977 -1.8172 0.9268
-9.2244 -15.9771 -1.7712 0.9285
-6.0314 -15.9036 -1.6329 0.9339
-5.3038 -15.8868 -1.6080 0.9349
-4.5970 -15.8705 -1.5863 0.9358
-2.5716 -15.8239 -1.5391 0.9376
-1.2750 -15.7940 -1.5212 0.9383
0.6347 -15.7500 -1.5133 0.9386
1.2703 -15.7354 -1.5156 0.9385
1.9088 -15.7207 -1.5203 0.9383
3.2033 -15.6909 -1.5375 0.9377
5.8471 -23.7226 -2.3456 0.9065
6.7984 -23.4710 -2.3460 0.9065
5.9638 -15.7253 -1.6146 0.9347
7.3995 -15.5942 -1.6571 0.9330
8.1751 -15.5764 -1.6889 0.9318
10.7113 -15.5179 -1.8102 0.9270
18.3034 -16.2152 -2.3476 0.9064
18.9412 -15.4650 -2.3476 0.9064
21.4308 -14.7926 -2.5000 0.9006
22.0089 -13.9176 -2.5000 0.9006
23.0575 -12.1015 -2.5000 0.9006
23.5260 -11.1632 -2.5000 0.9006
23.9565 -10.2069 -2.5000 0.9006
25.2835 -6.2318 -2.5000 0.9006
25.5139 -5.2087 -2.5000 0.9006
25.7030 -4.1771 -2.5000 0.9006
25.9557 -2.0954 -2.5000 0.9006
26.0402 0.0000 -2.5000 0.9006
26.0190 1.0485 -2.5000 0.9006
25.9557 2.0954 -2.5000 0.9006
25.8503 3.1388 -2.5000 0.9006
25.0122 7.2449 -2.5000 0.9006
19.6328 7.4458 -2.0158 0.9191
23.5261 11.1633 -2.5000 0.9006
21.6519 11.3638 -2.3476 0.9064
12.5754 7.2604 -1.3941 0.9433
11.1075 7.6669 -1.2957 0.9472
10.7596 8.0853 -1.2921 0.9474
9.2416 8.8767 -1.2302 0.9498
9.2401 9.6200 -1.2806 0.9478
5.7123 9.0333 -1.0261 0.9580
4.8947 8.4778 -0.9398 0.9614
4.0241 8.4805 -0.9012 0.9630
3.6607 9.6526 -0.9911 0.9594
3.2225 9.6526 -0.9770 0.9599
1.9706 9.6526 -0.9458 0.9612
1.5687 9.6526 -0.9389 0.9615
1.0307 8.4883 -0.8209 0.9662
0.6859 8.4967 -0.8184 0.9663
-0.3857 9.5708 -0.9196 0.9622
-0.7208 8.9288 -0.8600 0.9646
-1.0343 8.5181 -0.8238 0.9661
-1.3568 8.3484 -0.8120 0.9666
-1.6654 8.1578 -0.7993 0.9671
-2.0145 8.1730 -0.8081 0.9667
-3.3034 8.7104 -0.8944 0.9633
-4.2550 8.9671 -0.9529 0.9609
-4.2604 8.1175 -0.8801 0.9638
-5.7742 9.1311 -1.0372 0.9575
-5.7732 8.3640 -0.9757 0.9600
-6.0317 8.0268 -0.9639 0.9605
-7.4997 9.1854 -1.1384 0.9535
-7.4988 8.4644 -1.0857 0.9556
-8.8667 8.5165 -1.1803 0.9518
-9.3373 8.2721 -1.1976 0.9511
-9.9146 8.0950 -1.2288 0.9499
-20.4963 15.4019 -2.4614 0.9021
-22.2033 12.8191 -2.4614 0.9021
-22.7015 11.9147 -2.4614 0.9021
-23.1629 10.9909 -2.4614 0.9021
-23.5866 10.0493 -2.4614 0.9021
-23.9721 9.0914 -2.4614 0.9021
-24.9994 6.1618 -2.4719 0.9017
-25.2857 5.1621 -2.4776 0.9015
-25.6042 4.1611 -2.4904 0.9010
-25.8323 3.1366 -2.4982 0.9007
-25.9447 2.0945 -2.4989 0.9007
-26.0151 1.0484 -2.4996 0.9007
-21.0461 0.0000 -2.5000 0.9187
-21.0291 -0.8474 -2.5000 0.9187
-20.9779 -1.6935 -2.5000 0.9187
-20.7736 -3.3760 -2.5000 0.9187
-20.6208 -4.2098 -2.5000 0.9187
-20.4346 -5.0367 -2.5000 0.9187
-20.2152 -5.8554 -2.5000 0.9187
-19.9630 -6.6646 -2.5000 0.9187
-19.3620 -8.2494 -2.5000 0.9187
-18.6354 -9.7806 -2.5000 0.9187
-18.2265 -10.5231 -2.5000 0.9187
-17.7880 -11.2484 -2.5000 0.9187
-16.8252 -12.6433 -2.5000 0.9187
-16.1649 -13.1982 -2.4789 0.9194
-14.2532 -13.6904 -2.3476 0.9235
-13.6904 -14.2532 -2.3476 0.9235
-13.1054 -14.7929 -2.3476 0.9235
-12.4991 -15.3086 -2.3476 0.9235
-11.8739 -15.8012 -2.3478 0.9235
-11.2294 -16.2686 -2.3481 0.9235
-10.5665 -16.7096 -2.3484 0.9235
-9.3267 -16.1543 -2.2158 0.9276
-9.1997 -17.5287 -2.3515 0.9234
-6.7833 -15.9209 -2.0557 0.9327
-6.0314 -15.9036 -2.0204 0.9338
-4.5970 -15.8705 -1.9627 0.9356
-3.9078 -15.8547 -1.9397 0.9363
-2.5716 -15.8239 -1.9043 0.9375
-1.9196 -15.8089 -1.8917 0.9379
-1.2750 -15.7940 -1.8822 0.9382
-0.0000 -15.7647 -1.8726 0.9385
1.2703 -15.7354 -1.8752 0.9384
4.5360 -15.6602 -1.9367 0.9364
5.2228 -15.6444 -1.9592 0.9357
5.9270 -15.6281 -1.9854 0.9349
7.7596 -18.2125 -2.3516 0.9234
8.4880 -17.8882 -2.3519 0.9233
9.1910 -17.5120 -2.3493 0.9234
10.5635 -16.7048 -2.3477 0.9235
11.8726 -15.7995 -2.3476 0.9235
13.1054 -14.7929 -2.3476 0.9235
13.6904 -14.2532 -2.3476 0.9235
14.2532 -13.6904 -2.3476 0.9235
14.9074 -13.2068 -2.3657 0.9229
16.1496 -13.1857 -2.4766 0.9194
17.3206 -11.9556 -2.5000 0.9187
18.6354 -9.7806 -2.5000 0.9187
19.0142 -9.0223 -2.5000 0.9187
19.3620 -8.2494 -2.5000 0.9187
19.6785 -7.4631 -2.5000 0.9187
19.9630 -6.6646 -2.5000 0.9187
20.2152 -5.8556 -2.5000 0.9187
20.4346 -5.0367 -2.5000 0.9187
20.6208 -4.2096 -2.5000 0.9187
20.7736 -3.3760 -2.5000 0.9187
20.9779 1.6935 -2.5000 0.9187
20.8927 2.5368 -2.5000 0.9187
20.7736 3.3767 -2.5000 0.9187
19.3638 3.9532 -2.3476 0.9235
19.1889 4.7296 -2.3476 0.9235
18.7461 6.2584 -2.3476 0.9235
12.4833 7.2072 -1.7122 0.9436
11.1058 7.0229 -1.5608 0.9484
10.7198 7.3993 -1.5473 0.9489
9.2425 8.1882 -1.4668 0.9515
9.2403 9.6202 -1.5845 0.9477
7.3309 8.2749 -1.3132 0.9564
6.6596 8.1566 -1.2508 0.9585
6.2928 8.3742 -1.2443 0.9587
5.9373 8.6017 -1.2415 0.9588
5.3816 8.5103 -1.1961 0.9603
4.8766 8.4465 -1.1585 0.9615
4.0079 8.4465 -1.1105 0.9630
3.2225 9.6526 -1.2088 0.9598
2.7959 9.6526 -1.1937 0.9603
2.3792 9.6526 -1.1809 0.9607
0.9976 8.2159 -0.9831 0.9672
0.6635 8.2186 -0.9794 0.9673
-0.0000 8.2229 -0.9768 0.9674
-0.7288 9.0273 -1.0758 0.9642
-1.0422 8.5835 -1.0271 0.9658
-3.4121 8.9971 -1.1430 0.9620
-4.1003 9.6238 -1.2426 0.9587
-5.6488 8.9329 -1.2555 0.9583
-8.9644 8.6104 -1.4765 0.9512
-9.3373 8.2721 -1.4818 0.9510
-15.5705 11.7004 -2.3135 0.9245
-16.4439 10.3985 -2.3111 0.9246
-16.8411 9.7232 -2.3100 0.9247
-19.0632 8.1220 -2.4614 0.9199
-19.3790 7.3495 -2.4619 0.9199
-20.3120 5.0065 -2.4850 0.9192
-20.5729 4.2000 -2.4942 0.9189
-20.7660 3.3748 -2.4991 0.9187
-21.0291 0.8475 -2.5000 0.9187
-17.6298 -0.7104 -2.5000 0.9312
-17.5155 -2.1268 -2.5000 0.9312
-17.4156 -2.8303 -2.5000 0.9312
-17.2876 -3.5293 -2.5000 0.9312
-17.1314 -4.2225 -2.5000 0.9312
-16.9475 -4.9089 -2.5000 0.9312
-16.4976 -6.2567 -2.5000 0.9312
-16.2322 -6.9159 -2.5000 0.9312
-15.2803 -8.8221 -2.5000 0.9312
-14.5208 -10.0230 -2.5000 0.9312
-13.6672 -11.1589 -2.5000 0.9312
-13.2068 -11.7002 -2.5000 0.9312
-12.7250 -12.2225 -2.5000 0.9312
-11.6880 -13.1930 -2.4974 0.9313
-9.9534 -13.2456 -2.3476 0.9353
-9.4120 -13.6356 -2.3476 0.9353
-8.8553 -14.0036 -2.3476 0.9353
-7.6998 -14.6707 -2.3476 0.9353
-6.4943 -15.2427 -2.3476 0.9353
-5.2467 -15.7159 -2.3476 0.9353
-3.9655 -16.0884 -2.3478 0.9352
-3.2178 -15.7617 -2.2793 0.9371
-2.6582 -16.3564 -2.3479 0.9352
-1.3334 -16.5177 -2.3480 0.9352
-0.6673 -16.5580 -2.3480 0.9352
-0.0000 -16.5714 -2.3480 0.9352
0.6673 -16.5577 -2.3480 0.9352
1.3334 -16.5171 -2.3479 0.9352
1.9974 -16.4495 -2.3478 0.9352
3.3142 -16.2342 -2.3477 0.9353
5.2467 -15.7159 -2.3476 0.9353
5.8753 -15.4918 -2.3476 0.9353
6.4943 -15.2427 -2.3476 0.9353
7.1028 -14.9688 -2.3476 0.9353
8.2843 -14.3488 -2.3476 0.9353
8.8553 -14.0035 -2.3476 0.9353
9.4120 -13.6356 -2.3476 0.9353
10.7770 -13.1994 -2.4144 0.9335
11.6800 -13.1840 -2.4957 0.9313
13.2068 -11.7002 -2.5000 0.9312
13.6672 -11.1589 -2.5000 0.9312
14.1054 -10.5996 -2.5000 0.9312
14.9126 -9.4302 -2.5000 0.9312
15.2801 -8.8221 -2.5000 0.9312
15.9406 -7.5639 -2.5000 0.9312
16.2322 -6.9159 -2.5000 0.9312
16.4975 -6.2567 -2.5000 0.9312
17.2875 -3.5293 -2.5000 0.9312
17.4156 -2.8303 -2.5000 0.9312
17.5155 -2.1268 -2.5000 0.9312
17.6298 -0.7104 -2.5000 0.9312
17.6441 0.0000 -2.5000 0.9312
17.6298 0.7105 -2.5000 0.9312
17.5869 1.4198 -2.5000 0.9312
16.7410 2.7207 -2.4031 0.9338
16.2337 3.3141 -2.3476 0.9353
16.0871 3.9651 -2.3476 0.9353
15.9144 4.6097 -2.3476 0.9353
15.7158 5.2467 -2.3476 0.9353
15.2427 6.4943 -2.3476 0.9353
14.9520 7.0948 -2.3449 0.9353
12.4829 7.2070 -2.0423 0.9434
10.7583 7.4259 -1.8522 0.9486
9.4012 7.0645 -1.6662 0.9536
9.2426 8.1882 -1.7496 0.9513
9.2416 8.8767 -1.8156 0.9495
6.6596 8.1566 -1.4920 0.9584
6.0295 8.7353 -1.5039 0.9580
4.8766 8.4465 -1.3819 0.9614
4.4330 8.4465 -1.3516 0.9622
4.0079 8.4465 -1.3247 0.9629
3.5987 8.4465 -1.3009 0.9636
3.2225 9.6526 -1.4419 0.9597
2.3791 9.6526 -1.4086 0.9606
0.6630 8.2128 -1.1675 0.9673
-1.3568 8.3484 -1.1984 0.9664
-1.6654 8.1578 -1.1797 0.9669
-1.9978 8.1051 -1.1828 0.9668
-3.4423 9.0767 -1.3755 0.9615
-4.2548 8.9669 -1.4063 0.9607
-5.4275 8.5830 -1.4389 0.9598
-5.7733 8.3641 -1.4400 0.9598
-6.0744 7.4398 -1.3609 0.9619
-7.4377 8.3954 -1.5892 0.9557
-7.4979 7.8061 -1.5336 0.9572
-10.1024 8.2484 -1.8479 0.9487
-13.4425 9.2787 -2.3143 0.9361
-13.8052 8.7299 -2.3143 0.9361
-14.4629 7.5907 -2.3143 0.9361
-14.7425 6.9954 -2.3121 0.9362
-15.4249 5.8499 -2.3374 0.9355
-15.6844 5.2362 -2.3429 0.9354
-15.9029 4.6063 -2.3459 0.9353
-17.1101 4.2173 -2.4969 0.9313
-17.2858 3.5289 -2.4997 0.9312
-17.5155 2.1268 -2.5000 0.9312
-15.1754 0.0000 -2.5000 0.9403
-15.1631 -0.6110 -2.5000 0.9403
-15.0648 -1.8292 -2.5000 0.9403
-14.9789 -2.4343 -2.5000 0.9403
-14.3944 -4.8056 -2.5000 0.9403
-13.1423 -7.5877 -2.5000 0.9403
-12.1319 -9.1165 -2.5000 0.9403
-11.7549 -9.5976 -2.5000 0.9403
-11.3590 -10.0632 -2.5000 0.9403
-10.9445 -10.5124 -2.5000 0.9403
-10.5124 -10.9445 -2.5000 0.9403
-10.0632 -11.3590 -2.5000 0.9403
-9.1165 -12.1319 -2.5000 0.9403
-8.6206 -12.4891 -2.5000 0.9403
-8.1107 -12.8261 -2.5000 0.9403
-7.5876 -13.1423 -2.5000 0.9403
-5.0532 -13.3243 -2.3476 0.9439
-4.5126 -13.5169 -2.3476 0.9439
-2.8504 -13.9623 -2.3476 0.9439
-0.5738 -14.2387 -2.3476 0.9439
-0.0000 -14.2503 -2.3476 0.9439
1.1467 -14.2041 -2.3476 0.9439
1.7177 -14.1464 -2.3476 0.9439
2.2859 -14.0658 -2.3476 0.9439
3.4103 -13.8362 -2.3476 0.9439
4.5126 -13.5169 -2.3476 0.9439
5.0532 -13.3243 -2.3476 0.9439
5.6285 -13.2105 -2.3656 0.9434
6.9245 -13.1935 -2.4547 0.9414
8.1107 -12.8261 -2.5000 0.9403
9.1165 -12.1319 -2.5000 0.9403
10.0632 -11.3589 -2.5000 0.9403
10.5124 -10.9445 -2.5000 0.9403
10.9445 -10.5124 -2.5000 0.9403
11.7549 -9.5976 -2.5000 0.9403
12.1320 -9.1165 -2.5000 0.9403
12.4891 -8.6206 -2.5000 0.9403
12.8261 -8.1107 -2.5000 0.9403
13.7102 -6.5056 -2.5000 0.9403
13.9611 -5.9482 -2.5000 0.9403
14.5762 -4.2221 -2.5000 0.9403
14.7344 -3.6317 -2.5000 0.9403
15.0647 -1.8292 -2.5000 0.9403
15.1754 0.0000 -2.5000 0.9403
13.9624 2.8504 -2.3476 0.9439
13.2573 3.2677 -2.2494 0.9462
13.6877 3.9647 -2.3476 0.9439
13.5169 4.5126 -2.3476 0.9439
13.3243 5.0532 -2.3476 0.9439
12.3121 7.1084 -2.3421 0.9440
11.8333 7.4830 -2.3065 0.9448
9.2424 8.1881 -2.0342 0.9512
9.2406 9.6205 -2.1975 0.9474
6.2928 8.3742 -1.7257 0.9584
5.7592 9.1074 -1.7752 0.9573
4.4330 8.4465 -1.5715 0.9621
1.3347 8.2128 -1.3707 0.9668
-1.3568 8.3484 -1.3934 0.9663
-1.6654 8.1578 -1.3716 0.9668
-4.2560 8.1092 -1.5087 0.9636
-4.3419 7.5204 -1.4306 0.9654
-5.3109 8.3986 -1.6370 0.9605
-5.7734 8.3641 -1.6743 0.9596
-5.8196 7.1277 -1.5159 0.9634
-6.2222 7.0234 -1.5458 0.9627
-7.4967 7.2007 -1.7124 0.9587
-9.3373 8.2721 -2.0550 0.9507
-11.2439 8.4493 -2.3170 0.9446
-11.8814 7.5134 -2.3159 0.9446
-12.3024 7.1028 -2.3402 0.9440
-13.1100 5.5857 -2.3476 0.9439
-13.6877 3.9647 -2.3476 0.9439
-14.8687 3.0355 -2.5000 0.9403
-14.9789 2.4343 -2.5000 0.9403
-15.0648 1.8292 -2.5000 0.9403
-15.1262 1.2211 -2.5000 0.9403
-13.2898 -0.5355 -2.5000 0.9473
-12.9141 -3.1830 -2.5000 0.9473
-12.4362 -4.7164 -2.5000 0.9473
-12.2362 -5.2134 -2.5000 0.9473
-11.5186 -6.6503 -2.5000 0.9473
-10.9461 -7.5556 -2.5000 0.9473
-10.6330 -7.9902 -2.5000 0.9473
-9.9556 -8.8199 -2.5000 0.9473
-8.8199 -9.9556 -2.5000 0.9473
-8.4119 -10.3027 -2.5000 0.9473
-7.9902 -10.6330 -2.5000 0.9473
-7.5556 -10.9461 -2.5000 0.9473
-7.1087 -11.2415 -2.5000 0.9473
-5.2125 -12.2362 -2.5000 0.9473
-4.7165 -12.4362 -2.5000 0.9473
-4.2119 -12.6161 -2.5000 0.9473
-3.1830 -12.9141 -2.5000 0.9473
-2.6605 -13.0317 -2.5000 0.9473
-2.1336 -13.1283 -2.5000 0.9473
-1.6015 -13.1890 -2.4972 0.9474
-0.5316 -13.1915 -2.4815 0.9477
0.0000 -13.1917 -2.4795 0.9477
1.6013 -13.1878 -2.4970 0.9474
3.1830 -12.9141 -2.5000 0.9473
4.2118 -12.6161 -2.5000 0.9473
6.1811 -11.7771 -2.5000 0.9473
8.4119 -10.3027 -2.5000 0.9473
9.2135 -9.5924 -2.5000 0.9473
9.9556 -8.8199 -2.5000 0.9473
10.3027 -8.4119 -2.5000 0.9473
10.6330 -7.9902 -2.5000 0.9473
10.9461 -7.5556 -2.5000 0.9473
11.2415 -7.1087 -2.5000 0.9473
11.7771 -6.1811 -2.5000 0.9473
12.2362 -5.2133 -2.5000 0.9473
12.4362 -4.7164 -2.5000 0.9473
12.7754 -3.7004 -2.5000 0.9473
13.1283 -2.1336 -2.5000 0.9473
13.2036 -1.6032 -2.5000 0.9473
13.2574 -1.0702 -2.5000 0.9473
13.2898 -0.5355 -2.5000 0.9473
13.2898 0.5356 -2.5000 0.9473
13.2036 1.6032 -2.5000 0.9473
11.4903 4.8956 -2.3476 0.9504
11.2839 5.3543 -2.3476 0.9504
10.2621 7.0834 -2.3438 0.9505
9.2430 7.5467 -2.2428 0.9526
9.2422 8.1879 -2.3208 0.9510
8.9857 8.6309 -2.3419 0.9506
7.3309 8.2749 -2.0779 0.9560
6.6596 8.1566 -1.9792 0.9580
6.2928 8.3742 -1.9689 0.9583
4.8766 8.4465 -1.8332 0.9611
3.5987 8.4465 -1.7257 0.9633
2.9941 7.8949 -1.5871 0.9662
2.1481 8.7152 -1.6871 0.9641
1.9706 9.6526 -1.8517 0.9607
1.3347 8.2128 -1.5639 0.9667
0.9972 8.2128 -1.5550 0.9669
0.6630 8.2128 -1.5487 0.9670
-0.3313 8.2201 -1.5463 0.9671
-1.3568 8.3484 -1.5898 0.9662
-2.0396 8.2749 -1.6019 0.9659
-3.4423 9.0767 -1.8246 0.9613
-4.2548 8.9669 -1.8655 0.9604
-4.2561 8.1092 -1.7214 0.9634
-5.5373 8.0222 -1.8322 0.9611
-5.7724 7.6817 -1.8061 0.9616
-6.9449 7.8392 -1.9685 0.9583
-7.4981 7.8064 -2.0345 0.9569
-7.4964 7.2003 -1.9537 0.9586
-9.2360 8.1824 -2.3193 0.9510
-10.2539 7.0778 -2.3419 0.9506
-10.8164 6.2449 -2.3476 0.9504
-11.6781 4.4289 -2.3476 0.9504
-11.8470 3.9551 -2.3476 0.9504
-12.1268 2.9890 -2.3476 0.9504
-11.7886 -0.9517 -2.5000 0.9528
-11.7408 -1.4256 -2.5000 0.9528
-11.4833 -2.8304 -2.5000 0.9528
-11.3600 -3.2905 -2.5000 0.9528
-11.0584 -4.1939 -2.5000 0.9528
-10.8806 -4.6358 -2.5000 0.9528
-10.4723 -5.4963 -2.5000 0.9528
-10.2425 -5.9135 -2.5000 0.9528
-9.9961 -6.3211 -2.5000 0.9528
-9.7334 -6.7185 -2.5000 0.9528
-9.4550 -7.1050 -2.5000 0.9528
-9.1612 -7.4799 -2.5000 0.9528
-8.5296 -8.1928 -2.5000 0.9528
-8.1929 -8.5296 -2.5000 0.9528
-7.8427 -8.8526 -2.5000 0.9528
-7.1050 -9.4550 -2.5000 0.9528
-6.7185 -9.7334 -2.5000 0.9528
-6.3211 -9.9960 -2.5000 0.9528
-5.9135 -10.2424 -2.5000 0.9528
-5.0702 -10.6851 -2.5000 0.9528
-4.1939 -11.0584 -2.5000 0.9528
-3.7452 -11.2183 -2.5000 0.9528
-3.2905 -11.3600 -2.5000 0.9528
-0.9517 -11.7886 -2.5000 0.9528
-0.4762 -11.8174 -2.5000 0.9528
0.0000 -11.8270 -2.5000 0.9528
0.4762 -11.8174 -2.5000 0.9528
1.8972 -11.6738 -2.5000 0.9528
2.8304 -11.4833 -2.5000 0.9528
3.7452 -11.2183 -2.5000 0.9528
4.1939 -11.0584 -2.5000 0.9528
5.0701 -10.6851 -2.5000 0.9528
6.3213 -9.9960 -2.5000 0.9528
6.7187 -9.7334 -2.5000 0.9528
7.4799 -9.1612 -2.5000 0.9528
8.8526 -7.8427 -2.5000 0.9528
9.1612 -7.4799 -2.5000 0.9528
9.7334 -6.7185 -2.5000 0.9528
9.9960 -6.3211 -2.5000 0.9528
10.2425 -5.9135 -2.5000 0.9528
10.4723 -5.4962 -2.5000 0.9528
10.6851 -5.0701 -2.5000 0.9528
10.8806 -4.6358 -2.5000 0.9528
11.5879 -2.3657 -2.5000 0.9528
11.6738 -1.8972 -2.5000 0.9528
11.7407 -1.4256 -2.5000 0.9528
11.7886 -0.9517 -2.5000 0.9528
11.8270 0.0000 -2.5000 0.9528
11.8174 0.4762 -2.5000 0.9528
11.7407 1.4256 -2.5000 0.9528
11.6738 1.8972 -2.5000 0.9528
11.5879 2.3657 -2.5000 0.9528
11.0303 2.7187 -2.4014 0.9546
10.6675 3.0899 -2.3476 0.9556
10.5344 3.5169 -2.3476 0.9556
9.6181 5.5530 -2.3476 0.9556
8.2776 7.3333 -2.3376 0.9558
6.6596 8.1566 -2.2258 0.9579
6.2928 8.3742 -2.2142 0.9581
5.6801 8.9824 -2.2465 0.9575
5.5367 9.5899 -2.3407 0.9557
4.0102 8.4514 -1.9774 0.9625
3.5987 8.4465 -1.9407 0.9632
1.9706 9.6526 -2.0825 0.9605
1.3347 8.2128 -1.7588 0.9666
0.9972 8.2128 -1.7488 0.9667
0.6630 8.2128 -1.7417 0.9669
0.3310 8.2128 -1.7374 0.9670
-0.0000 8.2128 -1.7360 0.9670
-0.3313 8.2201 -1.7390 0.9669
-0.7340 9.0924 -1.9282 0.9634
-1.3568 8.3484 -1.7878 0.9660
-1.6654 8.1578 -1.7600 0.9665
-2.0396 8.2749 -1.8015 0.9658
-2.7868 8.3475 -1.8602 0.9647
-3.4423 9.0767 -2.0520 0.9611
-4.1007 9.6246 -2.2114 0.9581
-4.2549 8.9670 -2.0980 0.9602
-4.2569 7.3732 -1.7997 0.9658
-5.7781 7.0768 -1.9312 0.9633
-7.4961 7.2001 -2.1971 0.9584
-8.2148 7.2777 -2.3199 0.9561
-8.6005 7.0221 -2.3470 0.9556
-8.8786 6.6718 -2.3476 0.9556
-9.1401 6.3089 -2.3476 0.9556
-9.6181 5.5530 -2.3476 0.9556
-10.0337 4.7610 -2.3476 0.9556
-10.3843 3.9382 -2.3476 0.9556
-10.6675 3.0899 -2.3476 0.9556
-10.9996 2.7112 -2.3947 0.9547
-11.5880 2.3657 -2.5000 0.9528
-11.6738 1.8972 -2.5000 0.9528
-11.7886 0.9517 -2.5000 0.9528
-11.8174 0.4762 -2.5000 0.9528
-10.6286 -0.4283 -2.5000 0.9572
-10.6027 -0.8559 -2.5000 0.9572
-10.5596 -1.2822 -2.5000 0.9572
-10.4222 -2.1277 -2.5000 0.9572
-10.2172 -2.9594 -2.5000 0.9572
-10.0898 -3.3685 -2.5000 0.9572
-9.9459 -3.7720 -2.5000 0.9572
-9.7860 -4.1694 -2.5000 0.9572
-9.4188 -4.9433 -2.5000 0.9572
-9.2121 -5.3186 -2.5000 0.9572
-8.5038 -6.3902 -2.5000 0.9572
-7.6716 -7.3686 -2.5000 0.9572
-7.0538 -7.9620 -2.5000 0.9572
-6.7275 -8.2396 -2.5000 0.9572
-6.3902 -8.5038 -2.5000 0.9572
-6.0426 -8.7542 -2.5000 0.9572
-5.3186 -9.2121 -2.5000 0.9572
-4.5601 -9.6102 -2.5000 0.9572
-4.1695 -9.7860 -2.5000 0.9572
-3.7720 -9.9459 -2.5000 0.9572
-0.8558 -10.6027 -2.5000 0.9572
-0.4283 -10.6286 -2.5000 0.9572
1.2820 -10.5596 -2.5000 0.9572
1.7064 -10.4994 -2.5000 0.9572
2.1279 -10.4222 -2.5000 0.9572
2.5457 -10.3281 -2.5000 0.9572
4.5601 -9.6102 -2.5000 0.9572
4.9433 -9.4188 -2.5000 0.9572
5.3186 -9.2121 -2.5000 0.9572
5.6852 -8.9904 -2.5000 0.9572
6.3902 -8.5038 -2.5000 0.9572
6.7274 -8.2396 -2.5000 0.9572
7.0538 -7.9621 -2.5000 0.9572
7.3686 -7.6716 -2.5000 0.9572
7.9621 -7.0538 -2.5000 0.9572
8.2396 -6.7274 -2.5000 0.9572
8.5038 -6.3902 -2.5000 0.9572
9.4188 -4.9433 -2.5000 0.9572
9.9459 -3.7720 -2.5000 0.9572
10.0898 -3.3684 -2.5000 0.9572
10.4222 -2.1277 -2.5000 0.9572
10.5596 -1.2822 -2.5000 0.9572
10.6372 0.0000 -2.5000 0.9572
10.5596 1.2822 -2.5000 0.9572
10.4995 1.7063 -2.5000 0.9572
10.4222 2.1277 -2.5000 0.9572
10.3281 2.5457 -2.5000 0.9572
9.0243 4.2821 -2.3476 0.9598
8.6505 4.9944 -2.3476 0.9598
8.4424 5.3387 -2.3476 0.9598
8.2206 5.6743 -2.3476 0.9598
7.9854 6.0007 -2.3476 0.9598
7.7373 6.3173 -2.3476 0.9598
7.4767 6.6238 -2.3476 0.9598
7.2040 6.9194 -2.3476 0.9598
6.8859 7.1689 -2.3362 0.9600
6.5904 7.4390 -2.3358 0.9600
6.2860 7.6990 -2.3359 0.9600
5.6478 8.1823 -2.3366 0.9600
4.6217 8.8059 -2.3373 0.9600
4.2636 8.9853 -2.3374 0.9600
3.8984 9.1499 -2.3375 0.9600
2.0062 8.1394 -1.9702 0.9661
0.9972 8.2128 -1.9444 0.9666
0.6630 8.2128 -1.9365 0.9667
0.3310 8.2128 -1.9318 0.9668
-1.6654 8.1578 -1.9568 0.9664
-2.3969 8.2749 -2.0247 0.9652
-2.7868 8.3475 -2.0683 0.9645
-4.2558 8.1088 -2.1523 0.9631
-4.4762 7.0786 -1.9683 0.9662
-5.6990 7.5840 -2.2296 0.9618
-6.5505 7.3940 -2.3216 0.9602
-7.7373 6.3173 -2.3476 0.9598
-8.6505 4.9944 -2.3476 0.9598
-9.0243 4.2821 -2.3476 0.9598
-8.1759 3.4834 -2.0887 0.9641
-9.4747 3.1631 -2.3476 0.9598
-9.5944 2.7791 -2.3476 0.9598
-10.3281 2.5457 -2.5000 0.9572
-10.4995 1.7063 -2.5000 0.9572
-10.6286 0.4283 -2.5000 0.9572
-9.6555 0.0000 -2.5000 0.9609
-9.6242 -0.7769 -2.5000 0.9609
-9.5851 -1.1638 -2.5000 0.9609
-9.5305 -1.5489 -2.5000 0.9609
-9.3749 -2.3107 -2.5000 0.9609
-9.2743 -2.6863 -2.5000 0.9609
-8.8829 -3.7846 -2.5000 0.9609
-8.7233 -4.1392 -2.5000 0.9609
-8.5496 -4.4871 -2.5000 0.9609
-8.1608 -5.1605 -2.5000 0.9609
-7.9463 -5.4850 -2.5000 0.9609
-6.6886 -6.9636 -2.5000 0.9609
-6.1066 -7.4792 -2.5000 0.9609
-5.8005 -7.7190 -2.5000 0.9609
-5.1605 -8.1607 -2.5000 0.9609
-4.4871 -8.5495 -2.5000 0.9609
-3.7847 -8.8829 -2.5000 0.9609
-3.4239 -9.0281 -2.5000 0.9609
-2.3107 -9.3749 -2.5000 0.9609
-1.5489 -9.5305 -2.5000 0.9609
-1.1638 -9.5851 -2.5000 0.9609
-0.0000 -9.6555 -2.5000 0.9609
0.7770 -9.6242 -2.5000 0.9609
1.9313 -9.4604 -2.5000 0.9609
2.3108 -9.3749 -2.5000 0.9609
2.6864 -9.2743 -2.5000 0.9609
3.7847 -8.8829 -2.5000 0.9609
4.4871 -8.5495 -2.5000 0.9609
5.1605 -8.1607 -2.5000 0.9609
5.8005 -7.7190 -2.5000 0.9609
6.1066 -7.4792 -2.5000 0.9609
7.4792 -6.1066 -2.5000 0.9609
8.1607 -5.1605 -2.5000 0.9609
8.3619 -4.8278 -2.5000 0.9609
8.5495 -4.4871 -2.5000 0.9609
9.0281 -3.4239 -2.5000 0.9609
9.1586 -3.0576 -2.5000 0.9609
9.2743 -2.6863 -2.5000 0.9609
9.3749 -2.3107 -2.5000 0.9609
9.4604 -1.9313 -2.5000 0.9609
9.6242 -0.7769 -2.5000 0.9609
9.6555 0.0000 -2.5000 0.9609
9.6242 0.7769 -2.5000 0.9609
9.4604 1.9314 -2.5000 0.9609
9.3749 2.3107 -2.5000 0.9609
9.2743 2.6863 -2.5000 0.9609
8.4777 3.2152 -2.3476 0.9632
8.3414 3.5539 -2.3476 0.9632
8.1915 3.8869 -2.3476 0.9632
7.8522 4.5335 -2.3476 0.9632
6.5391 6.2809 -2.3476 0.9632
6.2809 6.5391 -2.3476 0.9632
6.0125 6.7867 -2.3476 0.9632
5.4167 7.2083 -2.3346 0.9634
5.1212 7.4193 -2.3342 0.9634
4.8179 7.6189 -2.3340 0.9634
3.0056 7.9251 -2.1946 0.9656
2.8552 8.5523 -2.3345 0.9634
2.5084 8.6600 -2.3344 0.9634
1.9992 8.1113 -2.1630 0.9661
1.6836 8.2469 -2.1793 0.9658
1.0864 8.9472 -2.3336 0.9634
0.3628 9.0030 -2.3329 0.9635
-0.0000 9.0087 -2.3325 0.9635
-0.3627 8.9997 -2.3321 0.9635
-1.6654 8.1578 -2.1558 0.9662
-1.9978 8.1051 -2.1614 0.9661
-2.3573 8.1384 -2.1938 0.9656
-2.7868 8.3475 -2.2786 0.9643
-3.5216 8.2654 -2.3262 0.9636
-5.0971 7.3844 -2.3232 0.9636
-5.3914 7.1747 -2.3237 0.9636
-5.7305 7.0186 -2.3460 0.9633
-6.0125 6.7867 -2.3476 0.9632
-6.2809 6.5391 -2.3476 0.9632
-6.5391 6.2809 -2.3476 0.9632
-6.7867 6.0125 -2.3476 0.9632
-7.0233 5.7343 -2.3476 0.9632
-7.4619 5.1506 -2.3476 0.9632
-7.6633 4.8460 -2.3476 0.9632
-7.8522 4.5335 -2.3476 0.9632
-8.1915 3.8869 -2.3476 0.9632
-8.0770 3.4413 -2.2732 0.9644
-8.4777 3.2152 -2.3476 0.9632
-9.2743 2.6863 -2.5000 0.9609
-9.3749 2.3107 -2.5000 0.9609
-9.6242 0.7769 -2.5000 0.9609
-8.8238 -0.3556 -2.5000 0.9640
-8.8023 -0.7106 -2.5000 0.9640
-8.7166 -1.4166 -2.5000 0.9640
-8.6525 -1.7664 -2.5000 0.9640
-8.5744 -2.1134 -2.5000 0.9640
-8.4823 -2.4569 -2.5000 0.9640
-8.3765 -2.7965 -2.5000 0.9640
-8.2571 -3.1315 -2.5000 0.9640
-7.9783 -3.7858 -2.5000 0.9640
-7.2678 -5.0166 -2.5000 0.9640
-7.0599 -5.3051 -2.5000 0.9640
-6.8405 -5.5851 -2.5000 0.9640
-6.6101 -5.8560 -2.5000 0.9640
-6.3689 -6.1174 -2.5000 0.9640
-6.1175 -6.3689 -2.5000 0.9640
-5.8560 -6.6101 -2.5000 0.9640
-5.5851 -6.8405 -2.5000 0.9640
-5.3052 -7.0598 -2.5000 0.9640
-4.7199 -7.4638 -2.5000 0.9640
-4.1040 -7.8194 -2.5000 0.9640
-3.7858 -7.9783 -2.5000 0.9640
-3.4615 -8.1243 -2.5000 0.9640
-2.7965 -8.3765 -2.5000 0.9640
-2.4569 -8.4823 -2.5000 0.9640
-1.0645 -8.7666 -2.5000 0.9640
-0.3556 -8.8238 -2.5000 0.9640
1.0645 -8.7666 -2.5000 0.9640
1.4166 -8.7166 -2.5000 0.9640
1.7664 -8.6525 -2.5000 0.9640
2.1134 -8.5743 -2.5000 0.9640
2.7965 -8.3765 -2.5000 0.9640
3.1315 -8.2571 -2.5000 0.9640
3.4614 -8.1243 -2.5000 0.9640
3.7858 -7.9783 -2.5000 0.9640
4.1040 -7.8194 -2.5000 0.9640
4.4155 -7.6478 -2.5000 0.9640
5.0166 -7.2677 -2.5000 0.9640
5.3051 -7.0599 -2.5000 0.9640
6.1174 -6.3689 -2.5000 0.9640
6.3689 -6.1174 -2.5000 0.9640
6.8405 -5.5851 -2.5000 0.9640
7.0598 -5.3051 -2.5000 0.9640
7.2677 -5.0166 -2.5000 0.9640
7.4638 -4.7199 -2.5000 0.9640
7.6479 -4.4155 -2.5000 0.9640
7.8194 -4.1039 -2.5000 0.9640
7.9783 -3.7858 -2.5000 0.9640
8.1243 -3.4614 -2.5000 0.9640
8.2571 -3.1315 -2.5000 0.9640
8.3765 -2.7965 -2.5000 0.9640
8.6525 -1.7664 -2.5000 0.9640
8.7666 -1.0644 -2.5000 0.9640
8.8023 -0.7106 -2.5000 0.9640
8.8238 -0.3556 -2.5000 0.9640
8.8310 0.0000 -2.5000 0.9640
8.8023 0.7106 -2.5000 0.9640
8.6525 1.7664 -2.5000 0.9640
8.5744 2.1134 -2.5000 0.9640
7.7537 2.9406 -2.3476 0.9661
7.6290 3.2504 -2.3476 0.9661
7.3427 3.8538 -2.3476 0.9661
7.1816 4.1463 -2.3476 0.9661
7.0088 4.4321 -2.3476 0.9661
6.6295 4.9817 -2.3476 0.9661
6.4235 5.2446 -2.3476 0.9661
6.2071 5.4990 -2.3476 0.9661
5.9807 5.7445 -2.3476 0.9661
5.4990 6.2071 -2.3476 0.9661
5.2446 6.4235 -2.3476 0.9661
4.9817 6.6295 -2.3476 0.9661
4.7107 6.8247 -2.3476 0.9661
4.4246 6.9969 -2.3436 0.9662
4.1210 7.1377 -2.3332 0.9663
3.8296 7.2966 -2.3328 0.9663
3.2290 7.5787 -2.3321 0.9663
2.9211 7.7024 -2.3320 0.9663
2.2918 7.9121 -2.3319 0.9663
1.9712 7.9975 -2.3318 0.9663
1.3211 8.1290 -2.3314 0.9663
0.3315 8.2259 -2.3306 0.9664
-0.9916 8.1665 -2.3289 0.9664
-2.2865 7.8938 -2.3265 0.9664
-2.6017 7.7931 -2.3259 0.9664
-3.8161 7.2709 -2.3246 0.9664
-4.1259 7.1462 -2.3360 0.9663
-4.4305 7.0062 -2.3467 0.9661
-5.2446 6.4235 -2.3476 0.9661
-5.9807 5.7445 -2.3476 0.9661
-6.2071 5.4990 -2.3476 0.9661
-7.0089 4.4321 -2.3476 0.9661
-7.1816 4.1463 -2.3476 0.9661
-7.3428 3.8538 -2.3476 0.9661
-7.4920 3.5550 -2.3476 0.9661
-7.6291 3.2504 -2.3476 0.9661
-7.7537 2.9406 -2.3476 0.9661
-8.1100 2.7075 -2.4205 0.9651
-8.5744 2.1134 -2.5000 0.9640
-8.6525 1.7664 -2.5000 0.9640
-8.7166 1.4166 -2.5000 0.9640
-8.7666 1.0645 -2.5000 0.9640
-8.8023 0.7106 -2.5000 0.9640
-8.1214 -0.3273 -2.5000 0.9666
-8.0687 -0.9797 -2.5000 0.9666
-7.9637 -1.6258 -2.5000 0.9666
-7.5998 -2.8822 -2.5000 0.9666
-7.3432 -3.4844 -2.5000 0.9666
-7.1970 -3.7772 -2.5000 0.9666
-7.0390 -4.0640 -2.5000 0.9666
-6.8697 -4.3441 -2.5000 0.9666
-6.6892 -4.6172 -2.5000 0.9666
-6.4979 -4.8828 -2.5000 0.9666
-6.0839 -5.3898 -2.5000 0.9666
-5.6304 -5.8619 -2.5000 0.9666
-4.3441 -6.8697 -2.5000 0.9666
-3.4844 -7.3432 -2.5000 0.9666
-2.5739 -7.7097 -2.5000 0.9666
-1.3038 -8.0227 -2.5000 0.9666
-0.6540 -8.1016 -2.5000 0.9666
-0.3273 -8.1214 -2.5000 0.9666
-0.0000 -8.1280 -2.5000 0.9666
0.3273 -8.1214 -2.5000 0.9666
1.3038 -8.0227 -2.5000 0.9666
1.9451 -7.8918 -2.5000 0.9666
2.5738 -7.7097 -2.5000 0.9666
2.8822 -7.5998 -2.5000 0.9666
3.1859 -7.4775 -2.5000 0.9666
3.4844 -7.3432 -2.5000 0.9666
4.0640 -7.0390 -2.5000 0.9666
4.6172 -6.6892 -2.5000 0.9666
4.8828 -6.4978 -2.5000 0.9666
6.0838 -5.3898 -2.5000 0.9666
6.2960 -5.1405 -2.5000 0.9666
6.4978 -4.8828 -2.5000 0.9666
7.3432 -3.4844 -2.5000 0.9666
7.4775 -3.1859 -2.5000 0.9666
7.5998 -2.8822 -2.5000 0.9666
7.8070 -2.2613 -2.5000 0.9666
7.8918 -1.9451 -2.5000 0.9666
7.9637 -1.6258 -2.5000 0.9666
8.1214 -0.3273 -2.5000 0.9666
8.1280 0.0000 -2.5000 0.9666
8.0687 0.9797 -2.5000 0.9666
7.9637 1.6258 -2.5000 0.9666
7.8070 2.2613 -2.5000 0.9666
7.7097 2.5739 -2.5000 0.9666
7.1834 2.7243 -2.3630 0.9684
6.7582 3.5470 -2.3476 0.9686
6.6099 3.8162 -2.3476 0.9686
6.4509 4.0793 -2.3476 0.9686
6.2814 4.3358 -2.3476 0.9686
6.1017 4.5852 -2.3476 0.9686
5.0612 5.7130 -2.3476 0.9686
4.8271 5.9122 -2.3476 0.9686
4.5851 6.1017 -2.3476 0.9686
4.3357 6.2814 -2.3476 0.9686
4.0793 6.4509 -2.3476 0.9686
3.8162 6.6099 -2.3476 0.9686
3.2720 6.8956 -2.3476 0.9686
2.9859 7.0082 -2.3431 0.9686
2.6974 7.1125 -2.3397 0.9687
2.1085 7.2793 -2.3310 0.9688
1.5154 7.4231 -2.3303 0.9688
1.2151 7.4771 -2.3300 0.9688
0.6094 7.5484 -2.3293 0.9688
0.3049 7.5657 -2.3289 0.9688
0.0000 7.5708 -2.3286 0.9688
-0.6090 7.5442 -2.3280 0.9688
-1.5133 7.4128 -2.3270 0.9688
-2.3949 7.1737 -2.3262 0.9688
-2.6941 7.1037 -2.3368 0.9687
-2.9886 7.0145 -2.3452 0.9686
-3.5470 6.7582 -2.3476 0.9686
-3.8162 6.6099 -2.3476 0.9686
-4.3357 6.2814 -2.3476 0.9686
-4.5851 6.1017 -2.3476 0.9686
-4.8271 5.9122 -2.3476 0.9686
-5.0613 5.7130 -2.3476 0.9686
-5.2872 5.5046 -2.3476 0.9686
-5.5046 5.2872 -2.3476 0.9686
-5.7130 5.0613 -2.3476 0.9686
-5.9122 4.8271 -2.3476 0.9686
-6.2814 4.3358 -2.3476 0.9686
-6.4509 4.0793 -2.3476 0.9686
-6.6099 3.8162 -2.3476 0.9686
-7.0217 2.9917 -2.3476 0.9686
-7.1751 2.7211 -2.3603 0.9684
-7.8071 2.2613 -2.5000 0.9666
-8.0687 0.9797 -2.5000 0.9666
-8.1016 0.6540 -2.5000 0.9666
-8.1214 0.3273 -2.5000 0.9666
-7.5209 0.0000 -2.5000 0.9688
-7.3689 -1.5044 -2.5000 0.9688
-7.2239 -2.0924 -2.5000 0.9688
-7.1338 -2.3816 -2.5000 0.9688
-6.7948 -3.2241 -2.5000 0.9688
-6.3566 -4.0196 -2.5000 0.9688
-6.1896 -4.2724 -2.5000 0.9688
-6.0125 -4.5181 -2.5000 0.9688
-5.6295 -4.9873 -2.5000 0.9688
-5.4241 -5.2099 -2.5000 0.9688
-4.9873 -5.6295 -2.5000 0.9688
-4.5181 -6.0125 -2.5000 0.9688
-4.2724 -6.1896 -2.5000 0.9688
-4.0197 -6.3566 -2.5000 0.9688
-3.4951 -6.6594 -2.5000 0.9688
-3.2241 -6.7947 -2.5000 0.9688
-2.9479 -6.9191 -2.5000 0.9688
-2.6669 -7.0321 -2.5000 0.9688
-2.0924 -7.2239 -2.5000 0.9688
-1.7999 -7.3023 -2.5000 0.9688
-1.5044 -7.3689 -2.5000 0.9688
-1.2064 -7.4235 -2.5000 0.9688
-0.6052 -7.4965 -2.5000 0.9688
0.0000 -7.5209 -2.5000 0.9688
0.3028 -7.5148 -2.5000 0.9688
0.9065 -7.4660 -2.5000 0.9688
1.2064 -7.4235 -2.5000 0.9688
1.7999 -7.3023 -2.5000 0.9688
2.0924 -7.2239 -2.5000 0.9688
2.3816 -7.1338 -2.5000 0.9688
2.9479 -6.9191 -2.5000 0.9688
3.4951 -6.6594 -2.5000 0.9688
4.0196 -6.3566 -2.5000 0.9688
4.2723 -6.1896 -2.5000 0.9688
4.5181 -6.0125 -2.5000 0.9688
4.7565 -5.8257 -2.5000 0.9688
4.9873 -5.6295 -2.5000 0.9688
5.2099 -5.4241 -2.5000 0.9688
5.4241 -5.2099 -2.5000 0.9688
5.6295 -4.9873 -2.5000 0.9688
5.8257 -4.7565 -2.5000 0.9688
6.0125 -4.5181 -2.5000 0.9688
6.1896 -4.2723 -2.5000 0.9688
6.3566 -4.0197 -2.5000 0.9688
6.6594 -3.4951 -2.5000 0.9688
7.1338 -2.3816 -2.5000 0.9688
7.2239 -2.0924 -2.5000 0.9688
7.3023 -1.7999 -2.5000 0.9688
7.3689 -1.5044 -2.5000 0.9688
7.4235 -1.2064 -2.5000 0.9688
7.4661 -0.9065 -2.5000 0.9688
7.4965 -0.6052 -2.5000 0.9688
7.5209 0.0000 -2.5000 0.9688
7.4965 0.6052 -2.5000 0.9688
7.4660 0.9066 -2.5000 0.9688
7.4235 1.2065 -2.5000 0.9688
7.3023 1.7999 -2.5000 0.9688
7.1338 2.3816 -2.5000 0.9688
7.0321 2.6669 -2.5000 0.9688
6.4973 2.7682 -2.3476 0.9707
6.3805 3.0276 -2.3476 0.9707
6.1162 3.5312 -2.3476 0.9707
5.9691 3.7746 -2.3476 0.9707
5.8122 4.0119 -2.3476 0.9707
4.6832 5.2863 -2.3476 0.9707
4.4666 5.4706 -2.3476 0.9707
3.7746 5.9691 -2.3476 0.9707
3.2821 6.2535 -2.3476 0.9707
3.0276 6.3805 -2.3476 0.9707
2.7682 6.4973 -2.3476 0.9707
2.5044 6.6035 -2.3476 0.9707
1.9649 6.7836 -2.3476 0.9707
1.6901 6.8572 -2.3476 0.9707
1.4127 6.9197 -2.3476 0.9707
1.1327 6.9708 -2.3475 0.9707
0.5671 7.0243 -2.3425 0.9707
0.0000 7.0422 -2.3409 0.9708
-0.8505 7.0040 -2.3453 0.9707
-1.1328 6.9708 -2.3475 0.9707
-1.4111 6.9197 -2.3476 0.9707
-1.6901 6.8572 -2.3476 0.9707
-2.2365 6.6989 -2.3476 0.9707
-3.0276 6.3805 -2.3476 0.9707
-3.2821 6.2535 -2.3476 0.9707
-4.6832 5.2863 -2.3476 0.9707
-5.0934 4.8923 -2.3476 0.9707
-5.2863 4.6832 -2.3476 0.9707
-5.4706 4.4666 -2.3476 0.9707
-5.6460 4.2427 -2.3476 0.9707
-5.8122 4.0119 -2.3476 0.9707
-6.2535 3.2821 -2.3476 0.9707
-6.3805 3.0276 -2.3476 0.9707
-6.4973 2.7682 -2.3476 0.9707
-7.0322 2.6669 -2.5000 0.9688
-7.4660 0.9066 -2.5000 0.9688
-7.4965 0.6052 -2.5000 0.9688
-6.9909 0.0000 -2.5000 0.9707
-6.8496 -1.3983 -2.5000 0.9707
-6.7877 -1.6730 -2.5000 0.9707
-6.5366 -2.4790 -2.5000 0.9707
-6.3159 -2.9969 -2.5000 0.9707
-5.9086 -3.7364 -2.5000 0.9707
-5.7534 -3.9713 -2.5000 0.9707
-4.6358 -5.2327 -2.5000 0.9707
-4.4214 -5.4152 -2.5000 0.9707
-3.9713 -5.7534 -2.5000 0.9707
-3.7364 -5.9086 -2.5000 0.9707
-2.7402 -6.4314 -2.5000 0.9707
-2.2138 -6.6311 -2.5000 0.9707
-1.9450 -6.7148 -2.5000 0.9707
-1.1214 -6.9003 -2.5000 0.9707
-0.5625 -6.9682 -2.5000 0.9707
-0.2815 -6.9852 -2.5000 0.9707
0.5625 -6.9682 -2.5000 0.9707
1.1214 -6.9003 -2.5000 0.9707
1.3983 -6.8496 -2.5000 0.9707
1.9450 -6.7148 -2.5000 0.9707
2.7402 -6.4314 -2.5000 0.9707
3.2488 -6.1901 -2.5000 0.9707
3.4954 -6.0543 -2.5000 0.9707
3.7364 -5.9086 -2.5000 0.9707
3.9713 -5.7533 -2.5000 0.9707
4.4213 -5.4152 -2.5000 0.9707
4.6358 -5.2327 -2.5000 0.9707
5.0418 -4.8427 -2.5000 0.9707
5.2327 -4.6358 -2.5000 0.9707
5.9086 -3.7364 -2.5000 0.9707
6.0543 -3.4954 -2.5000 0.9707
6.1901 -3.2488 -2.5000 0.9707
6.4315 -2.7402 -2.5000 0.9707
6.7148 -1.9450 -2.5000 0.9707
6.9399 -0.8427 -2.5000 0.9707
6.9682 -0.5625 -2.5000 0.9707
6.9852 0.2815 -2.5000 0.9707
6.9682 0.5625 -2.5000 0.9707
6.9399 0.8427 -2.5000 0.9707
6.9003 1.1214 -2.5000 0.9707
6.7148 1.9450 -2.5000 0.9707
6.5366 2.4790 -2.5000 0.9707
6.3479 2.7046 -2.4675 0.9711
5.8128 3.0508 -2.3476 0.9725
5.5484 3.5086 -2.3476 0.9725
5.2481 3.9437 -2.3476 0.9725
5.0850 4.1518 -2.3476 0.9725
4.9137 4.3532 -2.3476 0.9725
4.5475 4.7345 -2.3476 0.9725
4.1518 5.0851 -2.3476 0.9725
2.8142 5.9309 -2.3476 0.9725
2.0788 6.2269 -2.3476 0.9725
1.8264 6.3055 -2.3476 0.9725
1.5710 6.3739 -2.3476 0.9725
0.5282 6.5434 -2.3476 0.9725
0.2643 6.5594 -2.3476 0.9725
-0.0000 6.5647 -2.3476 0.9725
-1.0531 6.4797 -2.3476 0.9725
-2.0788 6.2269 -2.3476 0.9725
-2.5731 6.0394 -2.3476 0.9725
-3.2824 5.6852 -2.3476 0.9725
-3.7292 5.4027 -2.3476 0.9725
-4.1518 5.0851 -2.3476 0.9725
-4.3532 4.9137 -2.3476 0.9725
-4.7345 4.5475 -2.3476 0.9725
-4.9137 4.3532 -2.3476 0.9725
-5.4026 3.7292 -2.3476 0.9725
-5.5484 3.5086 -2.3476 0.9725
-5.8128 3.0508 -2.3476 0.9725
-6.6311 2.2138 -2.5000 0.9707
-6.7148 1.9450 -2.5000 0.9707
-6.7877 1.6730 -2.5000 0.9707
-6.8496 1.3984 -2.5000 0.9707
-6.9399 0.8427 -2.5000 0.9707
-6.9682 0.5625 -2.5000 0.9707
-6.9852 0.2815 -2.5000 0.9707
-3.5687 -0.2881 -1.3720 0.9848
-3.5921 -0.4361 -1.3867 0.9846
-6.3341 -1.5612 -2.5000 0.9724
-6.2661 -1.8150 -2.5000 0.9724
-6.0997 -2.3133 -2.5000 0.9724
-5.8938 -2.7966 -2.5000 0.9724
-5.7764 -3.0317 -2.5000 0.9724
-5.5137 -3.4867 -2.5000 0.9724
-5.3689 -3.7058 -2.5000 0.9724
-4.8830 -4.3260 -2.5000 0.9724
-4.5191 -4.7049 -2.5000 0.9724
-3.7059 -5.3689 -2.5000 0.9724
-3.0317 -5.7764 -2.5000 0.9724
-2.3133 -6.0997 -2.5000 0.9724
-2.0658 -6.1879 -2.5000 0.9724
-1.8150 -6.2661 -2.5000 0.9724
-1.5612 -6.3341 -2.5000 0.9724
-1.3049 -6.3918 -2.5000 0.9724
-1.0465 -6.4392 -2.5000 0.9724
-0.7863 -6.4761 -2.5000 0.9724
-0.5249 -6.5025 -2.5000 0.9724
-0.2627 -6.5184 -2.5000 0.9724
-0.0000 -6.5237 -2.5000 0.9724
0.2627 -6.5184 -2.5000 0.9724
1.0465 -6.4392 -2.5000 0.9724
1.3049 -6.3918 -2.5000 0.9724
1.5612 -6.3341 -2.5000 0.9724
1.8150 -6.2661 -2.5000 0.9724
2.7966 -5.8938 -2.5000 0.9724
3.4867 -5.5137 -2.5000 0.9724
4.1259 -5.0533 -2.5000 0.9724
4.7049 -4.5191 -2.5000 0.9724
5.3689 -3.7059 -2.5000 0.9724
5.6496 -3.2618 -2.5000 0.9724
5.7764 -3.0317 -2.5000 0.9724
5.8938 -2.7966 -2.5000 0.9724
6.0016 -2.5571 -2.5000 0.9724
6.0997 -2.3133 -2.5000 0.9724
6.1879 -2.0658 -2.5000 0.9724
6.2661 -1.8150 -2.5000 0.9724
6.3341 -1.5612 -2.5000 0.9724
6.4392 -1.0465 -2.5000 0.9724
6.4761 -0.7863 -2.5000 0.9724
6.5025 -0.5249 -2.5000 0.9724
6.5184 -0.2627 -2.5000 0.9724
6.5237 0.0000 -2.5000 0.9724
6.5184 0.2627 -2.5000 0.9724
6.4392 1.0465 -2.5000 0.9724
6.3918 1.3049 -2.5000 0.9724
6.3341 1.5612 -2.5000 0.9724
6.2661 1.8150 -2.5000 0.9724
6.1879 2.0658 -2.5000 0.9724
6.0997 2.3133 -2.5000 0.9724
5.4243 2.8469 -2.3476 0.9741
5.3052 3.0630 -2.3476 0.9741
5.1776 3.2741 -2.3476 0.9741
5.0416 3.4800 -2.3476 0.9741
4.5853 4.0623 -2.3476 0.9741
4.4181 4.2436 -2.3476 0.9741
4.2436 4.4181 -2.3476 0.9741
3.6801 4.8974 -2.3476 0.9741
2.8469 5.4243 -2.3476 0.9741
2.6262 5.5345 -2.3476 0.9741
2.1723 5.7279 -2.3476 0.9741
1.9399 5.8107 -2.3476 0.9741
1.7043 5.8841 -2.3476 0.9741
1.4660 5.9480 -2.3476 0.9741
1.2253 6.0022 -2.3476 0.9741
0.7384 6.0813 -2.3476 0.9741
0.2467 6.1210 -2.3476 0.9741
-0.0000 6.1260 -2.3476 0.9741
-0.4929 6.1061 -2.3476 0.9741
-0.7384 6.0813 -2.3476 0.9741
-0.9827 6.0467 -2.3476 0.9741
-2.1723 5.7279 -2.3476 0.9741
-2.4012 5.6358 -2.3476 0.9741
-2.6262 5.5345 -2.3476 0.9741
-3.0630 5.3053 -2.3476 0.9741
-3.2741 5.1776 -2.3476 0.9741
-3.8744 4.7452 -2.3476 0.9741
-4.0623 4.5854 -2.3476 0.9741
-4.4181 4.2436 -2.3476 0.9741
-4.5854 4.0623 -2.3476 0.9741
-4.7452 3.8743 -2.3476 0.9741
-4.8974 3.6801 -2.3476 0.9741
-5.1776 3.2741 -2.3476 0.9741
-5.3053 3.0630 -2.3476 0.9741
-5.4243 2.8469 -2.3476 0.9741
-6.0997 2.3133 -2.5000 0.9724
-6.1879 2.0658 -2.5000 0.9724
-6.2661 1.8150 -2.5000 0.9724
-6.3918 1.3049 -2.5000 0.9724
-3.5921 0.4362 -1.3867 0.9846
-2.8160 0.0000 -1.1525 0.9879
-3.0246 -0.4915 -1.2541 0.9868
-3.0070 -0.6139 -1.2561 0.9868
-5.1627 -3.2647 -2.5000 0.9739
-4.8833 -3.6695 -2.5000 0.9739
-4.5722 -4.0506 -2.5000 0.9739
-4.4054 -4.2314 -2.5000 0.9739
-3.8632 -4.7315 -2.5000 0.9739
-3.6696 -4.8833 -2.5000 0.9739
-3.2647 -5.1627 -2.5000 0.9739
-3.0542 -5.2900 -2.5000 0.9739
-2.6186 -5.5186 -2.5000 0.9739
-2.3943 -5.6195 -2.5000 0.9739
-2.1660 -5.7114 -2.5000 0.9739
-1.9343 -5.7940 -2.5000 0.9739
-0.9799 -6.0292 -2.5000 0.9739
-0.7363 -6.0638 -2.5000 0.9739
-0.4915 -6.0885 -2.5000 0.9739
-0.0000 -6.1083 -2.5000 0.9739
0.2459 -6.1034 -2.5000 0.9739
0.4915 -6.0885 -2.5000 0.9739
0.7363 -6.0638 -2.5000 0.9739
0.9798 -6.0292 -2.5000 0.9739
1.4618 -5.9308 -2.5000 0.9739
1.6994 -5.8672 -2.5000 0.9739
1.9343 -5.7940 -2.5000 0.9739
2.3943 -5.6195 -2.5000 0.9739
2.8387 -5.4087 -2.5000 0.9739
3.6695 -4.8833 -2.5000 0.9739
3.8632 -4.7315 -2.5000 0.9739
4.0506 -4.5721 -2.5000 0.9739
4.2314 -4.4053 -2.5000 0.9739
5.6195 -2.3942 -2.5000 0.9739
5.7114 -2.1660 -2.5000 0.9739
5.7940 -1.9343 -2.5000 0.9739
5.8671 -1.6994 -2.5000 0.9739
5.9308 -1.4618 -2.5000 0.9739
6.0885 -0.4915 -2.5000 0.9739
6.1034 -0.2459 -2.5000 0.9739
6.1083 0.0000 -2.5000 0.9739
5.9849 1.2218 -2.5000 0.9739
5.8672 1.6995 -2.5000 0.9739
5.7940 1.9343 -2.5000 0.9739
5.7114 2.1660 -2.5000 0.9739
5.6195 2.3943 -2.5000 0.9739
5.1783 2.7178 -2.3936 0.9750
4.9675 2.8680 -2.3476 0.9755
4.8480 3.0657 -2.3476 0.9755
4.5856 3.4458 -2.3476 0.9755
4.1368 3.9734 -2.3476 0.9755
3.8036 4.2934 -2.3476 0.9755
3.6277 4.4431 -2.3476 0.9755
3.4458 4.5856 -2.3476 0.9755
3.0657 4.8480 -2.3476 0.9755
2.8680 4.9675 -2.3476 0.9755
2.6656 5.0790 -2.3476 0.9755
2.4590 5.1822 -2.3476 0.9755
2.0340 5.3632 -2.3476 0.9755
1.5958 5.5095 -2.3476 0.9755
1.3727 5.5693 -2.3476 0.9755
-0.0000 5.7360 -2.3476 0.9755
-0.6914 5.6942 -2.3476 0.9755
-0.9201 5.6617 -2.3476 0.9755
-2.2483 5.2770 -2.3476 0.9755
-2.4590 5.1822 -2.3476 0.9755
-2.6656 5.0790 -2.3476 0.9755
-2.8680 4.9675 -2.3476 0.9755
-3.2584 4.7206 -2.3476 0.9755
-3.9734 4.1368 -2.3476 0.9755
-4.2934 3.8037 -2.3476 0.9755
-4.5856 3.4458 -2.3476 0.9755
-4.7206 3.2584 -2.3476 0.9755
-4.8480 3.0657 -2.3476 0.9755
-5.7114 2.1660 -2.5000 0.9739
-5.9308 1.4618 -2.5000 0.9739
-3.0070 0.6139 -1.2561 0.9868
-3.0246 0.4916 -1.2541 0.9868
-2.9322 0.3560 -1.2089 0.9873
-2.3650 0.0000 -1.0307 0.9897
-2.3794 -0.2889 -1.0446 0.9896
-5.5696 -1.3728 -2.5000 0.9753
-5.1825 -2.4591 -2.5000 0.9753
-5.0793 -2.6658 -2.5000 0.9753
-4.9678 -2.8682 -2.5000 0.9753
-4.8483 -3.0659 -2.5000 0.9753
-4.7209 -3.2586 -2.5000 0.9753
-4.2937 -3.8039 -2.5000 0.9753
-3.9737 -4.1371 -2.5000 0.9753
-3.6279 -4.4434 -2.5000 0.9753
-3.0659 -4.8483 -2.5000 0.9753
-2.2484 -5.2773 -2.5000 0.9753
-2.0341 -5.3636 -2.5000 0.9753
-1.8165 -5.4411 -2.5000 0.9753
-1.5959 -5.5098 -2.5000 0.9753
-0.9202 -5.6620 -2.5000 0.9753
-0.2310 -5.7317 -2.5000 0.9753
0.2310 -5.7317 -2.5000 0.9753
0.4616 -5.7177 -2.5000 0.9753
0.6914 -5.6945 -2.5000 0.9753
0.9202 -5.6620 -2.5000 0.9753
2.0341 -5.3635 -2.5000 0.9753
2.4591 -5.1825 -2.5000 0.9753
2.6658 -5.0792 -2.5000 0.9753
2.8682 -4.9678 -2.5000 0.9753
3.0658 -4.8483 -2.5000 0.9753
4.9678 -2.8682 -2.5000 0.9753
5.2773 -2.2484 -2.5000 0.9753
5.3635 -2.0341 -2.5000 0.9753
5.4411 -1.8165 -2.5000 0.9753
5.5098 -1.5959 -2.5000 0.9753
5.5696 -1.3728 -2.5000 0.9753
5.6620 -0.9202 -2.5000 0.9753
5.7177 -0.4616 -2.5000 0.9753
5.6620 0.9202 -2.5000 0.9753
5.6204 1.1474 -2.5000 0.9753
5.5696 1.3728 -2.5000 0.9753
5.5098 1.5960 -2.5000 0.9753
5.4411 1.8165 -2.5000 0.9753
5.1825 2.4591 -2.5000 0.9753
4.4331 3.0600 -2.3476 0.9768
4.1725 3.4067 -2.3476 0.9768
3.8849 3.7315 -2.3476 0.9768
3.7314 3.8849 -2.3476 0.9768
3.2360 4.3063 -2.3476 0.9768
2.8790 4.5527 -2.3476 0.9768
2.6933 4.6650 -2.3476 0.9768
2.5033 4.7696 -2.3476 0.9768
2.3092 4.8666 -2.3476 0.9768
2.1114 4.9556 -2.3476 0.9768
1.9101 5.0366 -2.3476 0.9768
1.2891 5.2301 -2.3476 0.9768
0.8641 5.3169 -2.3476 0.9768
0.6493 5.3474 -2.3476 0.9768
0.4334 5.3692 -2.3476 0.9768
-0.2169 5.3823 -2.3476 0.9768
-0.6493 5.3474 -2.3476 0.9768
-0.8641 5.3169 -2.3476 0.9768
-1.0775 5.2778 -2.3476 0.9768
-1.2891 5.2301 -2.3476 0.9768
-1.9101 5.0366 -2.3476 0.9768
-2.6933 4.6650 -2.3476 0.9768
-2.8790 4.5527 -2.3476 0.9768
-3.0600 4.4331 -2.3476 0.9768
-3.4068 4.1725 -2.3476 0.9768
-3.5720 4.0320 -2.3476 0.9768
-4.4331 3.0600 -2.3476 0.9768
-4.5600 2.8836 -2.3513 0.9767
-4.7083 2.7184 -2.3694 0.9766
-5.4411 1.8165 -2.5000 0.9753
-5.5696 1.3728 -2.5000 0.9753
-2.4207 0.4942 -1.0767 0.9893
-2.4021 0.3904 -1.0606 0.9894
-2.3794 0.2889 -1.0446 0.9896
-2.3649 0.1909 -1.0340 0.9897
-2.3670 0.0954 -1.0324 0.9897
-2.2030 0.0000 -1.0198 0.9903
-2.2008 -0.1777 -1.0220 0.9903
-2.3851 -0.5879 -1.1371 0.9892
-5.1877 -1.5026 -2.5000 0.9765
-4.9687 -2.1170 -2.5000 0.9765
-4.7822 -2.5099 -2.5000 0.9765
-4.5648 -2.8866 -2.5000 0.9765
-4.3177 -3.2445 -2.5000 0.9765
-4.1836 -3.4158 -2.5000 0.9765
-4.0426 -3.5814 -2.5000 0.9765
-3.8951 -3.7413 -2.5000 0.9765
-3.7413 -3.8951 -2.5000 0.9765
-3.5814 -4.0426 -2.5000 0.9765
-3.2446 -4.3177 -2.5000 0.9765
-3.0681 -4.4448 -2.5000 0.9765
-2.7004 -4.6773 -2.5000 0.9765
-2.1170 -4.9687 -2.5000 0.9765
-1.5026 -5.1876 -2.5000 0.9765
-0.4346 -5.3834 -2.5000 0.9765
0.0000 -5.4009 -2.5000 0.9765
0.4346 -5.3833 -2.5000 0.9765
1.0803 -5.2917 -2.5000 0.9765
1.9152 -5.0499 -2.5000 0.9765
2.1170 -4.9687 -2.5000 0.9765
2.3153 -4.8794 -2.5000 0.9765
2.5099 -4.7822 -2.5000 0.9765
2.7004 -4.6773 -2.5000 0.9765
3.5814 -4.0426 -2.5000 0.9765
4.0426 -3.5814 -2.5000 0.9765
4.3177 -3.2445 -2.5000 0.9765
4.4448 -3.0680 -2.5000 0.9765
4.5648 -2.8866 -2.5000 0.9765
4.7822 -2.5099 -2.5000 0.9765
5.0499 -1.9152 -2.5000 0.9765
5.1876 -1.5026 -2.5000 0.9765
5.2917 -1.0803 -2.5000 0.9765
5.3615 -0.6510 -2.5000 0.9765
5.3833 -0.4346 -2.5000 0.9765
5.3965 -0.2175 -2.5000 0.9765
5.3965 0.2175 -2.5000 0.9765
5.3833 0.4346 -2.5000 0.9765
5.2917 1.0803 -2.5000 0.9765
5.2439 1.2925 -2.5000 0.9765
5.1876 1.5026 -2.5000 0.9765
5.0499 1.9152 -2.5000 0.9765
4.7822 2.5099 -2.5000 0.9765
4.1816 2.8864 -2.3520 0.9779
4.0545 3.0467 -2.3476 0.9779
3.3631 3.7962 -2.3476 0.9779
3.2075 3.9285 -2.3476 0.9779
3.0467 4.0545 -2.3476 0.9779
2.8810 4.1739 -2.3476 0.9779
2.5358 4.3922 -2.3476 0.9779
2.1742 4.5820 -2.3476 0.9779
1.4110 4.8714 -2.3476 0.9779
1.2137 4.9243 -2.3476 0.9779
1.0145 4.9692 -2.3476 0.9779
0.4081 5.0552 -2.3476 0.9779
0.2042 5.0675 -2.3476 0.9779
0.0000 5.0716 -2.3476 0.9779
-0.2042 5.0675 -2.3476 0.9779
-0.6113 5.0347 -2.3476 0.9779
-0.8136 5.0060 -2.3476 0.9779
-1.0145 4.9691 -2.3476 0.9779
-1.2137 4.9243 -2.3476 0.9779
-1.4110 4.8714 -2.3476 0.9779
-1.7984 4.7421 -2.3476 0.9779
-1.9879 4.6658 -2.3476 0.9779
-2.1742 4.5820 -2.3476 0.9779
-2.7106 4.2865 -2.3476 0.9779
-2.8810 4.1739 -2.3476 0.9779
-3.0468 4.0545 -2.3476 0.9779
-3.5133 3.6577 -2.3476 0.9779
-3.6577 3.5133 -2.3476 0.9779
-3.9285 3.2075 -2.3476 0.9779
-4.0545 3.0467 -2.3476 0.9779
-4.8794 2.3153 -2.5000 0.9765
-4.9687 2.1170 -2.5000 0.9765
-5.1230 1.7103 -2.5000 0.9765
-5.1876 1.5026 -2.5000 0.9765
-2.3851 0.5879 -1.1371 0.9892
-2.2466 0.4586 -1.0614 0.9899
-2.2080 0.2681 -1.0295 0.9902
-2.2037 0.0888 -1.0209 0.9903
-2.0595 -0.0830 -1.0111 0.9909
-2.0571 -0.1661 -1.0123 0.9908
-4.6887 -1.9977 -2.5000 0.9775
-4.6045 -2.1848 -2.5000 0.9775
-4.5128 -2.3685 -2.5000 0.9775
-4.4137 -2.5483 -2.5000 0.9775
-4.3076 -2.7239 -2.5000 0.9775
-4.0744 -3.0617 -2.5000 0.9775
-3.9478 -3.2233 -2.5000 0.9775
-3.8149 -3.3796 -2.5000 0.9775
-3.3796 -3.8148 -2.5000 0.9775
-3.0617 -4.0744 -2.5000 0.9775
-2.7239 -4.3076 -2.5000 0.9775
-2.5483 -4.4137 -2.5000 0.9775
-2.3685 -4.5128 -2.5000 0.9775
-2.1849 -4.6045 -2.5000 0.9775
-1.4180 -4.8953 -2.5000 0.9775
-1.2197 -4.9485 -2.5000 0.9775
-1.0194 -4.9936 -2.5000 0.9775
-0.4101 -5.0800 -2.5000 0.9775
-0.2052 -5.0924 -2.5000 0.9775
0.4101 -5.0800 -2.5000 0.9775
0.6143 -5.0594 -2.5000 0.9775
0.8175 -5.0306 -2.5000 0.9775
1.9977 -4.6887 -2.5000 0.9775
2.8952 -4.1944 -2.5000 0.9775
3.0617 -4.0744 -2.5000 0.9775
3.3797 -3.8148 -2.5000 0.9775
3.6756 -3.5305 -2.5000 0.9775
3.8148 -3.3796 -2.5000 0.9775
3.9478 -3.2233 -2.5000 0.9775
4.0744 -3.0617 -2.5000 0.9775
4.1944 -2.8952 -2.5000 0.9775
4.3076 -2.7239 -2.5000 0.9775
4.4137 -2.5483 -2.5000 0.9775
4.6045 -2.1848 -2.5000 0.9775
4.6887 -1.9977 -2.5000 0.9775
4.7654 -1.8073 -2.5000 0.9775
4.8953 -1.4179 -2.5000 0.9775
4.9936 -1.0194 -2.5000 0.9775
5.0594 -0.6143 -2.5000 0.9775
5.0800 -0.4101 -2.5000 0.9775
5.0306 0.8175 -2.5000 0.9775
4.8953 1.4180 -2.5000 0.9775
4.7654 1.8073 -2.5000 0.9775
4.6887 1.9977 -2.5000 0.9775
4.6045 2.1849 -2.5000 0.9775
4.5128 2.3685 -2.5000 0.9775
3.7071 3.0268 -2.3476 0.9789
3.5823 3.1736 -2.3476 0.9789
3.4516 3.3153 -2.3476 0.9789
3.3153 3.4516 -2.3476 0.9789
3.1736 3.5823 -2.3476 0.9789
3.0268 3.7072 -2.3476 0.9789
2.7187 3.9387 -2.3476 0.9789
2.5579 4.0450 -2.3476 0.9789
2.2241 4.2377 -2.3476 0.9789
1.6971 4.4749 -2.3476 0.9789
1.5155 4.5396 -2.3476 0.9789
1.1453 4.6468 -2.3476 0.9789
0.7677 4.7239 -2.3476 0.9789
0.3851 4.7704 -2.3476 0.9789
0.1927 4.7820 -2.3476 0.9789
-0.0000 4.7859 -2.3476 0.9789
-0.3851 4.7704 -2.3476 0.9789
-0.7677 4.7239 -2.3476 0.9789
-0.9573 4.6892 -2.3476 0.9789
-1.1453 4.6468 -2.3476 0.9789
-1.3315 4.5969 -2.3476 0.9789
-2.2241 4.2377 -2.3476 0.9789
-2.5579 4.0450 -2.3476 0.9789
-2.7187 3.9387 -2.3476 0.9789
-2.8751 3.8260 -2.3476 0.9789
-3.0268 3.7072 -2.3476 0.9789
-3.3153 3.4516 -2.3476 0.9789
-3.7072 3.0268 -2.3476 0.9789
-3.9515 2.7275 -2.3552 0.9788
-4.2676 2.6987 -2.4768 0.9778
-4.5128 2.3685 -2.5000 0.9775
-4.7654 1.8073 -2.5000 0.9775
-4.8343 1.6139 -2.5000 0.9775
-2.9436 0.8526 -1.5032 0.9864
-2.1007 0.5178 -1.0613 0.9904
-2.0898 0.4266 -1.0462 0.9905
-2.0571 0.1661 -1.0123 0.9908
-2.0595 0.0830 -1.0111 0.9909
-1.9479 0.0000 -1.0105 0.9913
-1.9494 -0.0786 -1.0121 0.9912
-1.9445 -0.2361 -1.0162 0.9912
-1.9520 -0.3172 -1.0259 0.9911
-4.5058 -1.7088 -2.5000 0.9785
-4.4334 -1.8889 -2.5000 0.9785
-4.3537 -2.0658 -2.5000 0.9785
-4.2670 -2.2395 -2.5000 0.9785
-3.9659 -2.7375 -2.5000 0.9785
-3.8525 -2.8950 -2.5000 0.9785
-3.0477 -3.7328 -2.5000 0.9785
-2.7375 -3.9659 -2.5000 0.9785
-2.4095 -4.1733 -2.5000 0.9785
-2.0659 -4.3537 -2.5000 0.9785
-1.5260 -4.5710 -2.5000 0.9785
-1.1532 -4.6789 -2.5000 0.9785
-0.9639 -4.7216 -2.5000 0.9785
-0.7730 -4.7566 -2.5000 0.9785
-0.5809 -4.7838 -2.5000 0.9785
-0.3878 -4.8033 -2.5000 0.9785
