ply
format ascii 1.0
element vertex 1571
property float32 x
property float32 y
property float32 z
property float32 I
end_header
-39.1945 18.5980 2.6902 0.8404
-46.5020 17.6359 3.0840 0.8193
-48.1451 11.8668 3.0748 0.8198
-39.9519 8.1562 2.5285 0.8492
-41.0140 6.6654 2.5767 0.8466
-37.3131 4.5306 2.3308 0.8602
-37.4700 1.5100 2.3254 0.8605
-38.2576 0.0000 1.5085 0.8580
-47.2438 -5.7365 1.8766 0.8265
-36.9356 -19.3853 1.6448 0.8462
-32.0480 -22.1212 1.5355 0.8557
-30.5699 -22.9719 1.5078 0.8581
-30.1697 -24.6327 1.5358 0.8556
-4.2755 -14.7606 0.6059 0.9403
-3.6397 -14.7667 0.5997 0.9409
-3.0074 -14.7313 0.5928 0.9416
-1.8289 -11.2539 0.4496 0.9554
-1.1810 -14.6289 0.5787 0.9429
1.1656 -14.4382 0.5712 0.9437
1.7563 -14.4643 0.5745 0.9433
2.3453 -14.4313 0.5765 0.9432
2.9394 -14.3981 0.5794 0.9429
3.5405 -14.3644 0.5834 0.9425
14.4005 -19.1635 0.9452 0.9085
14.8628 -18.2036 0.9267 0.9102
14.7775 -16.6803 0.8787 0.9147
13.3610 -13.9103 0.7605 0.9257
25.6951 -17.7360 1.2311 0.8825
25.4591 -16.0993 1.1878 0.8864
26.5177 -13.9176 1.1809 0.8870
31.0291 -14.7235 1.3543 0.8715
33.0751 -14.0920 1.4176 0.8660
33.9008 -12.8569 1.4296 0.8649
44.8484 -11.0542 1.8213 0.8312
26.9983 2.1795 1.0680 0.8972
21.9296 2.6628 0.8711 0.9154
21.8606 3.5527 0.8733 0.9152
21.4195 4.3728 0.8620 0.9162
20.4892 5.0501 0.8321 0.9190
21.6601 6.2739 0.8892 0.9137
44.6631 19.0292 1.9143 0.8234
42.8065 20.3119 1.8683 0.8272
35.1079 18.4260 1.5634 0.8532
34.6978 20.0327 1.5798 0.8518
33.6688 23.2399 1.6131 0.8489
16.9372 17.6335 0.9641 0.9068
2.4837 3.0420 0.1549 0.9844
13.7542 19.9265 0.9547 0.9076
6.8949 10.9034 0.5087 0.9497
5.1280 9.7705 0.4351 0.9568
4.8702 10.2636 0.4480 0.9555
4.4480 10.4397 0.4475 0.9556
4.0732 10.7399 0.4529 0.9551
3.5495 10.6318 0.4420 0.9561
2.3942 9.7133 0.3945 0.9607
3.3423 16.3716 0.6589 0.9353
2.6544 16.3331 0.6525 0.9359
1.4344 17.7681 0.7029 0.9311
0.7144 17.7282 0.6996 0.9314
-0.3259 8.0894 0.3192 0.9681
-0.9942 8.1888 0.3253 0.9675
-1.7145 8.3985 0.3380 0.9663
-5.0814 20.6162 0.8372 0.9185
-12.1862 32.1325 1.3551 0.8715
-34.4191 28.1024 1.7521 0.8370
-36.4060 27.3573 1.7957 0.8334
-37.0821 19.4622 1.6513 0.8457
-38.1482 18.1016 1.6650 0.8445
-45.2964 17.1787 1.9102 0.8237
-38.7235 4.7019 1.5381 0.8554
-38.3239 3.0938 1.5161 0.8573
-38.1681 1.5382 1.5062 0.8582
-41.0163 -6.6658 0.7019 0.8468
-32.6355 -8.0440 0.5678 0.8742
-33.0884 -9.5842 0.5819 0.8713
-31.5034 -23.6732 0.6656 0.8541
-3.0074 -14.7313 0.2540 0.9416
-1.7804 -14.6625 0.2495 0.9426
-1.1810 -14.6289 0.2479 0.9430
-0.5882 -14.5957 0.2467 0.9432
-0.0000 -14.5628 0.2460 0.9434
1.7563 -14.4643 0.2461 0.9434
2.9394 -14.3981 0.2482 0.9429
3.5405 -14.3644 0.2499 0.9425
4.1508 -14.3302 0.2520 0.9421
15.1560 -31.9405 0.5972 0.8681
15.6161 -29.7541 0.5676 0.8742
15.3051 -24.2031 0.4837 0.8918
14.8907 -16.8082 0.3793 0.9141
14.3257 -13.7600 0.3355 0.9236
19.5137 -13.4693 0.4005 0.9095
21.1547 -13.3774 0.4228 0.9047
25.6168 -14.7899 0.4997 0.8884
26.6408 -13.9822 0.5082 0.8866
30.9936 -14.7066 0.5795 0.8718
33.1378 -14.1187 0.6085 0.8658
33.9445 -12.8734 0.6132 0.8648
37.4840 -12.5140 0.6675 0.8538
23.7256 1.9153 0.4021 0.9092
21.7110 8.2339 0.3922 0.9113
44.1064 23.1488 0.8414 0.8193
23.1773 17.4167 0.4898 0.8905
21.2827 17.3768 0.4641 0.8959
17.8935 17.1869 0.4191 0.9055
16.9357 17.6319 0.4130 0.9068
2.4831 3.0413 0.0663 0.9844
2.3910 3.1819 0.0672 0.9842
6.0854 10.5401 0.2056 0.9525
4.2937 9.0486 0.1692 0.9607
3.3538 10.0458 0.1789 0.9585
2.7291 11.0722 0.1926 0.9554
2.2300 13.7213 0.2348 0.9459
1.9786 16.2952 0.2773 0.9364
1.4340 17.7631 0.3010 0.9312
0.7144 17.7279 0.2997 0.9315
0.0001 8.0402 0.1358 0.9683
-0.3199 7.9392 0.1342 0.9687
-0.9717 8.0030 0.1362 0.9683
-1.6966 8.3107 0.1433 0.9666
-2.0802 8.4398 0.1468 0.9658
-33.4978 29.6764 0.7560 0.8361
-40.2859 23.2590 0.7858 0.8302
-40.1140 17.0910 0.7365 0.8399
-41.2185 6.6987 0.7054 0.8461
-37.7877 3.0505 0.6404 0.8593
-33.5480 -5.4521 -0.1914 0.8729
-31.5149 -21.7532 -0.2156 0.8580
-31.5306 -23.6937 -0.2221 0.8541
-29.7423 -24.2838 -0.2162 0.8576
-4.2755 -14.7606 -0.0866 0.9404
-3.6397 -14.7667 -0.0856 0.9410
-1.7804 -14.6625 -0.0832 0.9426
-1.1810 -14.6289 -0.0826 0.9430
-0.5882 -14.5957 -0.0822 0.9432
-0.0000 -14.5628 -0.0820 0.9434
1.1656 -14.4382 -0.0816 0.9437
1.7563 -14.4643 -0.0820 0.9434
2.3453 -14.4313 -0.0823 0.9432
2.9394 -14.3981 -0.0827 0.9429
3.5405 -14.3644 -0.0833 0.9425
4.1508 -14.3302 -0.0840 0.9421
14.4806 -33.9874 -0.2080 0.8626
16.1260 -33.9849 -0.2118 0.8603
15.6161 -29.7541 -0.1892 0.8742
15.3795 -26.6382 -0.1732 0.8842
18.0347 -13.5522 -0.1270 0.9137
21.1547 -13.3774 -0.1409 0.9047
25.6168 -14.7899 -0.1665 0.8884
30.7971 -14.6134 -0.1919 0.8725
32.1981 -13.7183 -0.1970 0.8694
37.4839 -12.5140 -0.2225 0.8538
43.3426 18.4666 -0.2653 0.8282
42.2670 20.0559 -0.2634 0.8293
43.3874 22.7715 -0.2759 0.8220
34.5787 21.8662 -0.2303 0.8490
34.1441 23.5680 -0.2336 0.8471
23.3007 17.5094 -0.1641 0.8900
21.2969 17.3883 -0.1548 0.8959
20.4551 18.1216 -0.1539 0.8965
2.4825 3.0405 -0.0221 0.9844
2.3905 3.1811 -0.0224 0.9842
6.5152 9.4387 -0.0646 0.9552
6.1764 9.7671 -0.0651 0.9548
5.7911 10.0304 -0.0652 0.9547
4.7396 9.9885 -0.0622 0.9567
4.2800 10.0454 -0.0615 0.9573
2.0032 12.3263 -0.0703 0.9513
1.4339 17.7616 -0.1003 0.9312
0.3316 8.2267 -0.0464 0.9676
0.0001 7.9281 -0.0446 0.9688
-1.3105 8.0641 -0.0460 0.9678
-37.8815 21.8709 -0.2463 0.8395
-39.8270 8.1307 -0.2289 0.8499
-38.3794 1.5467 -0.2163 0.8576
-33.2659 -6.7913 -0.9560 0.8730
-33.2308 -9.6255 -0.9742 0.8707
-25.0998 -24.1087 -0.9800 0.8700
-31.5702 -35.6354 -1.3406 0.8265
-31.5562 -38.6493 -1.4049 0.8190
-4.2755 -14.7606 -0.4327 0.9404
-3.0074 -14.7313 -0.4234 0.9416
-1.8277 -11.2461 -0.3208 0.9554
-1.7804 -14.6625 -0.4159 0.9426
-1.1810 -14.6289 -0.4133 0.9430
-0.5882 -14.5957 -0.4113 0.9432
2.9394 -14.3981 -0.4138 0.9429
3.5405 -14.3644 -0.4166 0.9425
4.1508 -14.3302 -0.4201 0.9420
11.4321 -34.2433 -1.0165 0.8655
12.9544 -34.1580 -1.0287 0.8640
14.4806 -33.9874 -1.0402 0.8626
16.1260 -33.9850 -1.0592 0.8603
15.6161 -29.7541 -0.9462 0.8742
15.3795 -26.6382 -0.8661 0.8842
15.1813 -21.9939 -0.7525 0.8986
14.8934 -19.8195 -0.6981 0.9056
14.9767 -18.3432 -0.6668 0.9096
13.2733 -13.8190 -0.5395 0.9262
18.0347 -13.5522 -0.6352 0.9137
25.6168 -14.7899 -0.8329 0.8884
28.7830 -13.6577 -0.8971 0.8803
32.1015 -13.6772 -0.9825 0.8697
40.5457 -11.7442 -1.1886 0.8446
29.6901 8.5998 -0.8704 0.8837
19.3180 7.3264 -0.5818 0.9207
14.0809 6.6815 -0.4389 0.9395
34.5704 21.8609 -1.1517 0.8490
20.4551 18.1216 -0.7695 0.8964
18.7682 18.0271 -0.7328 0.9011
16.9359 17.6322 -0.6884 0.9068
2.6600 3.0026 -0.1130 0.9841
2.3899 3.1804 -0.1120 0.9842
5.9595 8.6338 -0.2954 0.9589
5.3405 9.2500 -0.3008 0.9582
5.3727 10.2368 -0.3255 0.9548
3.7508 11.2348 -0.3335 0.9537
2.7590 9.5251 -0.2792 0.9611
2.4253 9.8398 -0.2854 0.9603
2.2928 11.2306 -0.3228 0.9552
1.8553 11.4162 -0.3257 0.9548
1.4900 18.4574 -0.5214 0.9286
0.3304 8.1960 -0.2310 0.9677
0.0001 7.9109 -0.2228 0.9688
-0.3147 7.8102 -0.2201 0.9692
-0.6235 7.7237 -0.2182 0.9695
-0.9494 7.8194 -0.2218 0.9690
-1.2946 7.9663 -0.2273 0.9682
-7.1058 14.9752 -0.4667 0.9358
-39.3346 3.1754 -1.1112 0.8539
-48.4689 -1.9532 -2.4601 0.8234
-28.3287 -4.6039 -1.4555 0.8914
-28.2480 -5.7669 -1.4622 0.8909
-28.0839 -8.1346 -1.4828 0.8895
-45.2193 -17.1494 -2.4526 0.8239
-43.6004 -20.6886 -2.4475 0.8242
-41.6866 -24.0678 -2.4412 0.8247
-27.7254 -20.8343 -1.7588 0.8703
-27.6888 -28.8271 -2.0271 0.8521
-31.2194 -35.2395 -2.3876 0.8282
-27.6583 -33.8753 -2.2179 0.8393
-28.2826 -37.6373 -2.3876 0.8282
-3.6397 -14.7667 -0.7713 0.9409
-1.8273 -11.2435 -0.5777 0.9554
-1.1810 -14.6289 -0.7443 0.9429
0.5855 -14.5300 -0.7375 0.9434
2.3453 -14.4313 -0.7415 0.9431
2.9394 -14.3981 -0.7452 0.9428
3.5405 -14.3644 -0.7503 0.9425
4.1508 -14.3302 -0.7566 0.9420
11.4321 -34.2433 -1.8308 0.8654
12.9544 -34.1580 -1.8527 0.8639
15.6161 -29.7541 -1.7042 0.8741
15.3795 -26.6381 -1.5599 0.8841
15.1813 -21.9939 -1.3553 0.8985
14.8934 -19.8195 -1.2573 0.9055
14.9767 -18.3432 -1.2010 0.9095
14.8907 -16.8082 -1.1388 0.9140
13.2733 -13.8190 -0.9717 0.9261
14.3257 -13.7600 -1.0074 0.9235
15.4601 -13.6965 -1.0475 0.9206
16.6907 -13.6275 -1.0928 0.9173
18.0347 -13.5522 -1.1441 0.9136
19.5137 -13.4693 -1.2025 0.9094
26.6408 -13.9822 -1.5258 0.8865
28.8248 -13.6775 -1.6181 0.8800
31.8696 -12.0865 -1.7286 0.8724
40.5456 -11.7442 -2.1408 0.8445
45.8548 -7.4521 -2.3560 0.8302
49.2833 -1.9860 -2.5014 0.8207
49.3233 0.0000 -2.5014 0.8207
49.2833 1.9860 -2.5014 0.8207
49.1634 3.9689 -2.5014 0.8207
45.4301 9.2746 -2.3515 0.8305
45.0744 11.1099 -2.3543 0.8303
29.6137 8.5777 -1.5636 0.8838
15.6624 6.6731 -0.8634 0.9341
13.5779 6.4428 -0.7622 0.9416
10.6475 6.1473 -0.6235 0.9520
9.6376 6.0945 -0.5783 0.9554
8.7661 6.0508 -0.5402 0.9582
8.2469 6.1971 -0.5232 0.9595
7.0695 6.2630 -0.4790 0.9629
5.9668 6.2121 -0.4368 0.9661
2.6592 3.0016 -0.2034 0.9841
5.1819 8.1945 -0.4917 0.9619
5.0038 9.5339 -0.5461 0.9578
4.4083 10.3467 -0.5704 0.9560
3.4899 10.4535 -0.5589 0.9568
2.9729 10.2634 -0.5419 0.9581
2.4155 9.7998 -0.5119 0.9604
1.9786 16.2952 -0.8325 0.9364
0.0001 7.9153 -0.4014 0.9688
-0.3143 7.8004 -0.3959 0.9692
-0.6255 7.7487 -0.3942 0.9693
-0.9504 7.8282 -0.3999 0.9689
-1.2981 7.9882 -0.4104 0.9681
-1.6706 8.1835 -0.4236 0.9671
-2.0552 8.3387 -0.4355 0.9662
-2.4757 8.5475 -0.4513 0.9650
-2.9460 8.8246 -0.4718 0.9634
-6.5053 17.1531 -0.9304 0.9292
-6.3802 10.0896 -0.6054 0.9533
-6.5757 7.4223 -0.5029 0.9611
-6.3078 6.5671 -0.4618 0.9642
-6.3658 6.1144 -0.4476 0.9653
-30.9441 27.4141 -2.0965 0.8474
-4.6419 3.4881 -0.2945 0.9770
-4.6253 3.1926 -0.2850 0.9777
-40.2411 25.4470 -2.4146 0.8264
-30.0856 17.3699 -1.7618 0.8701
-23.9975 11.3869 -1.3471 0.8991
-29.5591 11.2102 -1.6033 0.8811
-45.5356 15.2020 -2.4346 0.8251
-29.2165 7.2012 -1.5260 0.8865
-29.1089 5.9426 -1.5067 0.8878
-28.6479 -0.0000 -2.1005 0.8915
-28.3287 -4.6039 -2.1044 0.8913
-28.1665 -6.9425 -2.1270 0.8902
-27.9998 -9.3477 -2.1644 0.8883
-30.5707 -11.5939 -2.3973 0.8771
-26.0389 -19.5669 -2.3882 0.8775
-25.2257 -20.5961 -2.3878 0.8776
-24.5798 -21.7758 -2.4078 0.8766
-23.9970 -24.9835 -2.5400 0.8703
-22.9715 -25.9295 -2.5400 0.8703
-21.9088 -26.8334 -2.5400 0.8703
-20.8106 -27.6938 -2.5400 0.8703
-19.6786 -28.5094 -2.5400 0.8703
-18.5147 -29.2786 -2.5400 0.8703
-17.3207 -30.0004 -2.5400 0.8703
-12.2840 -32.3903 -2.5400 0.8703
-10.9698 -32.8587 -2.5400 0.8703
-3.6397 -14.7667 -1.1151 0.9408
-3.0074 -14.7313 -1.1024 0.9415
-0.0000 -14.5628 -1.0678 0.9433
1.1656 -14.4382 -1.0621 0.9436
2.9394 -14.3981 -1.0775 0.9428
3.5405 -14.3644 -1.0847 0.9424
4.1508 -14.3302 -1.0939 0.9419
10.2802 -30.7928 -2.3803 0.8779
12.7193 -29.8533 -2.3793 0.8780
15.0725 -28.7182 -2.3781 0.8780
15.3795 -26.6381 -2.2553 0.8839
15.3051 -24.2031 -2.0997 0.8915
15.1813 -21.9939 -1.9595 0.8984
14.8907 -16.8082 -1.6465 0.9139
13.2733 -13.8190 -1.4049 0.9260
14.3257 -13.7600 -1.4564 0.9234
15.4601 -13.6965 -1.5144 0.9205
16.6907 -13.6275 -1.5799 0.9172
21.1547 -13.3774 -1.8352 0.9045
26.4888 -13.9024 -2.1935 0.8869
28.8245 -13.6774 -2.3393 0.8799
30.0781 -11.4071 -2.3587 0.8790
30.4805 -10.1759 -2.3562 0.8791
30.8290 -8.9297 -2.3534 0.8792
31.1264 -7.6720 -2.3506 0.8793
34.0045 -2.7451 -2.5014 0.8721
34.0875 -1.3737 -2.5014 0.8721
34.0875 1.3737 -2.5014 0.8721
34.0045 2.7451 -2.5014 0.8721
31.4212 6.4147 -2.3514 0.8793
29.8172 8.6366 -2.2761 0.8829
23.4200 7.8187 -1.8104 0.9057
10.7851 6.2268 -0.9131 0.9513
9.4266 5.9610 -0.8178 0.9563
8.0072 6.0170 -0.7344 0.9606
7.1631 5.8485 -0.6780 0.9636
5.5255 5.7526 -0.5848 0.9685
2.6584 3.0007 -0.2939 0.9841
2.4808 3.0384 -0.2876 0.9844
2.3888 3.1789 -0.2916 0.9842
3.7617 5.9486 -0.5161 0.9722
3.5968 6.2299 -0.5275 0.9716
2.8798 6.0690 -0.4926 0.9734
2.5833 6.0632 -0.4832 0.9739
3.8655 10.1923 -0.7993 0.9572
3.3279 9.9681 -0.7705 0.9587
1.7961 6.2007 -0.4733 0.9744
1.4693 5.9612 -0.4502 0.9757
0.2453 6.0856 -0.4466 0.9759
0.0000 5.9742 -0.4380 0.9763
-0.3139 7.7907 -0.5717 0.9692
-0.5010 6.2060 -0.4565 0.9753
-1.2221 5.9861 -0.4480 0.9758
-2.0769 8.4265 -0.6363 0.9658
-1.8692 5.5988 -0.4328 0.9766
-6.3959 15.0118 -1.1964 0.9367
-6.5611 13.8273 -1.1222 0.9405
-3.7249 5.8905 -0.5110 0.9724
-4.0715 5.4182 -0.4969 0.9732
-4.9641 5.6033 -0.5489 0.9704
-5.6226 5.4005 -0.5716 0.9692
-6.3112 5.1529 -0.5974 0.9679
-27.8433 17.6071 -2.4155 0.8762
-23.9858 13.8482 -2.0308 0.8949
-29.5591 11.2102 -2.3180 0.8809
-29.0038 4.7136 -2.1545 0.8888
-28.7281 1.1577 -2.1081 0.8911
-26.2756 -1.0589 -2.5246 0.8997
-26.1885 -2.1142 -2.5224 0.8998
-25.9218 -5.2920 -2.5400 0.8991
-24.7375 -9.3817 -2.5400 0.8991
-23.9024 -11.3418 -2.5400 0.8991
-23.4264 -12.2951 -2.5400 0.8991
-22.9123 -13.2284 -2.5400 0.8991
-22.3610 -14.1402 -2.5400 0.8991
-21.7735 -15.0292 -2.5400 0.8991
-19.0807 -18.3273 -2.5400 0.8991
-16.7325 -20.4935 -2.5400 0.8991
-15.8937 -21.1507 -2.5400 0.8991
-15.0292 -21.7735 -2.5400 0.8991
-13.2284 -22.9123 -2.5400 0.8991
-12.2951 -23.4263 -2.5400 0.8991
-11.3418 -23.9024 -2.5400 0.8991
-10.3702 -24.3397 -2.5400 0.8991
-7.8756 -23.5904 -2.3877 0.9049
-4.2755 -14.7607 -1.4753 0.9401
-1.8264 -11.2383 -1.0931 0.9553
-0.5882 -14.5957 -1.4024 0.9430
-0.0000 -14.5628 -1.3981 0.9432
0.5855 -14.5300 -1.3961 0.9432
7.8248 -23.4380 -2.3723 0.9055
9.6778 -22.7142 -2.3704 0.9055
11.4698 -21.8539 -2.3695 0.9056
13.1850 -20.8504 -2.3684 0.9056
14.0102 -20.2972 -2.3678 0.9056
14.8907 -16.8082 -2.1558 0.9137
15.4601 -13.6965 -1.9829 0.9204
16.6907 -13.6275 -2.0687 0.9171
20.2346 -13.9669 -2.3605 0.9059
20.7720 -13.1354 -2.3595 0.9060
21.2733 -12.2822 -2.3583 0.9060
22.1546 -10.5125 -2.3543 0.9062
22.8877 -8.6802 -2.3501 0.9063
25.0261 -7.2489 -2.5014 0.9006
25.2977 -6.2353 -2.5014 0.9006
10.4378 -1.6963 -1.0152 0.9584
26.0337 -1.0491 -2.5014 0.9006
26.0548 0.0000 -2.5014 0.9006
26.0337 1.0491 -2.5014 0.9006
25.9703 2.0966 -2.5014 0.9006
25.8649 3.1406 -2.5014 0.9006
23.7988 5.8659 -2.3532 0.9062
23.5548 6.8227 -2.3543 0.9062
18.7410 7.1075 -1.9243 0.9226
15.5079 6.6072 -1.6183 0.9345
13.5849 6.4461 -1.4436 0.9414
11.6095 6.0931 -1.2588 0.9487
9.5213 6.0209 -1.0815 0.9557
8.0512 6.0501 -0.9669 0.9603
6.7202 5.9536 -0.8619 0.9646
2.6575 2.9997 -0.3847 0.9840
2.4802 3.0377 -0.3765 0.9844
2.3882 3.1781 -0.3817 0.9842
3.7286 5.8963 -0.6698 0.9724
3.4177 5.9196 -0.6562 0.9729
3.1902 6.0784 -0.6590 0.9728
2.7143 5.7203 -0.6079 0.9749
2.3750 5.5742 -0.5817 0.9759
1.6525 5.7052 -0.5702 0.9764
1.4009 5.6837 -0.5620 0.9768
0.9507 5.8500 -0.5690 0.9765
-0.2404 5.9673 -0.5734 0.9763
-0.4830 5.9837 -0.5763 0.9762
-0.6848 5.6400 -0.5454 0.9774
-1.3781 5.5914 -0.5529 0.9771
-1.8427 5.5196 -0.5587 0.9769
-2.0871 5.5031 -0.5650 0.9766
-2.4986 5.8645 -0.6120 0.9747
-3.0565 5.2940 -0.5869 0.9757
-3.5368 5.5930 -0.6353 0.9738
-3.9329 5.2337 -0.6285 0.9740
-4.3589 5.3387 -0.6617 0.9727
-4.9127 5.5452 -0.7112 0.9707
-5.0341 5.2410 -0.6977 0.9712
-6.1571 5.4546 -0.7897 0.9675
-22.3610 14.1403 -2.5400 0.8991
-22.9123 13.2284 -2.5400 0.8991
-23.4263 12.2951 -2.5400 0.8991
-24.3397 10.3703 -2.5400 0.8991
-24.7375 9.3818 -2.5400 0.8991
-25.0953 8.3779 -2.5400 0.8991
-25.4122 7.3607 -2.5400 0.8991
-25.9221 5.2921 -2.5400 0.8991
-26.1142 4.2440 -2.5400 0.8991
-26.2639 3.1890 -2.5400 0.8991
-26.4353 1.0653 -2.5400 0.8991
-21.3829 0.0000 -2.5400 0.9175
-21.3135 -1.7206 -2.5400 0.9175
-21.2270 -2.5774 -2.5400 0.9175
-21.1060 -3.4300 -2.5400 0.9175
-20.9507 -4.2771 -2.5400 0.9175
-20.5386 -5.9491 -2.5400 0.9175
-19.9933 -7.5825 -2.5400 0.9175
-19.3184 -9.1667 -2.5400 0.9175
-18.0726 -11.4284 -2.5400 0.9175
-17.0944 -12.8456 -2.5400 0.9175
-16.5633 -13.5235 -2.5400 0.9175
-16.0053 -14.1795 -2.5400 0.9175
-14.8124 -15.4214 -2.5400 0.9175
-14.1795 -16.0053 -2.5400 0.9175
-12.8456 -17.0944 -2.5400 0.9175
-11.4284 -18.0726 -2.5400 0.9175
-10.6914 -18.5181 -2.5400 0.9175
-9.9371 -18.9336 -2.5400 0.9175
-8.6168 -18.1594 -2.3876 0.9222
-6.4039 -15.0304 -1.9407 0.9363
-7.1285 -18.7965 -2.3879 0.9222
-4.2755 -14.7607 -1.8254 0.9400
-1.7804 -14.6625 -1.7545 0.9422
-1.1810 -14.6289 -1.7434 0.9426
-0.5882 -14.5957 -1.7352 0.9429
-0.0000 -14.5628 -1.7299 0.9430
0.5855 -14.5300 -1.7274 0.9431
1.1656 -14.4382 -1.7206 0.9433
2.9394 -14.3981 -1.7456 0.9425
3.5405 -14.3644 -1.7574 0.9421
8.5346 -17.9863 -2.3648 0.9229
9.2503 -17.6249 -2.3644 0.9230
9.9505 -17.2348 -2.3640 0.9230
10.6342 -16.8166 -2.3635 0.9230
11.3001 -16.3710 -2.3629 0.9230
11.9472 -15.8988 -2.3623 0.9230
13.7651 -14.3310 -2.3604 0.9231
14.8638 -13.1682 -2.3588 0.9231
16.3123 -11.2596 -2.3544 0.9233
17.1424 -9.8972 -2.3513 0.9234
18.2444 -8.6571 -2.3988 0.9219
19.6896 -7.4673 -2.5014 0.9187
19.9743 -6.6684 -2.5014 0.9187
9.6111 -1.9621 -1.1652 0.9613
9.5482 -1.5517 -1.1491 0.9618
9.5855 -1.1639 -1.1470 0.9619
10.2196 -0.8250 -1.2179 0.9595
21.0580 0.0000 -2.5014 0.9187
21.0409 0.8479 -2.5014 0.9187
20.9897 1.6945 -2.5014 0.9187
20.9045 2.5383 -2.5014 0.9187
19.2239 4.7383 -2.3519 0.9233
19.0346 5.5134 -2.3540 0.9233
15.4766 6.5939 -1.9983 0.9345
13.1991 6.2631 -1.7354 0.9428
9.5425 6.0344 -1.3411 0.9555
8.5291 5.8872 -1.2311 0.9591
7.2605 5.9280 -1.1134 0.9629
5.5448 5.7727 -0.9508 0.9683
2.3876 3.1773 -0.4721 0.9841
4.0104 5.8100 -0.8386 0.9720
3.4455 5.9678 -0.8186 0.9726
3.0976 5.9019 -0.7918 0.9735
2.7152 5.7220 -0.7523 0.9748
2.3725 5.5683 -0.7190 0.9759
0.9535 5.8670 -0.7061 0.9763
0.6963 5.7343 -0.6862 0.9770
0.4474 5.5421 -0.6605 0.9779
-0.6743 5.5539 -0.6646 0.9777
-0.8916 5.4862 -0.6602 0.9779
-1.1288 5.5295 -0.6704 0.9775
-1.3345 5.4145 -0.6624 0.9778
-1.6254 5.6116 -0.6940 0.9767
-1.7982 5.3863 -0.6745 0.9774
-2.0490 5.4029 -0.6864 0.9770
-2.4613 5.7769 -0.7459 0.9750
-2.6048 5.4895 -0.7218 0.9758
-2.7664 5.2708 -0.7071 0.9763
-3.0175 5.2264 -0.7169 0.9760
-3.8979 5.1871 -0.7707 0.9742
-4.3191 5.2899 -0.8112 0.9729
-18.0726 11.4284 -2.5400 0.9175
-18.5181 10.6915 -2.5400 0.9175
-18.9336 9.9371 -2.5400 0.9175
-19.9933 7.5825 -2.5400 0.9175
-20.2825 6.7713 -2.5400 0.9175
-20.5387 5.9491 -2.5400 0.9175
-20.9507 4.2771 -2.5400 0.9175
-21.2270 2.5774 -2.5400 0.9175
-21.3135 1.7206 -2.5400 0.9175
-17.9264 0.0000 -2.5400 0.9301
-17.9119 -0.7218 -2.5400 0.9301
-17.8683 -1.4425 -2.5400 0.9301
-17.5642 -3.5858 -2.5400 0.9301
-17.2187 -4.9875 -2.5400 0.9301
-17.0039 -5.6767 -2.5400 0.9301
-16.1956 -7.6849 -2.5400 0.9301
-15.5248 -8.9632 -2.5400 0.9301
-15.1512 -9.5811 -2.5400 0.9301
-14.7532 -10.1834 -2.5400 0.9301
-14.3312 -10.7692 -2.5400 0.9301
-13.4181 -11.8874 -2.5400 0.9301
-12.9286 -12.4181 -2.5400 0.9301
-11.3375 -13.8859 -2.5400 0.9301
-10.7692 -14.3312 -2.5400 0.9301
-10.1834 -14.7532 -2.5400 0.9301
-9.0062 -14.2422 -2.3876 0.9342
-7.2238 -15.2239 -2.3876 0.9342
-6.3682 -14.9467 -2.3020 0.9365
-5.3366 -15.9850 -2.3878 0.9342
-4.2136 -14.5469 -2.1459 0.9406
-2.9975 -14.6825 -2.1233 0.9413
-1.8256 -11.2331 -1.6125 0.9551
-1.1810 -14.6289 -2.0795 0.9424
-0.0000 -14.5628 -2.0634 0.9429
0.5855 -14.5300 -2.0604 0.9429
1.1656 -14.4382 -2.0524 0.9432
2.3453 -14.4313 -2.0716 0.9426
2.9394 -14.3981 -2.0821 0.9424
3.5405 -14.3644 -2.0962 0.9420
7.1426 -15.0526 -2.3607 0.9349
9.4578 -13.7020 -2.3590 0.9350
9.9981 -13.3050 -2.3581 0.9350
10.5214 -12.8864 -2.3572 0.9350
11.9820 -11.5088 -2.3540 0.9351
12.8564 -10.4969 -2.3517 0.9351
13.6448 -9.4183 -2.3492 0.9352
14.3791 -9.0928 -2.4105 0.9336
15.2889 -8.8270 -2.5014 0.9312
15.6319 -8.2043 -2.5014 0.9312
15.9496 -7.5682 -2.5014 0.9312
16.2414 -6.9198 -2.5014 0.9312
16.5069 -6.2602 -2.5014 0.9312
16.7455 -5.5905 -2.5014 0.9312
16.9571 -4.9117 -2.5014 0.9312
17.1411 -4.2249 -2.5014 0.9312
9.0783 -1.8534 -1.3128 0.9633
9.0733 -1.4746 -1.3025 0.9635
9.1155 -1.1068 -1.3011 0.9636
11.9074 -0.4799 -1.6885 0.9530
17.6541 0.0000 -2.5014 0.9312
17.5968 1.4206 -2.5014 0.9312
16.2440 3.3163 -2.3491 0.9352
16.1095 3.9707 -2.3509 0.9352
15.9486 4.6196 -2.3526 0.9351
15.7610 5.2618 -2.3543 0.9351
15.5364 5.8922 -2.3543 0.9351
15.2865 6.5130 -2.3543 0.9351
13.5067 6.4090 -2.1183 0.9414
12.0731 6.3364 -1.9319 0.9464
10.6326 6.1387 -1.7396 0.9516
9.4907 6.0016 -1.5910 0.9556
7.0716 5.7738 -1.2935 0.9638
6.7341 5.9659 -1.2747 0.9643
3.9430 5.7124 -0.9835 0.9723
3.6988 5.8492 -0.9806 0.9724
3.4310 5.9426 -0.9723 0.9727
3.1618 6.0241 -0.9640 0.9729
1.9246 5.7648 -0.8611 0.9757
1.3821 5.6074 -0.8183 0.9769
1.1247 5.5092 -0.7967 0.9775
0.9434 5.8048 -0.8333 0.9765
0.2228 5.5275 -0.7838 0.9779
-0.8878 5.4631 -0.7842 0.9779
-1.1244 5.5078 -0.7965 0.9775
-1.3791 5.5951 -0.8165 0.9770
-1.6130 5.5688 -0.8215 0.9768
-1.7967 5.3817 -0.8039 0.9773
-2.0510 5.4079 -0.8195 0.9769
-2.3508 5.5175 -0.8498 0.9761
-2.7819 5.3004 -0.8482 0.9761
-3.0582 5.2969 -0.8666 0.9756
-3.5362 5.5920 -0.9375 0.9736
-3.9175 5.2133 -0.9240 0.9740
-4.3159 5.2860 -0.9669 0.9728
-4.8850 5.5139 -1.0438 0.9707
-16.4920 7.0266 -2.5400 0.9301
-16.7615 6.3568 -2.5400 0.9301
-17.0039 5.6767 -2.5400 0.9301
-17.2187 4.9875 -2.5400 0.9301
-17.4055 4.2901 -2.5400 0.9301
-17.5642 3.5858 -2.5400 0.9301
-17.6943 2.8756 -2.5400 0.9301
-17.7957 2.1608 -2.5400 0.9301
-15.4057 -0.6208 -2.5400 0.9394
-15.3682 -1.2407 -2.5400 0.9394
-15.3058 -1.8585 -2.5400 0.9394
-15.1066 -3.0841 -2.5400 0.9394
-14.9702 -3.6898 -2.5400 0.9394
-14.4163 -5.4674 -2.5400 0.9394
-13.9296 -6.6097 -2.5400 0.9394
-12.6890 -8.7589 -2.5400 0.9394
-12.3260 -9.2624 -2.5400 0.9394
-11.1197 -10.6806 -2.5400 0.9394
-10.6806 -11.1196 -2.5400 0.9394
-10.2242 -11.5407 -2.5400 0.9394
-9.2487 -12.3078 -2.5362 0.9395
-6.6395 -12.6506 -2.3536 0.9437
-5.5892 -13.1182 -2.3491 0.9438
-5.0563 -13.3323 -2.3490 0.9438
-3.9808 -13.7434 -2.3571 0.9436
-1.8251 -11.2304 -1.8744 0.9549
0.0000 -14.3201 -2.3591 0.9436
0.5766 -14.3088 -2.3591 0.9436
1.1523 -14.2739 -2.3591 0.9436
2.8640 -14.0285 -2.3587 0.9436
3.9826 -13.7494 -2.3582 0.9436
4.5323 -13.5758 -2.3578 0.9436
5.6079 -13.1621 -2.3569 0.9437
6.6457 -12.6623 -2.3558 0.9437
7.1483 -12.3812 -2.3552 0.9437
7.6388 -12.0799 -2.3545 0.9437
8.1166 -11.7588 -2.3538 0.9437
8.5806 -11.4187 -2.3530 0.9437
9.0303 -11.0602 -2.3522 0.9438
9.4649 -10.6836 -2.3514 0.9438
9.8836 -10.2899 -2.3504 0.9438
10.2858 -9.8796 -2.3495 0.9438
10.7009 -9.4802 -2.3552 0.9437
11.4884 -9.3800 -2.4433 0.9416
12.1387 -9.1216 -2.5014 0.9403
12.4962 -8.6255 -2.5014 0.9403
12.8333 -8.1153 -2.5014 0.9403
13.7180 -6.5092 -2.5014 0.9403
13.9689 -5.9516 -2.5014 0.9403
14.4026 -4.8083 -2.5014 0.9403
8.7293 -2.1516 -1.4811 0.9642
8.5582 -1.3908 -1.4284 0.9655
8.6316 -1.0481 -1.4324 0.9654
11.4539 -0.4616 -1.8884 0.9546
15.1840 -0.0000 -2.5014 0.9403
15.1716 0.6114 -2.5014 0.9403
15.1347 1.2218 -2.5014 0.9403
14.0477 2.8679 -2.3619 0.9435
13.8508 3.4139 -2.3501 0.9438
13.1343 3.8044 -2.2527 0.9461
13.1477 5.6017 -2.3543 0.9437
12.9114 6.1266 -2.3543 0.9437
11.9541 6.2740 -2.2241 0.9467
10.6357 6.1405 -2.0232 0.9514
8.5851 5.9259 -1.7185 0.9586
6.7264 5.9591 -1.4804 0.9642
5.9274 5.6932 -1.3539 0.9672
2.6550 2.9968 -0.6596 0.9839
2.3864 3.1758 -0.6544 0.9840
3.6376 5.7524 -1.1212 0.9728
3.4246 5.9315 -1.1283 0.9726
3.0889 5.8852 -1.0950 0.9734
2.7036 5.6977 -1.0389 0.9748
2.4164 5.6713 -1.0156 0.9753
1.9184 5.7462 -0.9980 0.9757
1.3856 5.6214 -0.9538 0.9768
0.9544 5.8722 -0.9801 0.9762
0.6922 5.7003 -0.9460 0.9770
0.4536 5.6181 -0.9285 0.9774
0.2200 5.4569 -0.8997 0.9781
0.0000 5.3660 -0.8840 0.9785
-0.2279 5.6571 -0.9327 0.9773
-0.4596 5.6937 -0.9410 0.9771
-1.1200 5.4860 -0.9224 0.9776
-1.7966 5.3815 -0.9346 0.9773
-2.5900 5.4583 -0.9953 0.9758
-2.7715 5.2807 -0.9825 0.9761
-3.0897 5.3515 -1.0180 0.9753
-3.8513 5.1252 -1.0561 0.9743
-4.2982 5.2643 -1.1196 0.9728
-4.9006 5.5316 -1.2174 0.9705
-5.0771 5.2858 -1.2074 0.9707
-6.1684 5.4647 -1.3576 0.9671
-6.3318 5.1697 -1.3466 0.9674
-13.9296 6.6097 -2.5400 0.9394
-14.4163 5.4674 -2.5400 0.9394
-14.6247 4.8825 -2.5400 0.9394
-15.2185 2.4733 -2.5400 0.9394
-15.3058 1.8585 -2.5400 0.9394
-13.5134 0.0000 -2.5400 0.9465
-13.5024 -0.5441 -2.5400 0.9465
-13.4696 -1.0874 -2.5400 0.9465
-13.3384 -2.1677 -2.5400 0.9465
-13.1207 -3.2340 -2.5400 0.9465
-12.6352 -4.7919 -2.5400 0.9465
-12.2087 -5.7933 -2.5400 0.9465
-11.7029 -6.7567 -2.5400 0.9465
-11.1213 -7.6765 -2.5400 0.9465
-10.8032 -8.1181 -2.5400 0.9465
-10.4675 -8.5465 -2.5400 0.9465
-10.1149 -8.9610 -2.5400 0.9465
-9.7459 -9.3610 -2.5400 0.9465
-8.0149 -10.6659 -2.5077 0.9471
-7.5656 -10.9607 -2.5033 0.9472
-6.2569 -10.8372 -2.3521 0.9503
-5.8078 -11.0658 -2.3490 0.9504
-3.9629 -11.8704 -2.3522 0.9503
-2.5045 -12.2678 -2.3534 0.9503
-1.8247 -11.2278 -2.1381 0.9548
0.0000 -12.5261 -2.3544 0.9503
1.5098 -12.4346 -2.3544 0.9503
2.0092 -12.3632 -2.3543 0.9503
2.5052 -12.2714 -2.3541 0.9503
3.9648 -11.8760 -2.3533 0.9503
4.4391 -11.7050 -2.3530 0.9503
4.9060 -11.5147 -2.3526 0.9503
5.3646 -11.3056 -2.3521 0.9503
7.1018 -10.2888 -2.3499 0.9504
7.5082 -9.9916 -2.3492 0.9504
8.5520 -9.6532 -2.4240 0.9489
9.9612 -8.8249 -2.5014 0.9473
10.9523 -7.5598 -2.5014 0.9473
11.2478 -7.1127 -2.5014 0.9473
11.7837 -6.1846 -2.5014 0.9473
12.7826 -3.7025 -2.5014 0.9473
8.5499 -2.1074 -1.6551 0.9648
8.4788 -1.7310 -1.6266 0.9654
11.3255 -0.4564 -2.1305 0.9549
13.2649 1.0709 -2.5014 0.9473
13.2110 1.6041 -2.5014 0.9473
13.1357 2.1348 -2.5014 0.9473
12.1363 2.9913 -2.3494 0.9504
12.0128 3.4796 -2.3508 0.9504
11.8696 3.9627 -2.3521 0.9503
11.0909 5.8210 -2.3543 0.9503
10.5547 6.0938 -2.2908 0.9516
6.7561 5.9854 -1.6965 0.9639
5.9459 5.7111 -1.5496 0.9670
5.6056 5.8360 -1.5210 0.9676
2.4778 3.0347 -0.7364 0.9842
2.3858 3.1750 -0.7465 0.9840
3.6609 5.7893 -1.2875 0.9725
3.4526 5.9800 -1.2979 0.9723
2.1838 5.7582 -1.1575 0.9752
1.8960 5.6790 -1.1254 0.9759
1.3813 5.6039 -1.0848 0.9768
1.1343 5.5559 -1.0658 0.9772
0.9358 5.7580 -1.0965 0.9765
-0.2281 5.6617 -1.0650 0.9772
-0.4603 5.7026 -1.0754 0.9770
-0.6729 5.5423 -1.0494 0.9775
-0.8891 5.4712 -1.0419 0.9777
-1.1223 5.4977 -1.0547 0.9774
-1.7707 5.3040 -1.0510 0.9775
-2.3292 5.4668 -1.1169 0.9761
-2.5968 5.4727 -1.1386 0.9756
-2.7277 5.1973 -1.1032 0.9764
-3.0540 5.2896 -1.1481 0.9754
-3.5104 5.5513 -1.2345 0.9736
-3.6872 5.3418 -1.2200 0.9739
-3.9468 5.2523 -1.2349 0.9736
-4.8414 5.4647 -1.3723 0.9707
-5.0807 5.2895 -1.3786 0.9706
-6.0825 5.3886 -1.5274 0.9675
-6.8427 5.1420 -1.6088 0.9658
-10.4540 7.2159 -2.3876 0.9496
-11.9655 6.2800 -2.5400 0.9465
-12.2087 5.7931 -2.5400 0.9465
-13.1207 3.2340 -2.5400 0.9465
-13.2403 2.7030 -2.5400 0.9465
-13.3384 2.1677 -2.5400 0.9465
-12.0065 -0.4838 -2.5400 0.9521
-11.9772 -0.9669 -2.5400 0.9521
-11.6670 -2.8757 -2.5400 0.9521
-11.2354 -4.2610 -2.5400 0.9521
-11.0547 -4.7100 -2.5400 0.9521
-10.6398 -5.5842 -2.5400 0.9521
-10.4063 -6.0081 -2.5400 0.9521
-10.1560 -6.4222 -2.5400 0.9521
-9.8891 -6.8260 -2.5400 0.9521
-9.5936 -7.2091 -2.5366 0.9521
-9.2717 -7.5700 -2.5301 0.9522
-8.9355 -7.9162 -2.5234 0.9524
-8.5845 -8.2456 -2.5161 0.9525
-8.2273 -8.5655 -2.5105 0.9526
-7.8616 -8.8739 -2.5060 0.9527
-7.1116 -9.4637 -2.5023 0.9528
-6.7238 -9.7411 -2.5020 0.9528
-6.3247 -10.0017 -2.5014 0.9528
-5.9168 -10.2482 -2.5014 0.9528
-5.4994 -10.4782 -2.5014 0.9528
-4.9815 -10.4983 -2.4563 0.9536
-3.0920 -10.6749 -2.3492 0.9556
-1.3403 -11.0381 -2.3504 0.9556
0.4478 -11.1122 -2.3508 0.9556
1.3405 -11.0399 -2.3508 0.9556
1.7839 -10.9765 -2.3507 0.9556
2.2243 -10.8951 -2.3505 0.9556
4.3561 -10.2241 -2.3492 0.9556
4.7639 -10.0397 -2.3490 0.9556
5.2111 -9.9290 -2.3703 0.9552
5.7067 -9.8843 -2.4126 0.9544
6.2206 -9.8372 -2.4603 0.9535
7.1090 -9.4603 -2.5014 0.9528
7.8472 -8.8576 -2.5014 0.9528
8.1975 -8.5345 -2.5014 0.9528
8.5345 -8.1975 -2.5014 0.9528
9.1664 -7.4841 -2.5014 0.9528
9.7389 -6.7223 -2.5014 0.9528
10.0017 -6.3247 -2.5014 0.9528
10.2482 -5.9168 -2.5014 0.9528
10.4782 -5.4994 -2.5014 0.9528
11.0646 -4.1963 -2.5014 0.9528
11.2246 -3.7473 -2.5014 0.9528
8.4557 -2.0842 -1.8409 0.9650
8.3777 -1.7103 -1.8074 0.9656
11.8240 -0.4765 -2.5014 0.9528
11.8336 0.0000 -2.5014 0.9528
11.7474 1.4264 -2.5014 0.9528
11.6804 1.8983 -2.5014 0.9528
11.5945 2.3670 -2.5014 0.9528
10.7898 2.6594 -2.3490 0.9556
10.4056 3.9463 -2.3524 0.9555
9.6457 5.5689 -2.3543 0.9555
9.4136 5.9528 -2.3543 0.9555
8.9198 6.1569 -2.2910 0.9567
7.2851 5.9481 -1.9880 0.9623
5.6207 5.8517 -1.7151 0.9674
3.9709 5.7528 -1.4776 0.9718
3.0695 5.8483 -1.3961 0.9734
2.3844 5.5962 -1.2858 0.9754
1.3775 5.5888 -1.2167 0.9767
1.1278 5.5244 -1.1918 0.9772
0.6928 5.7052 -1.2148 0.9768
0.2226 5.5218 -1.1682 0.9777
-0.6797 5.5983 -1.1921 0.9772
-1.1169 5.4708 -1.1803 0.9774
-1.5827 5.4642 -1.2025 0.9770
-2.0881 5.5059 -1.2447 0.9762
-2.4439 5.7362 -1.3180 0.9748
-2.5656 5.4068 -1.2650 0.9758
-2.7724 5.2824 -1.2610 0.9759
-3.1051 5.3783 -1.3127 0.9749
-3.4777 5.4996 -1.3754 0.9737
-3.6802 5.3317 -1.3694 0.9739
-4.3239 5.2958 -1.4452 0.9724
-4.8546 5.4797 -1.5475 0.9705
-5.0451 5.2525 -1.5395 0.9707
-5.3501 5.1388 -1.5681 0.9701
-9.2958 6.4164 -2.3876 0.9549
-10.0014 5.2492 -2.3876 0.9549
-11.3978 3.8052 -2.5400 0.9521
-11.6670 2.8757 -2.5400 0.9521
-11.7734 2.4036 -2.5400 0.9521
-11.8606 1.9275 -2.5400 0.9521
-11.9286 1.4484 -2.5400 0.9521
-11.9772 0.9669 -2.5400 0.9521
-12.0065 0.4839 -2.5400 0.9521
-10.8074 0.0000 -2.5400 0.9566
-10.7986 -0.4352 -2.5400 0.9566
-10.7723 -0.8696 -2.5400 0.9566
-10.7286 -1.3027 -2.5400 0.9566
-10.4933 -2.5864 -2.5400 0.9566
-10.3807 -3.0068 -2.5400 0.9566
-9.9403 -4.2352 -2.5394 0.9566
-9.7538 -4.6282 -2.5373 0.9566
-9.5466 -5.0104 -2.5339 0.9567
-9.3210 -5.3816 -2.5296 0.9567
-9.0805 -5.7422 -2.5250 0.9568
-8.8231 -6.0902 -2.5197 0.9569
-8.5546 -6.4283 -2.5149 0.9570
-8.2742 -6.7555 -2.5105 0.9571
-7.9851 -7.0742 -2.5072 0.9571
-7.6859 -7.3824 -2.5047 0.9572
-7.0617 -7.9710 -2.5028 0.9572
-6.7342 -8.2479 -2.5025 0.9572
-6.3958 -8.5113 -2.5022 0.9572
-6.0472 -8.7608 -2.5019 0.9572
-5.3216 -9.2173 -2.5014 0.9572
-4.5627 -9.6156 -2.5014 0.9572
-4.1718 -9.7915 -2.5014 0.9572
-3.7741 -9.9516 -2.5014 0.9572
-3.3704 -10.0955 -2.5014 0.9572
-2.5471 -10.3339 -2.5014 0.9572
-2.1150 -10.3600 -2.4851 0.9575
-1.6807 -10.3419 -2.4625 0.9579
0.0000 -10.2626 -2.4120 0.9587
0.4126 -10.2390 -2.4083 0.9588
1.2372 -10.1896 -2.4124 0.9587
1.6518 -10.1638 -2.4201 0.9586
2.0692 -10.1357 -2.4313 0.9584
2.9177 -10.0729 -2.4647 0.9578
3.7741 -9.9516 -2.5014 0.9572
4.5627 -9.6156 -2.5014 0.9572
4.9461 -9.4241 -2.5014 0.9572
5.3216 -9.2173 -2.5014 0.9572
5.6884 -8.9955 -2.5014 0.9572
6.0460 -8.7592 -2.5014 0.9572
7.3728 -7.6759 -2.5014 0.9572
7.6759 -7.3728 -2.5014 0.9572
8.5086 -6.3938 -2.5014 0.9572
9.2173 -5.3216 -2.5014 0.9572
9.7915 -4.1718 -2.5014 0.9572
10.0955 -3.3704 -2.5014 0.9572
10.2230 -2.9611 -2.5014 0.9572
8.3628 -1.7073 -2.0060 0.9655
8.3862 -1.0183 -1.9854 0.9659
10.6346 -0.4286 -2.5014 0.9572
10.6346 0.4286 -2.5014 0.9572
10.6087 0.8564 -2.5014 0.9572
10.5054 1.7073 -2.5014 0.9572
10.4281 2.1289 -2.5014 0.9572
9.8767 2.4344 -2.3907 0.9591
9.4868 3.1671 -2.3506 0.9597
9.3557 3.5481 -2.3516 0.9597
9.2093 3.9237 -2.3527 0.9597
8.4666 5.3540 -2.3543 0.9597
7.4150 6.0542 -2.2498 0.9614
6.1144 5.8729 -1.9925 0.9658
5.6109 5.8415 -1.9036 0.9673
2.6523 2.9939 -0.9400 0.9837
2.3847 3.1734 -0.9329 0.9838
3.4340 5.9479 -1.6141 0.9722
3.0953 5.8975 -1.5654 0.9730
2.7082 5.7073 -1.4847 0.9744
1.6386 5.6572 -1.3842 0.9761
1.1334 5.5515 -1.3316 0.9770
0.9466 5.8248 -1.3869 0.9760
-0.2299 5.7063 -1.3422 0.9768
-0.6726 5.5395 -1.3115 0.9773
-0.8973 5.5213 -1.3147 0.9773
-1.1038 5.4070 -1.2970 0.9776
-1.3452 5.4578 -1.3211 0.9772
-2.4042 5.6429 -1.4416 0.9751
-2.5770 5.4309 -1.4128 0.9756
-2.7871 5.3103 -1.4095 0.9757
-3.0559 5.2929 -1.4364 0.9752
-3.4957 5.5280 -1.5372 0.9735
-4.8347 5.4572 -1.7135 0.9705
-5.0306 5.2374 -1.7067 0.9706
-5.4425 5.2275 -1.7736 0.9695
-6.1150 5.4174 -1.9200 0.9670
-6.3322 5.1701 -1.9212 0.9670
-6.8119 5.1187 -2.0026 0.9656
-8.5862 5.4296 -2.3876 0.9591
-8.7979 5.0795 -2.3876 0.9591
-8.9953 4.7211 -2.3876 0.9591
-9.1781 4.3551 -2.3876 0.9591
-9.3460 3.9820 -2.3876 0.9591
-10.3800 3.0066 -2.5398 0.9566
-10.6674 1.7336 -2.5400 0.9566
-10.7286 1.3027 -2.5400 0.9566
-10.7723 0.8696 -2.5400 0.9566
-9.7828 -0.3942 -2.5350 0.9604
-9.6591 -1.5698 -2.5337 0.9604
-9.3833 -2.7179 -2.5294 0.9604
-8.9581 -3.8168 -2.5211 0.9606
-8.7861 -4.1691 -2.5180 0.9606
-8.4013 -4.8505 -2.5118 0.9607
-6.4096 -7.2349 -2.5026 0.9608
-5.8054 -7.7255 -2.5021 0.9609
-5.4890 -7.9521 -2.5018 0.9609
-5.1637 -8.1658 -2.5015 0.9609
-4.4897 -8.5543 -2.5014 0.9609
-4.1416 -8.7282 -2.5014 0.9609
-3.7868 -8.8879 -2.5014 0.9609
-3.0593 -9.1638 -2.5014 0.9609
-2.3120 -9.3802 -2.5014 0.9609
-1.9325 -9.4657 -2.5014 0.9609
-1.5497 -9.5358 -2.5014 0.9609
-1.1645 -9.5905 -2.5014 0.9609
-0.7774 -9.6296 -2.5014 0.9609
-0.3890 -9.6531 -2.5014 0.9609
1.1645 -9.5905 -2.5014 0.9609
1.5497 -9.5358 -2.5014 0.9609
2.3120 -9.3802 -2.5014 0.9609
3.0593 -9.1638 -2.5014 0.9609
3.7868 -8.8879 -2.5014 0.9609
4.1416 -8.7282 -2.5014 0.9609
4.4897 -8.5544 -2.5014 0.9609
5.1634 -8.1653 -2.5014 0.9609
5.8037 -7.7234 -2.5014 0.9609
6.9675 -6.6924 -2.5014 0.9609
7.2313 -6.4064 -2.5014 0.9609
7.7234 -5.8037 -2.5014 0.9609
8.5544 -4.4897 -2.5014 0.9609
8.7282 -4.1416 -2.5014 0.9609
8.8879 -3.7868 -2.5014 0.9609
9.0331 -3.4258 -2.5014 0.9609
9.2795 -2.6878 -2.5014 0.9609
9.2150 -2.2713 -2.4573 0.9615
8.3568 -1.3581 -2.1921 0.9656
8.3639 -1.0156 -2.1815 0.9658
8.4503 -0.6822 -2.1950 0.9656
9.6531 -0.3890 -2.5014 0.9609
9.6610 0.0000 -2.5014 0.9609
9.6531 0.3890 -2.5014 0.9609
9.5905 1.1645 -2.5014 0.9609
8.6092 2.8742 -2.3500 0.9632
8.4899 3.2198 -2.3510 0.9632
8.3567 3.5604 -2.3519 0.9632
8.2098 3.8956 -2.3528 0.9631
8.0494 4.2246 -2.3537 0.9631
7.6853 4.8599 -2.3543 0.9631
7.4834 5.1654 -2.3543 0.9631
7.2693 5.4625 -2.3543 0.9631
6.8062 6.0297 -2.3543 0.9631
6.1533 5.9103 -2.2091 0.9654
2.6514 2.9929 -1.0353 0.9836
2.4759 3.0325 -1.0136 0.9840
3.9522 5.7257 -1.8014 0.9717
3.6410 5.7578 -1.7639 0.9722
3.4249 5.9321 -1.7735 0.9721
3.1246 5.9534 -1.7409 0.9726
2.2043 5.8122 -1.6095 0.9746
1.9248 5.7655 -1.5738 0.9752
1.6611 5.7347 -1.5459 0.9756
1.1448 5.6075 -1.4818 0.9766
0.6972 5.7418 -1.4976 0.9764
0.4528 5.6084 -1.4568 0.9770
-0.2292 5.6882 -1.4740 0.9768
-0.8932 5.4962 -1.4417 0.9773
-1.1246 5.5087 -1.4557 0.9770
-1.3910 5.6436 -1.5050 0.9763
-1.5868 5.4782 -1.4767 0.9767
-1.8085 5.4170 -1.4787 0.9767
-2.0642 5.4429 -1.5072 0.9762
-2.4172 5.6733 -1.5967 0.9748
-2.5844 5.4465 -1.5609 0.9754
-3.6950 5.3531 -1.6841 0.9735
-5.0715 5.2799 -1.8956 0.9702
-5.6758 5.4516 -2.0377 0.9680
-6.3294 5.1678 -2.1156 0.9668
-6.6984 5.0335 -2.1694 0.9660
-7.5891 5.2384 -2.3876 0.9626
-7.9768 4.6054 -2.3848 0.9627
-8.1488 4.2768 -2.3828 0.9627
-8.3076 3.9420 -2.3808 0.9627
-8.4539 3.6019 -2.3793 0.9627
-8.5852 3.2559 -2.3773 0.9628
-8.7999 2.5489 -2.3721 0.9629
-9.5758 1.9549 -2.5305 0.9604
-9.6532 1.5688 -2.5322 0.9604
-9.7129 1.1794 -2.5333 0.9604
-8.8953 -0.0000 -2.5182 0.9637
-8.8283 -1.0719 -2.5176 0.9637
-8.7068 -1.7776 -2.5157 0.9637
-8.6236 -2.1255 -2.5143 0.9638
-8.4153 -2.8094 -2.5116 0.9638
-8.0005 -3.7962 -2.5069 0.9639
-7.8340 -4.1116 -2.5046 0.9639
-7.6614 -4.4233 -2.5044 0.9639
-6.8501 -5.5930 -2.5035 0.9639
-6.1242 -6.3760 -2.5028 0.9639
-5.8619 -6.6168 -2.5025 0.9639
-5.5902 -6.8467 -2.5023 0.9639
-4.7225 -7.4681 -2.5014 0.9639
-4.4180 -7.6521 -2.5014 0.9639
-4.1063 -7.8238 -2.5014 0.9639
-3.4634 -8.1289 -2.5014 0.9639
-3.1333 -8.2618 -2.5014 0.9639
-2.7981 -8.3812 -2.5014 0.9639
-2.4583 -8.4871 -2.5014 0.9639
-1.7674 -8.6574 -2.5014 0.9639
-0.7110 -8.8073 -2.5014 0.9639
-0.3558 -8.8288 -2.5014 0.9639
0.0000 -8.8360 -2.5014 0.9639
0.3558 -8.8288 -2.5014 0.9639
0.7110 -8.8073 -2.5014 0.9639
1.0650 -8.7715 -2.5014 0.9639
1.7674 -8.6574 -2.5014 0.9639
2.1146 -8.5792 -2.5014 0.9639
2.7981 -8.3812 -2.5014 0.9639
3.7879 -7.9829 -2.5014 0.9639
4.1063 -7.8238 -2.5014 0.9639
4.4180 -7.6522 -2.5014 0.9639
4.7225 -7.4681 -2.5014 0.9639
5.5883 -6.8444 -2.5014 0.9639
5.8593 -6.6138 -2.5014 0.9639
6.1209 -6.3725 -2.5014 0.9639
6.3725 -6.1209 -2.5014 0.9639
7.2718 -5.0194 -2.5014 0.9639
7.4681 -4.7225 -2.5014 0.9639
7.8238 -4.1063 -2.5014 0.9639
7.9828 -3.7879 -2.5014 0.9639
8.1289 -3.4634 -2.5014 0.9639
8.3812 -2.7981 -2.5014 0.9639
8.5792 -2.1146 -2.5014 0.9639
8.6574 -1.7674 -2.5014 0.9639
8.8073 -0.7110 -2.5014 0.9639
8.8359 -0.0000 -2.5014 0.9639
8.8288 0.3558 -2.5014 0.9639
8.6574 1.7674 -2.5014 0.9639
7.9700 2.3085 -2.3490 0.9661
7.8724 2.6282 -2.3495 0.9661
7.7630 2.9441 -2.3504 0.9661
7.2005 4.1572 -2.3538 0.9660
7.0290 4.4449 -2.3543 0.9660
6.4420 5.2597 -2.3543 0.9660
6.2250 5.5148 -2.3543 0.9660
3.9351 5.7009 -1.9610 0.9716
3.4300 5.9409 -1.9420 0.9719
2.1744 5.7332 -1.7358 0.9748
1.9051 5.7064 -1.7031 0.9753
1.3886 5.6335 -1.6425 0.9762
1.1538 5.6516 -1.6329 0.9763
0.9470 5.8269 -1.6712 0.9758
0.6904 5.6859 -1.6215 0.9765
0.4544 5.6279 -1.5984 0.9768
0.2207 5.4746 -1.5511 0.9775
0.0000 5.4766 -1.5504 0.9775
-0.6773 5.5781 -1.5907 0.9769
-0.8980 5.5256 -1.5848 0.9770
-1.1088 5.4314 -1.5693 0.9772
-1.7965 5.3810 -1.6060 0.9767
-2.0462 5.3953 -1.6335 0.9763
-2.5754 5.4275 -1.7007 0.9753
-2.8093 5.3528 -1.7113 0.9752
-3.0593 5.2989 -1.7321 0.9749
-3.7044 5.3667 -1.8461 0.9733
-3.9505 5.2571 -1.8616 0.9730
-4.8084 5.4275 -2.0527 0.9703
-5.0952 5.3046 -2.0822 0.9699
-6.1886 5.4826 -2.3406 0.9662
-6.2955 5.1401 -2.3008 0.9668
-6.6594 5.0042 -2.3582 0.9660
-7.2253 4.1715 -2.3619 0.9659
-7.3881 3.8776 -2.3621 0.9659
-7.7919 2.9551 -2.3591 0.9659
-7.9981 2.3167 -2.3573 0.9660
-8.7692 1.4251 -2.5151 0.9637
-8.8236 1.0714 -2.5162 0.9637
-8.8628 0.7155 -2.5172 0.9637
-7.9090 -1.9494 -2.5054 0.9665
-7.8236 -2.2661 -2.5053 0.9665
-7.7255 -2.5791 -2.5051 0.9665
-7.6148 -2.8879 -2.5049 0.9665
-7.4918 -3.1920 -2.5047 0.9665
-7.3566 -3.4908 -2.5046 0.9665
-7.2096 -3.7839 -2.5044 0.9665
-7.0508 -4.0708 -2.5042 0.9665
-6.3043 -5.1473 -2.5033 0.9665
-6.0914 -5.3965 -2.5031 0.9665
-4.6198 -6.6930 -2.5014 0.9665
-3.4864 -7.3474 -2.5014 0.9665
-3.1877 -7.4818 -2.5014 0.9665
-2.8838 -7.6041 -2.5014 0.9665
-1.9462 -7.8962 -2.5014 0.9665
-1.6267 -7.9682 -2.5014 0.9665
-0.9803 -8.0732 -2.5014 0.9665
-0.3275 -8.1259 -2.5014 0.9665
0.9803 -8.0733 -2.5014 0.9665
1.3045 -8.0272 -2.5014 0.9665
1.6267 -7.9682 -2.5014 0.9665
1.9462 -7.8962 -2.5014 0.9665
2.8838 -7.6041 -2.5014 0.9665
3.4864 -7.3474 -2.5014 0.9665
3.7794 -7.2010 -2.5014 0.9665
4.0663 -7.0430 -2.5014 0.9665
4.8856 -6.5015 -2.5014 0.9665
5.3929 -6.0873 -2.5014 0.9665
5.6336 -5.8652 -2.5014 0.9665
6.2995 -5.1434 -2.5014 0.9665
6.5015 -4.8856 -2.5014 0.9665
6.8735 -4.3466 -2.5014 0.9665
7.0430 -4.0663 -2.5014 0.9665
7.7140 -2.5753 -2.5014 0.9665
7.9682 -1.6267 -2.5014 0.9665
8.0732 -0.9803 -2.5014 0.9665
8.1062 -0.6544 -2.5014 0.9665
8.1062 0.6544 -2.5014 0.9665
8.0272 1.3045 -2.5014 0.9665
7.2444 2.4185 -2.3491 0.9685
7.1436 2.7092 -2.3499 0.9685
7.0310 2.9956 -2.3507 0.9685
6.6252 3.8250 -2.3530 0.9685
5.7294 5.0758 -2.3543 0.9685
5.5204 5.3024 -2.3543 0.9685
2.6496 2.9908 -1.2290 0.9834
2.4747 3.0309 -1.2035 0.9838
4.0197 5.8234 -2.1764 0.9708
3.6665 5.7981 -2.1100 0.9717
3.4183 5.9207 -2.1028 0.9718
2.3558 5.5291 -1.8486 0.9752
2.1760 5.7374 -1.8874 0.9746
1.6522 5.7039 -1.8265 0.9755
0.9434 5.8049 -1.8089 0.9757
0.2208 5.4776 -1.6862 0.9773
-0.6849 5.6406 -1.7477 0.9765
-1.1222 5.4972 -1.7257 0.9768
-1.3517 5.4841 -1.7373 0.9766
-1.5814 5.4596 -1.7483 0.9765
-1.8015 5.3962 -1.7498 0.9765
-2.6031 5.4859 -1.8677 0.9749
-2.7949 5.3252 -1.8498 0.9751
-3.5146 5.5579 -2.0226 0.9729
-3.7497 5.4324 -2.0303 0.9728
-5.1229 5.3334 -2.2746 0.9695
-5.7294 5.0758 -2.3543 0.9685
-5.9291 4.8410 -2.3543 0.9685
-6.2852 4.3383 -2.3490 0.9685
-6.6139 3.8185 -2.3490 0.9685
-6.8999 3.2741 -2.3491 0.9685
-7.1422 2.7087 -2.3495 0.9685
-7.3370 2.1252 -2.3495 0.9685
-7.9812 1.6294 -2.5055 0.9665
-8.0381 1.3063 -2.5048 0.9665
-8.0883 0.9821 -2.5061 0.9665
-8.1227 0.6557 -2.5065 0.9665
-8.1422 0.3281 -2.5064 0.9665
-7.5308 0.0000 -2.5033 0.9688
-7.5273 -0.3033 -2.5042 0.9687
-7.4827 -0.9085 -2.5055 0.9687
-7.4396 -1.2091 -2.5054 0.9687
-7.3845 -1.5076 -2.5053 0.9687
-7.1476 -2.3862 -2.5048 0.9687
-6.9315 -2.9532 -2.5045 0.9687
-6.6704 -3.5009 -2.5041 0.9687
-6.5236 -3.7664 -2.5039 0.9687
-6.3661 -4.0257 -2.5037 0.9687
-6.0174 -4.5218 -2.5020 0.9688
-5.2128 -5.4272 -2.5014 0.9688
-4.9901 -5.6326 -2.5014 0.9688
-4.7592 -5.8290 -2.5014 0.9688
-3.7626 -6.5170 -2.5014 0.9688
-3.4971 -6.6632 -2.5014 0.9688
-3.2260 -6.7986 -2.5014 0.9688
-2.9496 -6.9230 -2.5014 0.9688
-2.6685 -7.0361 -2.5014 0.9688
-2.3830 -7.1379 -2.5014 0.9688
-2.0936 -7.2280 -2.5014 0.9688
-1.8009 -7.3065 -2.5014 0.9688
-0.9071 -7.4703 -2.5014 0.9688
-0.0000 -7.5251 -2.5014 0.9688
1.5052 -7.3731 -2.5014 0.9688
1.8009 -7.3065 -2.5014 0.9688
2.0936 -7.2280 -2.5014 0.9688
2.3830 -7.1379 -2.5014 0.9688
2.6684 -7.0361 -2.5014 0.9688
2.9496 -6.9230 -2.5014 0.9688
3.2260 -6.7986 -2.5014 0.9688
3.4971 -6.6632 -2.5014 0.9688
4.2748 -6.1930 -2.5014 0.9688
5.2128 -5.4271 -2.5014 0.9688
5.4271 -5.2128 -2.5014 0.9688
5.6326 -4.9901 -2.5014 0.9688
5.8290 -4.7592 -2.5014 0.9688
6.0159 -4.5207 -2.5014 0.9688
6.3602 -4.0219 -2.5014 0.9688
6.6632 -3.4971 -2.5014 0.9688
6.7986 -3.2260 -2.5014 0.9688
6.9230 -2.9496 -2.5014 0.9688
7.0361 -2.6684 -2.5014 0.9688
7.2280 -2.0936 -2.5014 0.9688
7.3065 -1.8009 -2.5014 0.9688
7.3730 -1.5052 -2.5014 0.9688
7.4277 -1.2071 -2.5014 0.9688
7.4703 -0.9071 -2.5014 0.9688
7.5007 -0.6055 -2.5014 0.9688
7.5190 -0.3030 -2.5014 0.9688
7.5190 0.3030 -2.5014 0.9688
7.4703 0.9071 -2.5014 0.9688
7.4277 1.2071 -2.5014 0.9688
6.7030 2.2378 -2.3490 0.9707
6.6088 2.5064 -2.3495 0.9706
6.3897 3.0319 -2.3509 0.9706
6.2643 3.2878 -2.3516 0.9706
6.1286 3.5384 -2.3523 0.9706
5.4863 4.4794 -2.3543 0.9706
5.3015 4.6967 -2.3543 0.9706
5.1081 4.9064 -2.3543 0.9706
2.4740 3.0302 -1.3003 0.9836
2.3822 3.1701 -1.3181 0.9834
3.6829 5.8240 -2.2905 0.9714
3.4418 5.9613 -2.2881 0.9714
3.2032 6.1031 -2.2912 0.9714
2.1867 5.7657 -2.0498 0.9743
1.9269 5.7716 -2.0226 0.9747
1.6683 5.7597 -1.9933 0.9750
1.3841 5.6154 -1.9225 0.9759
1.1423 5.5955 -1.8983 0.9762
0.6884 5.6692 -1.8983 0.9762
0.4581 5.6737 -1.8921 0.9763
0.2233 5.5404 -1.8432 0.9769
0.0000 5.4923 -1.8257 0.9771
-0.4591 5.6876 -1.8967 0.9762
-0.6718 5.5332 -1.8528 0.9768
-1.6025 5.5325 -1.9146 0.9760
-1.8119 5.4272 -1.9019 0.9762
-2.0835 5.4938 -1.9531 0.9755
-2.6100 5.5005 -2.0238 0.9747
-2.8267 5.3858 -2.0219 0.9747
-3.0539 5.2895 -2.0303 0.9746
-3.7283 5.4014 -2.1816 0.9727
-4.0094 5.3355 -2.2185 0.9723
-4.4794 5.4863 -2.3543 0.9706
-4.6967 5.3015 -2.3543 0.9706
-4.9064 5.1081 -2.3543 0.9706
-5.1081 4.9064 -2.3543 0.9706
-5.3015 4.6967 -2.3543 0.9706
-5.6622 4.2549 -2.3543 0.9706
-6.1337 3.5413 -2.3543 0.9706
-6.2572 3.2840 -2.3490 0.9707
-6.3844 3.0294 -2.3490 0.9707
-6.6074 2.5059 -2.3490 0.9707
-6.7030 2.2378 -2.3490 0.9707
-6.7877 1.9661 -2.3490 0.9707
-6.8613 1.6912 -2.3490 0.9707
-7.0984 1.4491 -2.4082 0.9699
-7.4283 1.2072 -2.5016 0.9688
-7.4712 0.9072 -2.5017 0.9688
-7.5024 0.6056 -2.5019 0.9688
-6.9948 0.0000 -2.5014 0.9707
-6.9891 -0.2817 -2.5014 0.9707
-6.9444 -0.8432 -2.5016 0.9707
-6.8544 -1.3993 -2.5017 0.9707
-6.6357 -2.2153 -2.5017 0.9707
-6.4356 -2.7420 -2.5016 0.9707
-6.3198 -2.9988 -2.5015 0.9707
-6.0577 -3.4974 -2.5014 0.9707
-5.5920 -4.2021 -2.5014 0.9707
-5.4182 -4.4239 -2.5014 0.9707
-4.8455 -5.0447 -2.5014 0.9707
-3.9735 -5.7566 -2.5014 0.9707
-3.7385 -5.9119 -2.5014 0.9707
-3.4974 -6.0577 -2.5014 0.9707
-3.2506 -6.1936 -2.5014 0.9707
-2.9986 -6.3195 -2.5014 0.9707
-2.7417 -6.4351 -2.5014 0.9707
-2.4804 -6.5402 -2.5014 0.9707
-2.2150 -6.6348 -2.5014 0.9707
-1.9461 -6.7186 -2.5014 0.9707
-1.6740 -6.7916 -2.5014 0.9707
-1.1221 -6.9042 -2.5014 0.9707
-0.8431 -6.9438 -2.5014 0.9707
-0.2817 -6.9891 -2.5014 0.9707
0.2816 -6.9891 -2.5014 0.9707
0.8431 -6.9438 -2.5014 0.9707
1.3991 -6.8534 -2.5014 0.9707
1.9461 -6.7186 -2.5014 0.9707
2.2150 -6.6348 -2.5014 0.9707
2.9986 -6.3195 -2.5014 0.9707
3.4974 -6.0577 -2.5014 0.9707
4.2021 -5.5920 -2.5014 0.9707
4.4238 -5.4182 -2.5014 0.9707
4.6384 -5.2357 -2.5014 0.9707
4.8455 -5.0447 -2.5014 0.9707
5.2357 -4.6384 -2.5014 0.9707
5.4182 -4.4238 -2.5014 0.9707
6.0577 -3.4974 -2.5014 0.9707
6.1936 -3.2506 -2.5014 0.9707
6.3195 -2.9986 -2.5014 0.9707
6.4351 -2.7417 -2.5014 0.9707
6.5403 -2.4804 -2.5014 0.9707
6.6348 -2.2150 -2.5014 0.9707
6.8534 -1.3991 -2.5014 0.9707
6.9042 -1.1221 -2.5014 0.9707
6.9438 -0.8431 -2.5014 0.9707
6.9948 -0.0000 -2.5014 0.9707
6.9891 0.2817 -2.5014 0.9707
6.9042 1.1220 -2.5014 0.9707
6.8534 1.3992 -2.5014 0.9707
6.3629 2.1242 -2.3989 0.9719
6.1421 2.3294 -2.3491 0.9725
5.9382 2.8177 -2.3505 0.9725
5.8215 3.0554 -2.3511 0.9725
5.5598 3.5158 -2.3524 0.9724
5.4152 3.7378 -2.3530 0.9724
4.5606 4.7481 -2.3543 0.9724
2.6478 2.9887 -1.4279 0.9832
2.4734 3.0294 -1.3985 0.9835
3.7399 5.4182 -2.3543 0.9724
3.5187 5.5644 -2.3543 0.9724
3.2918 5.7015 -2.3543 0.9724
3.0595 5.8295 -2.3543 0.9724
2.7328 5.7592 -2.2796 0.9733
2.3616 5.5427 -2.1545 0.9747
2.2097 5.8263 -2.2283 0.9739
1.9885 5.9563 -2.2456 0.9737
1.6900 5.8343 -2.1722 0.9745
1.1516 5.6406 -2.0588 0.9758
0.2217 5.4993 -1.9682 0.9769
0.0000 5.5133 -1.9716 0.9769
-0.2364 5.8679 -2.1001 0.9754
-1.5842 5.4693 -2.0362 0.9761
-2.4115 5.6600 -2.2001 0.9742
-2.8309 5.3939 -2.1784 0.9745
-3.5187 5.5644 -2.3543 0.9724
-3.7399 5.4182 -2.3543 0.9724
-4.5606 4.7481 -2.3543 0.9724
-5.0997 4.1637 -2.3543 0.9724
-5.5640 3.5184 -2.3542 0.9724
-5.8261 3.0578 -2.3530 0.9724
-6.2306 2.0801 -2.3490 0.9725
-6.3093 1.8275 -2.3490 0.9725
-6.3778 1.5720 -2.3490 0.9725
-6.8223 1.3928 -2.4900 0.9709
-6.9721 0.5629 -2.5014 0.9707
-6.9891 0.2817 -2.5014 0.9707
-3.5504 0.0000 -1.3606 0.9849
-3.5589 -0.1434 -1.3649 0.9849
-3.5921 -0.4362 -1.3867 0.9846
-6.3377 -1.5621 -2.5014 0.9724
-6.2696 -1.8160 -2.5014 0.9724
-6.1032 -2.3146 -2.5014 0.9724
-6.0050 -2.5585 -2.5014 0.9724
-5.8971 -2.7982 -2.5014 0.9724
-5.6529 -3.2637 -2.5014 0.9724
-5.5168 -3.4886 -2.5014 0.9724
-3.7080 -5.3719 -2.5014 0.9724
-3.4886 -5.5169 -2.5014 0.9724
-2.5585 -6.0050 -2.5014 0.9724
-1.8160 -6.2696 -2.5014 0.9724
-1.3056 -6.3954 -2.5014 0.9724
-0.5252 -6.5062 -2.5014 0.9724
-0.0000 -6.5273 -2.5014 0.9724
0.5252 -6.5062 -2.5014 0.9724
1.3056 -6.3954 -2.5014 0.9724
2.3146 -6.1032 -2.5014 0.9724
2.5585 -6.0050 -2.5014 0.9724
2.7982 -5.8971 -2.5014 0.9724
3.4886 -5.5168 -2.5014 0.9724
4.3284 -4.8858 -2.5014 0.9724
4.8858 -4.3284 -2.5014 0.9724
5.0561 -4.1282 -2.5014 0.9724
5.3719 -3.7080 -2.5014 0.9724
5.8971 -2.7982 -2.5014 0.9724
6.0050 -2.5585 -2.5014 0.9724
6.1914 -2.0670 -2.5014 0.9724
6.4428 -1.0471 -2.5014 0.9724
6.4797 -0.7868 -2.5014 0.9724
6.5062 -0.5252 -2.5014 0.9724
6.5221 -0.2628 -2.5014 0.9724
6.5273 0.0000 -2.5014 0.9724
6.5062 0.5252 -2.5014 0.9724
6.4797 0.7868 -2.5014 0.9724
6.3377 1.5621 -2.5014 0.9724
6.1914 2.0670 -2.5014 0.9724
5.7313 2.1736 -2.3490 0.9741
5.5403 2.6289 -2.3501 0.9741
5.3136 3.0678 -2.3513 0.9741
5.1870 3.2801 -2.3519 0.9741
4.9087 3.6886 -2.3530 0.9740
4.2558 4.4308 -2.3543 0.9740
2.3809 3.1684 -1.5188 0.9832
3.2835 5.1925 -2.3543 0.9740
3.0718 5.3205 -2.3543 0.9740
2.8551 5.4399 -2.3543 0.9740
2.1785 5.7443 -2.3543 0.9740
1.6708 5.7681 -2.3013 0.9746
0.9050 5.5686 -2.1620 0.9761
0.2216 5.4970 -2.1083 0.9767
0.0000 5.4629 -2.0935 0.9769
-0.4583 5.6769 -2.1826 0.9759
-1.1125 5.4494 -2.1314 0.9765
-1.5975 5.5153 -2.2004 0.9757
-1.8242 5.4641 -2.2075 0.9756
-2.8551 5.4399 -2.3543 0.9740
-3.0718 5.3205 -2.3543 0.9740
-3.2835 5.1925 -2.3543 0.9740
-3.4899 5.0561 -2.3543 0.9740
-3.8855 4.7588 -2.3543 0.9740
-4.0739 4.5985 -2.3543 0.9740
-4.2558 4.4308 -2.3543 0.9740
-4.4308 4.2558 -2.3543 0.9740
-4.7588 3.8855 -2.3543 0.9740
-4.9114 3.6907 -2.3543 0.9740
-5.0554 3.4895 -2.3540 0.9740
-5.1906 3.2824 -2.3535 0.9740
-5.3174 3.0700 -2.3529 0.9740
-5.4354 2.8527 -2.3524 0.9740
-5.5444 2.6309 -2.3518 0.9741
-5.8167 1.9419 -2.3500 0.9741
-6.3954 1.3056 -2.5014 0.9724
-6.4428 1.0471 -2.5014 0.9724
-3.5921 0.4362 -1.3867 0.9846
-3.5687 0.2881 -1.3720 0.9848
-3.5589 0.1434 -1.3649 0.9849
-2.8160 0.0000 -1.1525 0.9879
-2.8203 -0.1137 -1.1552 0.9879
-2.8096 -0.2268 -1.1536 0.9879
-2.9322 -0.3560 -1.2089 0.9873
-3.0246 -0.4915 -1.2541 0.9868
-5.9342 -1.4627 -2.5014 0.9739
-5.8705 -1.7004 -2.5014 0.9739
-5.6227 -2.3956 -2.5014 0.9739
-5.5217 -2.6201 -2.5014 0.9739
-5.2929 -3.0559 -2.5014 0.9739
-5.0299 -3.4719 -2.5014 0.9739
-4.8860 -3.6716 -2.5014 0.9739
-4.5747 -4.0529 -2.5014 0.9739
-4.4078 -4.2338 -2.5014 0.9739
-3.8654 -4.7342 -2.5014 0.9739
-3.4719 -5.0299 -2.5014 0.9739
-3.2665 -5.1656 -2.5014 0.9739
-2.8403 -5.4117 -2.5014 0.9739
-2.3956 -5.6227 -2.5014 0.9739
