ply
format ascii 1.0
element vertex 1576
property float32 x
property float32 y
property float32 z
property float32 I
end_header
-3.9401 8.3036 -0.4661 0.9639
-22.5551 42.9752 -2.4614 0.8233
-27.4647 36.5489 -2.3186 0.8327
-29.0792 32.8236 -2.2239 0.8389
-28.9228 30.1118 -2.1174 0.8460
-32.5048 26.5393 -2.1281 0.8453
-23.3810 14.7853 -1.4029 0.8951
-29.8858 17.2546 -1.7501 0.8709
-29.1147 11.0418 -1.5791 0.8828
-29.1147 7.1762 -1.5207 0.8868
-29.4566 6.0136 -1.5247 0.8866
-45.9916 5.5844 -2.3496 0.8306
-46.1531 3.7259 -2.3482 0.8307
-33.8473 -4.1098 -2.5000 0.8722
-33.6544 -5.4694 -2.5000 0.8722
-32.7498 -9.4861 -2.5000 0.8722
-32.3412 -10.7971 -2.5000 0.8722
-31.8802 -12.0906 -2.5000 0.8722
-31.0011 -13.2083 -2.4708 0.8736
-28.9286 -13.7267 -2.3478 0.8795
-21.8508 -16.4198 -2.0041 0.8962
-20.0601 -16.3786 -1.8988 0.9013
-18.5947 -16.4735 -1.8215 0.9052
-10.2138 -16.1518 -1.4012 0.9262
-15.9584 -27.64072.1789 0 0.8798
-7.6359 -16.0924 -1.3060 0.9311
-6.8486 -16.0742 -1.2811 0.9323
-5.3549 -16.0399 -1.2399 0.9344
-3.9455 -16.0074 -1.2088 0.9360
-3.2647 -15.9917 -1.1967 0.9366
-2.5964 -15.9763 -1.1868 0.9371
-0.6420 -15.9313 -1.1691 0.9381
0.0000 -15.9165 -1.1670 0.9382
0.6408 -15.9017 -1.1669 0.9382
1.2825 -15.8870 -1.1687 0.9381
1.9272 -15.8721 -1.1723 0.9379
2.5770 -15.8571 -1.1779 0.9376
3.2246 -15.7952 -1.1820 0.9374
4.5797 -15.8110 -1.2069 0.9361
5.9840 -15.7787 -1.2373 0.9346
12.5625 -26.4749 -2.1486 0.8891
9.0688 -15.7076 -1.3299 0.9298
9.9215 -15.6897 -1.3611 0.9283
11.8988 -15.8345 -1.4523 0.9236
12.7555 -15.6227 -1.4788 0.9223
13.8694 -15.6553 -1.5336 0.9195
22.1715 -23.0830 -2.3468 0.8795
16.1827 -15.5437 -1.6452 0.9139
18.9593 -15.4798 -1.7947 0.9065
20.5511 -15.4431 -1.8849 0.9020
26.4005 -18.2230 -2.3521 0.8793
24.9237 -15.7608 -2.1622 0.8885
31.3676 -13.3645 -2.5000 0.8722
31.8803 -12.0906 -2.5000 0.8722
32.3413 -10.7971 -2.5000 0.8722
32.7498 -9.4861 -2.5000 0.8722
33.6544 -5.4694 -2.5000 0.8722
23.4161 0.9436 -1.7183 0.9103
33.9853 2.7436 -2.5000 0.8722
33.8473 4.1098 -2.5000 0.8722
33.6545 5.4694 -2.5000 0.8722
33.1053 8.1597 -2.5000 0.8722
19.1667 7.2690 -1.5030 0.9211
15.9231 7.5556 -1.2923 0.9318
14.5559 8.4039 -1.2324 0.9348
11.2402 8.4465 -1.0309 0.9452
10.3517 8.4519 -0.9799 0.9478
10.1754 9.0146 -0.9968 0.9469
10.0494 9.6526 -1.0217 0.9456
7.4963 8.4616 -0.8289 0.9557
6.9665 8.5325 -0.8077 0.9568
6.2558 9.0631 -0.8075 0.9568
3.3732 8.8944 -0.6975 0.9626
3.0544 9.1491 -0.7072 0.9621
1.9614 9.6078 -0.7190 0.9614
1.1760 9.6854 -0.7154 0.9616
0.3502 8.6904 -0.6377 0.9657
-0.3901 9.6811 -0.7104 0.9619
-1.5641 9.6241 -0.7149 0.9616
-2.4411 8.4275 -0.6433 0.9654
-3.9401 8.3036 -0.6739 0.9638
-15.6006 29.7244 -2.4614 0.8740
-16.7848 29.0721 -2.4614 0.8740
-19.0697 27.6272 -2.4614 0.8740
-21.2309 26.0032 -2.4614 0.8740
-22.2608 25.1272 -2.4614 0.8740
-23.2061 22.2898 -2.3593 0.8789
-10.1308 7.6128 -0.9292 0.9504
-25.9974 17.9447 -2.3162 0.8810
-28.2125 14.8070 -2.3362 0.8800
-28.8069 13.6690 -2.3379 0.8800
-29.1147 8.4332 -2.2225 0.8855
-31.6123 5.1375 -2.3483 0.8795
-33.3126 2.6893 -2.4505 0.8746
-25.9557 -2.0954 -2.5000 0.9006
-25.8503 -3.1388 -2.5000 0.9006
-25.7030 -4.1771 -2.5000 0.9006
-25.5139 -5.2087 -2.5000 0.9006
-25.0120 -7.2448 -2.5000 0.9006
-24.7000 -8.2461 -2.5000 0.9006
-24.3480 -9.2340 -2.5000 0.9006
-23.5260 -11.1632 -2.5000 0.9006
-23.0574 -12.1015 -2.5000 0.9006
-20.9089 -13.2220 -2.3750 0.9054
-20.1243 -13.8908 -2.3476 0.9064
-18.3106 -16.2218 -2.3485 0.9064
-17.6431 -16.9494 -2.3490 0.9064
-16.9617 -17.6590 -2.3507 0.9063
-14.3945 -16.2481 -2.0840 0.9165
-11.1639 -16.1737 -1.8867 0.9241
-10.2138 -16.1518 -1.8347 0.9261
-7.6359 -16.0924 -1.7101 0.9309
-5.5228 -22.4067 -2.2155 0.9114
-4.6298 -22.6781 -2.2221 0.9112
-1.2873 -15.9462 -1.5359 0.9377
-0.6420 -15.9313 -1.5307 0.9379
0.0000 -15.9165 -1.5281 0.9380
0.6408 -15.9017 -1.5279 0.9381
1.2825 -15.8870 -1.5302 0.9380
2.5770 -15.8571 -1.5423 0.9375
3.2246 -15.7952 -1.5477 0.9373
3.9009 -15.8266 -1.5649 0.9366
4.5797 -15.8110 -1.5803 0.9360
5.2732 -15.7950 -1.5987 0.9353
11.3647 -21.6537 -2.3478 0.9064
9.9245 -15.6943 -1.7827 0.9281
10.8144 -15.6674 -1.8277 0.9264
11.7569 -15.6457 -1.8789 0.9244
16.9727 -17.6705 -2.3523 0.9062
18.3033 -16.2152 -2.3476 0.9064
20.1242 -13.8907 -2.3476 0.9064
20.8833 -13.2058 -2.3721 0.9055
23.5260 -11.1632 -2.5000 0.9006
24.3479 -9.2340 -2.5000 0.9006
24.7000 -8.2461 -2.5000 0.9006
25.5139 -5.2087 -2.5000 0.9006
25.8503 -3.1388 -2.5000 0.9006
25.9557 -2.0954 -2.5000 0.9006
23.2726 -0.9379 -2.2361 0.9107
23.0543 0.0000 -2.2133 0.9115
23.2404 0.9366 -2.2330 0.9108
24.1361 3.9225 -2.3476 0.9064
23.9585 4.8912 -2.3476 0.9064
23.4873 6.8032 -2.3476 0.9064
23.1995 7.7451 -2.3481 0.9064
17.3495 7.3919 -1.8105 0.9270
15.8348 7.5137 -1.6827 0.9320
15.8337 8.3102 -1.7168 0.9307
13.0827 8.2730 -1.4861 0.9397
12.6323 8.7195 -1.4736 0.9402
10.0569 8.9096 -1.2899 0.9474
7.2759 8.2128 -1.0534 0.9569
6.7055 8.2128 -1.0179 0.9583
5.3004 8.3820 -0.9521 0.9609
3.9305 8.2833 -0.8802 0.9638
3.5847 8.4136 -0.8780 0.9639
3.56 -2.5000 0.9187
17.7880 -11.2484 -2.5000 0.9187
19.3620 -8.2494 -2.5000 0.9187
19.6785 -7.4630 -2.5000 0.9187
20.7736 -3.3760 -2.5000 0.9187
21.0291 -0.8474 -2.5000 0.9187
21.0461 0.0000 -2.5000 0.9187
21.0291 0.8475 -2.5000 0.9187
20.8927 2.5368 -2.5000 0.9187
19.5072 3.1702 -2.3476 0.9235
19.3638 3.9531 -2.3476 0.9235
19.1889 4.7296 -2.3476 0.9235
17.2832 5.0062 -2.1374 0.9301
15.0297 5.0177 -1.8821 0.9382
17.2491 9.9588 -2.3659 0.9229
16.8521 10.6566 -2.3685 0.9228
15.9728 12.0028 -2.3733 0.9227
15.4919 12.6487 -2.3757 0.9226
13.2908 15.0022 -2.3808 0.9224
12.6827 15.5335 -2.3821 0.9224
12.0535 16.0403 -2.3834 0.9224
11.4043 16.5219 -2.3847 0.9223
9.3461 17.8075 -2.3889 0.9222
7.1448 18.8392 -2.3934 0.9220
5.6129 19.3779 -2.3964 0.9219
4.0407 19.7926 -2.3996 0.9219
3.2426 19.9524 -2.4012 0.9218
1.6277 20.1637 -2.4029 0.9217
0.8146 20.2144 -2.4031 0.9217
-0.6974 17.3043 -2.0572 0.9326
-2.4381 20.0793 -2.4027 0.9218
-4.0443 19.8100 -2.4017 0.9218
-6.3963 19.1592 -2.3993 0.9219
-8.6468 18.2228 -2.3959 0.9220
-9.3683 17.8498 -2.3946 0.9220
-10.0733 17.4475 -2.3931 0.9221
-10.7607 17.0166 -2.3916 0.9221
-11.4292 16.5580 -2.3899 0.9222
-12.0777 16.0726 -2.3882 0.9222
-12.7053 15.5612 -2.3863 0.9223
-14.4513 13.8807 -2.3802 0.9225
-15.4911 12.6481 -2.3756 0.9226
-15.9715 12.0018 -2.3731 0.9227
-16.4245 11.3370 -2.3706 0.9228
-16.8495 10.6550 -2.3681 0.9228
-17.6129 9.2440 -2.3628 0.9230
-11.7099 4.9892 -1.5120 0.9500
-13.1677 4.9939 -1.6728 0.9449
-19.3640 3.9532 -2.3476 0.9235
-20.8927 2.5368 -2.5000 0.9187
-20.9779 1.6935 -2.5000 0.9187
-21.0291 0.8474 -2.5000 0.9187
-17.6441 0.0000 -2.5000 0.9312
-17.6298 -0.7104 -2.5000 0.9312
-17.5869 -1.4197 -2.5000 0.9312
-17.4157 -2.8303 -2.5000 0.9312
-16.7361 -5.5873 -2.5000 0.9312
-16.4976 -6.2567 -2.5000 0.9312
-16.2322 -6.9159 -2.5000 0.9312
-15.6231 -8.1996 -2.5000 0.9312
-15.2803 -8.8221 -2.5000 0.9312
-14.9126 -9.4302 -2.5000 0.9312
-14.5208 -10.0230 -2.5000 0.9312
-14.1055 -10.5996 -2.5000 0.9312
-13.2068 -11.7002 -2.5000 0.9312
-12.7250 -12.2225 -2.5000 0.9312
-9.3648 -14.8093 -2.4827 0.9317
-7.1028 -14.9688 -2.3476 0.9353
-6.4943 -15.2427 -2.3476 0.9353
-4.6097 -15.9144 -2.3476 0.9353
-3.9651 -16.0871 -2.3476 0.9353
-2.6578 -16.3540 -2.3476 0.9353
-0.6672 -16.5551 -2.3476 0.9353
-0.0000 -16.5685 -2.3476 0.9353
0.6671 -16.5551 -2.3476 0.9353
1.3332 -16.5148 -2.3476 0.9353
2.6578 -16.3540 -2.3476 0.9353
3.9651 -16.0871 -2.3476 0.9353
4.6096 -15.9144 -2.3476 0.9353
6.4943 -15.2427 -2.3476 0.9353
8.2843 -14.3488 -2.3476 0.9353
9.4120 -13.6356 -2.3476 0.9353
9.9534 -13.2456 -2.3476 0.9353
11.6807 -13.1848 -2.4958 0.9313
12.2225 -12.7250 -2.5000 0.9312
14.5208 -10.0230 -2.5000 0.9312
15.6231 -8.1996 -2.5000 0.9312
16.2322 -6.9159 -2.5000 0.9312
16.4975 -6.2567 -2.5000 0.9312
17.1314 -4.2225 -2.5000 0.9312
17.2876 -3.5293 -2.5000 0.9312
17.4156 -2.8303 -2.5000 0.9312
17.6298 -0.7104 -2.5000 0.9312
17.6441 0.0000 -2.5000 0.9312
17.5869 1.4198 -2.5000 0.9312
16.7456 2.7214 -2.4038 0.9338
16.2337 3.3141 -2.3476 0.9353
16.0871 3.9651 -2.3476 0.9353
15.9144 4.6097 -2.3476 0.9353
15.0295 5.0176 -2.2451 0.9380
13.1898 5.0023 -1.9988 0.9446
13.7321 9.4786 -2.3642 0.9348
12.9465 10.5705 -2.3682 0.9347
12.5204 11.0921 -2.3700 0.9347
10.6097 12.9946 -2.3769 0.9345
9.5418 13.8236 -2.3800 0.9344
8.9826 14.2049 -2.3813 0.9344
7.2159 15.2072 -2.3850 0.9343
5.9738 15.7516 -2.3869 0.9342
3.3737 16.5253 -2.3898 0.9341
2.0337 16.7489 -2.3906 0.9341
1.3578 16.8190 -2.3908 0.9341
0.0000 16.8752 -2.3910 0.9341
-0.6795 16.8612 -2.3910 0.9341
-2.0337 16.7490 -2.3906 0.9341
-2.7061 16.6511 -2.3902 0.9341
-3.3737 16.5255 -2.3898 0.9341
-4.0354 16.3724 -2.3892 0.9341
-5.3367 15.9852 -2.3878 0.9342
-5.8088 15.3165 -2.3210 0.9360
-6.6007 15.4924 -2.3860 0.9342
-8.4081 14.5633 -2.3827 0.9343
-8.9828 14.2052 -2.3814 0.9344
-9.5420 13.8239 -2.3800 0.9344
-10.0847 13.4203 -2.3785 0.9344
-10.6100 12.9949 -2.3770 0.9345
-12.5204 11.0921 -2.3700 0.9347
-12.9461 10.5702 -2.3681 0.9347
-14.0887 8.9091 -2.3618 0.9349
-14.7323 7.7321 -2.3574 0.9350
-10.4513 4.9592 -1.6391 0.9543
-13.2474 5.0241 -2.0075 0.9444
-15.9144 4.6097 -2.3476 0.9353
-16.0871 3.9651 -2.3476 0.9353
-16.6177 2.7006 -2.3854 0.9342
-17.5155 2.1268 -2.5000 0.9312
-17.5869 1.4198 -2.5000 0.9312
-15.1262 -1.2211 -2.5000 0.9403
-15.0648 -1.8292 -2.5000 0.9403
-14.9789 -2.4343 -2.5000 0.9403
-14.8687 -3.0355 -2.5000 0.9403
-14.1892 -5.3813 -2.5000 0.9403
-13.9611 -5.9482 -2.5000 0.9403
-13.4372 -7.0524 -2.5000 0.9403
-12.4891 -8.6206 -2.5000 0.9403
-12.1319 -9.1165 -2.5000 0.9403
-11.7550 -9.5976 -2.5000 0.9403
-10.9446 -10.5124 -2.5000 0.9403
-10.5124 -10.9445 -2.5000 0.9403
-9.5976 -11.7549 -2.5000 0.9403
-8.1108 -12.8261 -2.5000 0.9403
-7.0161 -13.3681 -2.4871 0.9406
-5.6330 -13.2211 -2.3675 0.9434
-4.5126 -13.5169 -2.3476 0.9439
-3.9647 -13.6877 -2.3476 0.9439
-3.4103 -13.8362 -2.3476 0.9439
-1.7177 -14.1464 -2.3476 0.9439
-0.5738 -14.2387 -2.3476 0.9439
0.5738 -14.2387 -2.3476 0.9439
1.1467 -14.2041 -2.3476 0.9439
2.8504 -13.9623 -2.3476 0.9439
3.9647 -13.6877 -2.3476 0.9439
5.6295 -13.2132 -2.3661 0.9434
9.1165 -12.1319 -2.5000 0.9403
9.5976 -11.7549 -2.5000 0.9403
10.0631 -11.3589 -2.5000 0.9403
11.3589 -10.0631 -2.5000 0.9403
11.7550 -9.5976 -2.5000 0.9403
12.1319 -9.1165 -2.5000 0.9403
13.7102 -6.5056 -2.5000 0.9403
13.9610 -5.9482 -2.5000 0.9403
14.1893 -5.3813 -2.5000 0.9403
14.5762 -4.2221 -2.5000 0.9403
14.7344 -3.6317 -2.5000 0.9403
14.8687 -3.0355 -2.5000 0.9403
14.9789 -2.4343 -2.5000 0.9403
6.5263 -0.5268 -1.0786 0.9738
6.3531 0.0000 -1.0466 0.9746
6.4042 0.2581 -1.0559 0.9744
15.1262 1.2211 -2.5000 0.9403
15.0647 1.8292 -2.5000 0.9403
14.9789 2.4343 -2.5000 0.9403
13.9623 2.8504 -2.3476 0.9439
13.5169 4.5126 -2.3476 0.9439
13.1369 4.9822 -2.3146 0.9446
10.5075 4.9859 -1.9160 0.9539
9.5196 4.9963 -1.7711 0.9574
12.3841 7.1500 -2.3558 0.9437
11.4577 8.6099 -2.3611 0.9436
11.1095 9.0707 -2.3627 0.9435
10.7426 9.5172 -2.3643 0.9435
9.9549 10.3642 -2.3674 0.9434
9.5353 10.7632 -2.3689 0.9434
9.0995 11.1449 -2.3702 0.9433
8.6482 11.5087 -2.3716 0.9433
8.1821 11.8538 -2.3728 0.9433
6.1858 13.0364 -2.3771 0.9432
4.5740 13.7008 -2.3795 0.9431
3.4585 14.0315 -2.3807 0.9431
2.8912 14.1622 -2.3812 0.9431
1.7428 14.3531 -2.3819 0.9431
1.1635 14.4130 -2.3821 0.9431
0.5823 14.4490 -2.3822 0.9431
-0.0000 14.4610 -2.3823 0.9431
-1.1635 14.4130 -2.3821 0.9431
-1.7428 14.3532 -2.3819 0.9431
-4.5741 13.7010 -2.3795 0.9431
-5.1205 13.5016 -2.3788 0.9431
-6.1859 13.0365 -2.3771 0.9432
-6.7031 12.7717 -2.3762 0.9432
-8.1823 11.8541 -2.3729 0.9433
-8.6484 11.5089 -2.3716 0.9433
-9.0997 11.1451 -2.3703 0.9433
-9.9552 10.3644 -2.3675 0.9434
-11.4571 8.6095 -2.3609 0.9436
-7.1403 4.9287 -1.4293 0.9654
-7.8074 4.9371 -1.5218 0.9632
-12.3826 7.1491 -2.3555 0.9437
-12.6502 6.6393 -2.3536 0.9437
-13.1677 4.9939 -2.3200 0.9445
-13.6877 3.9647 -2.3476 0.9439
-13.9623 2.8504 -2.3476 0.9439
-15.1631 0.6111 -2.5000 0.9403
-13.3006 0.0000 -2.5000 0.9473
-13.2898 -0.5356 -2.5000 0.9473
-13.2036 -1.6032 -2.5000 0.9473
-12.9141 -3.1830 -2.5000 0.9473
-12.6161 -4.2118 -2.5000 0.9473
-12.0164 -5.7019 -2.5000 0.9473
-11.5186 -6.6503 -2.5000 0.9473
-10.6330 -7.9902 -2.5000 0.9473
-9.9556 -8.8199 -2.5000 0.9473
-9.5924 -9.2136 -2.5000 0.9473
-9.2136 -9.5924 -2.5000 0.9473
-8.8199 -9.9556 -2.5000 0.9473
-8.4119 -10.3027 -2.5000 0.9473
-6.6503 -11.5186 -2.5000 0.9473
-6.1811 -11.7771 -2.5000 0.9473
-5.2134 -12.2362 -2.5000 0.9473
-4.2119 -12.6161 -2.5000 0.9473
-3.7004 -12.7754 -2.5000 0.9473
-3.1830 -12.9141 -2.5000 0.9473
-2.1336 -13.1283 -2.5000 0.9473
-1.6020 -13.1939 -2.4982 0.9473
-1.0652 -13.1954 -2.4883 0.9475
-0.5318 -13.1961 -2.4824 0.9477
-0.0000 -13.1961 -2.4803 0.9477
1.0651 -13.1939 -2.4880 0.9476
1.6018 -13.1917 -2.4977 0.9474
2.1336 -13.1283 -2.5000 0.9473
3.1830 -12.9141 -2.5000 0.9473
3.7004 -12.7754 -2.5000 0.9473
5.2144 -12.2362 -2.5000 0.9473
7.1087 -11.2415 -2.5000 0.9473
7.5556 -10.9461 -2.5000 0.9473
8.4119 -10.3027 -2.5000 0.9473
9.2136 -9.5924 -2.5000 0.9473
9.5924 -9.2136 -2.5000 0.9473
10.3027 -8.4119 -2.5000 0.9473
10.9461 -7.5556 -2.5000 0.9473
11.2415 -7.1087 -2.5000 0.9473
11.5186 -6.6503 -2.5000 0.9473
12.4362 -4.7164 -2.5000 0.9473
12.6161 -4.2119 -2.5000 0.9473
12.7754 -3.7004 -2.5000 0.9473
6.0750 -0.4904 -1.1456 0.9755
5.9158 0.0000 -1.1119 0.9762
13.2574 1.0703 -2.5000 0.9473
13.2036 1.6032 -2.5000 0.9473
13.1283 2.1336 -2.5000 0.9473
11.9966 3.4749 -2.3476 0.9504
11.8470 3.9551 -2.3476 0.9504
11.4903 4.8956 -2.3476 0.9504
9.5195 4.9962 -2.0207 0.9572
10.8392 6.2581 -2.3525 0.9503
10.0255 7.5337 -2.3572 0.9502
6.0864 4.9695 -1.4769 0.9685
9.3983 8.3262 -2.3600 0.9502
9.0606 8.7029 -2.3614 0.9502
8.3401 9.4140 -2.3640 0.9501
7.9583 9.7472 -2.3652 0.9501
7.5630 10.0646 -2.3663 0.9501
6.3030 10.9171 -2.3694 0.9500
5.4081 11.3972 -2.3712 0.9500
4.9463 11.6096 -2.3719 0.9499
4.4762 11.8028 -2.3726 0.9499
3.9984 11.9766 -2.3733 0.9499
3.5137 12.1308 -2.3738 0.9499
3.0230 12.2649 -2.3743 0.9499
2.0270 12.4724 -2.3751 0.9499
1.5233 12.5453 -2.3753 0.9499
1.0170 12.5975 -2.3755 0.9499
0.5089 12.6288 -2.3756 0.9499
-0.5089 12.6288 -2.3756 0.9499
-1.5233 12.5453 -2.3753 0.9499
-2.0270 12.4724 -2.3751 0.9499
-3.0231 12.2650 -2.3743 0.9499
-3.9984 11.9767 -2.3733 0.9499
-5.4081 11.3974 -2.3712 0.9500
-5.8606 11.1664 -2.3704 0.9500
-7.1551 10.3659 -2.3675 0.9500
-7.5632 10.0648 -2.3664 0.9500
-8.3402 9.4142 -2.3640 0.9501
-8.7079 9.0659 -2.3628 0.9501
-9.0608 8.7031 -2.3614 0.9502
-9.3984 8.3262 -2.3601 0.9502
-6.0378 4.9297 -1.4651 0.9688
-11.8470 3.9551 -2.3476 0.9504
-11.9966 3.4749 -2.3476 0.9504
-13.0318 2.6605 -2.5000 0.9473
-13.1283 2.1336 -2.5000 0.9473
-13.2036 1.6032 -2.5000 0.9473
-13.2898 0.5356 -2.5000 0.9473
-11.8270 -0.0000 -2.5000 0.9528
-11.8174 -0.4762 -2.5000 0.9528
-11.7886 -0.9517 -2.5000 0.9528
-11.6738 -1.8972 -2.5000 0.9528
-10.8806 -4.6358 -2.5000 0.9528
-10.6851 -5.0701 -2.5000 0.9528
-10.4723 -5.4963 -2.5000 0.9528
-10.2425 -5.9135 -2.5000 0.9528
-9.7334 -6.7185 -2.5000 0.9528
-9.4550 -7.1050 -2.5000 0.9528
-8.5296 -8.1928 -2.5000 0.9528
-8.1928 -8.5296 -2.5000 0.9528
-7.4799 -9.1612 -2.5000 0.9528
-7.1050 -9.4550 -2.5000 0.9528
-6.7185 -9.7334 -2.5000 0.9528
-5.0701 -10.6851 -2.5000 0.9528
-4.6358 -10.8806 -2.5000 0.9528
-3.7452 -11.2183 -2.5000 0.9528
-3.2905 -11.3600 -2.5000 0.9528
-1.8972 -11.6738 -2.5000 0.9528
-1.4256 -11.7407 -2.5000 0.9528
-0.4762 -11.8174 -2.5000 0.9528
0.9517 -11.7886 -2.5000 0.9528
2.3657 -11.5879 -2.5000 0.9528
4.1939 -11.0584 -2.5000 0.9528
4.6358 -10.8806 -2.5000 0.9528
5.9135 -10.2424 -2.5000 0.9528
6.3211 -9.9960 -2.5000 0.9528
6.7185 -9.7334 -2.5000 0.9528
7.1049 -9.4550 -2.5000 0.9528
7.4799 -9.1612 -2.5000 0.9528
8.1928 -8.5296 -2.5000 0.9528
9.1612 -7.4799 -2.5000 0.9528
9.4550 -7.1050 -2.5000 0.9528
10.4723 -5.4962 -2.5000 0.9528
11.0584 -4.1939 -2.5000 0.9528
11.2183 -3.7452 -2.5000 0.9528
11.3600 -3.2905 -2.5000 0.9528
11.4833 -2.8304 -2.5000 0.9528
11.6738 -1.8972 -2.5000 0.9528
5.7186 -0.2304 -1.2098 0.9769
5.7193 0.0000 -1.2090 0.9769
5.7351 0.2311 -1.2133 0.9768
5.7581 0.4648 -1.2211 0.9767
11.7407 1.4256 -2.5000 0.9528
11.6738 1.8972 -2.5000 0.9528
11.0268 2.7179 -2.4006 0.9546
10.5345 3.5169 -2.3476 0.9556
10.3843 3.9382 -2.3476 0.9556
9.5193 4.9962 -2.2725 0.9570
7.2048 4.9731 -1.8505 0.9648
8.9033 6.6904 -2.3541 0.9555
8.3451 7.3931 -2.3567 0.9554
5.1706 4.9665 -1.5155 0.9711
7.7309 8.0487 -2.3590 0.9554
4.3976 4.9639 -1.4018 0.9733
6.7135 8.9341 -2.3622 0.9553
5.9776 9.4528 -2.3641 0.9553
3.5481 10.6278 -2.3684 0.9552
0.4516 11.2053 -2.3705 0.9552
-0.0000 11.2145 -2.3705 0.9552
-0.9023 11.1775 -2.3704 0.9552
-1.3516 11.1313 -2.3702 0.9552
-1.7985 11.0668 -2.3700 0.9552
-3.5481 10.6279 -2.3684 0.9552
-3.9722 10.4739 -2.3678 0.9552
-4.3896 10.3028 -2.3672 0.9552
-5.2013 9.9102 -2.3658 0.9553
-6.3510 9.2010 -2.3632 0.9553
-7.4042 8.3576 -2.3602 0.9554
-7.7311 8.0489 -2.3591 0.9554
-5.1354 4.9327 -1.5052 0.9713
-7.1403 4.9287 -1.8340 0.9652
-10.3843 3.9382 -2.3476 0.9556
-10.5344 3.5169 -2.3476 0.9556
-11.5880 2.3657 -2.5000 0.9528
-11.7886 0.9517 -2.5000 0.9528
-10.6372 0.0000 -2.5000 0.9572
-10.4222 -2.1277 -2.5000 0.9572
-10.3281 -2.5456 -2.5000 0.9572
-9.9459 -3.7720 -2.5000 0.9572
-9.7860 -4.1694 -2.5000 0.9572
-9.6102 -4.5601 -2.5000 0.9572
-9.4188 -4.9433 -2.5000 0.9572
-8.9904 -5.6852 -2.5000 0.9572
-8.5038 -6.3902 -2.5000 0.9572
-8.2396 -6.7274 -2.5000 0.9572
-7.6716 -7.3686 -2.5000 0.9572
-7.3687 -7.6715 -2.5000 0.9572
-7.0538 -7.9621 -2.5000 0.9572
-6.7275 -8.2396 -2.5000 0.9572
-6.3902 -8.5038 -2.5000 0.9572
-6.0426 -8.7542 -2.5000 0.9572
-4.1694 -9.7860 -2.5000 0.9572
-2.5457 -10.3281 -2.5000 0.9572
-2.1277 -10.4222 -2.5000 0.9572
-1.7063 -10.4994 -2.5000 0.9572
-1.2822 -10.5596 -2.5000 0.9572
0.4283 -10.6286 -2.5000 0.9572
0.8559 -10.6027 -2.5000 0.9572
1.2822 -10.5596 -2.5000 0.9572
2.1277 -10.4222 -2.5000 0.9572
2.5457 -10.3281 -2.5000 0.9572
2.9595 -10.2172 -2.5000 0.9572
3.7720 -9.9459 -2.5000 0.9572
4.1694 -9.7860 -2.5000 0.9572
4.5601 -9.6102 -2.5000 0.9572
4.9433 -9.4187 -2.5000 0.9572
5.3186 -9.2121 -2.5000 0.9572
5.6852 -8.9904 -2.5000 0.9572
6.3902 -8.5038 -2.5000 0.9572
6.7274 -8.2396 -2.5000 0.9572
7.6716 -7.3686 -2.5000 0.9572
7.9620 -7.0538 -2.5000 0.9572
8.2396 -6.7274 -2.5000 0.9572
8.7542 -6.0426 -2.5000 0.9572
9.4188 -4.9433 -2.5000 0.9572
9.6102 -4.5601 -2.5000 0.9572
9.7860 -4.1694 -2.5000 0.9572
9.9459 -3.7720 -2.5000 0.9572
10.2172 -2.9595 -2.5000 0.9572
10.3281 -2.5456 -2.5000 0.9572
10.4222 -2.1277 -2.5000 0.9572
10.4994 -1.7063 -2.5000 0.9572
6.2581 -0.7599 -1.4816 0.9744
10.4994 1.7063 -2.5000 0.9572
10.4222 2.1277 -2.5000 0.9572
9.1894 3.9153 -2.3476 0.9598
9.0243 4.2821 -2.3476 0.9598
8.6013 4.9660 -2.3342 0.9600
7.8677 4.9753 -2.1878 0.9625
7.2047 4.9731 -2.0575 0.9647
6.0864 4.9695 -1.8467 0.9682
7.4969 6.6417 -2.3539 0.9597
5.1584 4.9547 -1.6810 0.9710
4.3976 4.9639 -1.5586 0.9731
5.3683 8.4893 -2.3606 0.9596
3.5667 9.4048 -2.3640 0.9595
3.1858 9.5428 -2.3645 0.9595
2.4085 9.7716 -2.3653 0.9595
1.6148 9.9363 -2.3659 0.9595
-0.0000 10.0687 -2.3664 0.9595
-2.4085 9.7717 -2.3653 0.9595
-2.7996 9.6652 -2.3649 0.9595
-3.1859 9.5429 -2.3645 0.9595
-3.5668 9.4048 -2.3640 0.9595
-3.9417 9.2514 -2.3634 0.9595
-4.3099 9.0829 -2.3628 0.9595
-4.6708 8.8995 -2.3621 0.9595
-5.0238 8.7015 -2.3614 0.9596
-6.6506 7.5070 -2.3571 0.9596
-6.9446 7.2300 -2.3561 0.9596
-5.1233 4.9210 -1.6696 0.9712
-7.9991 6.0109 -2.3516 0.9597
-7.1403 4.9287 -2.0391 0.9650
-7.8074 4.9371 -2.1710 0.9628
-8.8446 4.6420 -2.3476 0.9598
-9.4747 3.1631 -2.3476 0.9598
-10.6027 0.8559 -2.5000 0.9572
-10.6286 0.4283 -2.5000 0.9572
-9.6477 -0.3888 -2.5000 0.9609
-9.5851 -1.1638 -2.5000 0.9609
-9.5305 -1.5488 -2.5000 0.9609
-9.4604 -1.9313 -2.5000 0.9609
-9.2743 -2.6863 -2.5000 0.9609
-9.1586 -3.0576 -2.5000 0.9609
-8.5496 -4.4871 -2.5000 0.9609
-8.3619 -4.8277 -2.5000 0.9609
-7.4792 -6.1066 -2.5000 0.9609
-7.2273 -6.4028 -2.5000 0.9609
-6.9636 -6.6886 -2.5000 0.9609
-6.6886 -6.9636 -2.5000 0.9609
-5.8005 -7.7190 -2.5000 0.9609
-5.4850 -7.9463 -2.5000 0.9609
-4.8278 -8.3619 -2.5000 0.9609
-4.4871 -8.5495 -2.5000 0.9609
-3.4239 -9.0281 -2.5000 0.9609
-3.0576 -9.1586 -2.5000 0.9609
-2.6863 -9.2743 -2.5000 0.9609
-0.3888 -9.6477 -2.5000 0.9609
0.3888 -9.6477 -2.5000 0.9609
0.7770 -9.6242 -2.5000 0.9609
1.5488 -9.5305 -2.5000 0.9609
1.9314 -9.4604 -2.5000 0.9609
2.3107 -9.3749 -2.5000 0.9609
3.7846 -8.8829 -2.5000 0.9609
4.4871 -8.5495 -2.5000 0.9609
4.8278 -8.3619 -2.5000 0.9609
5.1605 -8.1607 -2.5000 0.9609
5.4850 -7.9463 -2.5000 0.9609
5.8005 -7.7190 -2.5000 0.9609
6.4028 -7.2272 -2.5000 0.9609
6.6886 -6.9636 -2.5000 0.9609
6.9636 -6.6886 -2.5000 0.9609
7.4792 -6.1066 -2.5000 0.9609
7.7190 -5.8005 -2.5000 0.9609
8.1607 -5.1605 -2.5000 0.9609
8.3619 -4.8277 -2.5000 0.9609
8.5495 -4.4871 -2.5000 0.9609
8.7233 -4.1392 -2.5000 0.9609
9.1586 -3.0576 -2.5000 0.9609
9.2743 -2.6863 -2.5000 0.9609
9.3749 -2.3107 -2.5000 0.9609
9.5305 -1.5488 -2.5000 0.9609
5.4996 -0.6678 -1.4344 0.9774
5.4121 0.0000 -1.4013 0.9779
5.4200 0.2184 -1.4045 0.9778
6.0760 0.7378 -1.5848 0.9750
9.4604 1.9314 -2.5000 0.9609
9.3749 2.3107 -2.5000 0.9609
9.2743 2.6863 -2.5000 0.9609
8.4777 3.2152 -2.3476 0.9632
8.3414 3.5539 -2.3476 0.9632
8.1915 3.8869 -2.3476 0.9632
7.6627 4.8456 -2.3474 0.9632
6.0864 4.9695 -2.0345 0.9681
6.7985 6.0230 -2.3517 0.9632
6.2970 6.5559 -2.3536 0.9631
4.3976 4.9639 -1.7171 0.9730
3.7285 4.9617 -1.6070 0.9747
4.8669 7.6965 -2.3578 0.9631
3.5731 8.3864 -2.3603 0.9630
1.8794 4.9557 -1.3723 0.9783
2.1831 8.8574 -2.3620 0.9630
0.3675 9.1188 -2.3629 0.9630
-0.0000 9.1263 -2.3630 0.9630
-0.3675 9.1188 -2.3629 0.9630
-1.0999 9.0588 -2.3627 0.9630
-1.4637 9.0065 -2.3625 0.9630
-2.1832 8.8575 -2.3620 0.9630
-2.5377 8.7611 -2.3616 0.9630
-3.2333 8.5254 -2.3608 0.9630
-2.6040 4.9616 -1.4508 0.9771
-3.1234 4.9393 -1.5131 0.9761
-5.1714 7.4920 -2.3570 0.9631
-4.0208 4.9246 -1.6461 0.9741
-6.7987 6.0231 -2.3517 0.9632
-6.0378 4.9297 -2.0182 0.9683
-7.2547 5.4515 -2.3496 0.9632
-7.6633 4.8460 -2.3476 0.9632
-7.8522 4.5335 -2.3476 0.9632
-8.1915 3.8869 -2.3476 0.9632
-8.3414 3.5539 -2.3476 0.9632
-9.2696 2.6850 -2.4987 0.9609
-9.3750 2.3107 -2.5000 0.9609
-9.4604 1.9314 -2.5000 0.9609
-9.5851 1.1639 -2.5000 0.9609
-9.6242 0.7770 -2.5000 0.9609
-8.8310 0.0000 -2.5000 0.9640
-8.8023 -0.7106 -2.5000 0.9640
-8.7666 -1.0645 -2.5000 0.9640
-8.7166 -1.4166 -2.5000 0.9640
-8.4823 -2.4569 -2.5000 0.9640
-8.3765 -2.7965 -2.5000 0.9640
-8.2571 -3.1315 -2.5000 0.9640
-7.9784 -3.7858 -2.5000 0.9640
-7.8195 -4.1039 -2.5000 0.9640
-6.6101 -5.8560 -2.5000 0.9640
-5.5851 -6.8405 -2.5000 0.9640
-5.3052 -7.0598 -2.5000 0.9640
-5.0166 -7.2677 -2.5000 0.9640
-4.7199 -7.4638 -2.5000 0.9640
-4.1040 -7.8194 -2.5000 0.9640
-3.7858 -7.9783 -2.5000 0.9640
-3.4614 -8.1243 -2.5000 0.9640
-2.7965 -8.3765 -2.5000 0.9640
-2.1134 -8.5743 -2.5000 0.9640
-1.7664 -8.6525 -2.5000 0.9640
-1.4166 -8.7166 -2.5000 0.9640
-0.3556 -8.8238 -2.5000 0.9640
0.3556 -8.8238 -2.5000 0.9640
0.7106 -8.8023 -2.5000 0.9640
1.4166 -8.7166 -2.5000 0.9640
2.1134 -8.5744 -2.5000 0.9640
2.7965 -8.3765 -2.5000 0.9640
3.1315 -8.2571 -2.5000 0.9640
3.7858 -7.9783 -2.5000 0.9640
5.3051 -7.0599 -2.5000 0.9640
5.5851 -6.8405 -2.5000 0.9640
6.3689 -6.1174 -2.5000 0.9640
6.8405 -5.5851 -2.5000 0.9640
7.4638 -4.7199 -2.5000 0.9640
7.6478 -4.4155 -2.5000 0.9640
8.1243 -3.4614 -2.5000 0.9640
8.5743 -2.1134 -2.5000 0.9640
5.2839 -0.2129 -1.4971 0.9783
5.2895 0.0000 -1.4974 0.9783
8.7166 1.4166 -2.5000 0.9640
8.6526 1.7664 -2.5000 0.9640
8.4823 2.4569 -2.5000 0.9640
8.1218 2.7115 -2.4240 0.9650
7.7537 2.9406 -2.3476 0.9661
7.4920 3.5550 -2.3476 0.9661
7.3428 3.8538 -2.3476 0.9661
7.1816 4.1463 -2.3476 0.9661
7.0089 4.4321 -2.3476 0.9661
6.8247 4.7108 -2.3476 0.9661
5.1706 4.9665 -2.0296 0.9706
3.7285 4.9617 -1.7570 0.9745
3.4160 4.9490 -1.7024 0.9753
3.1289 4.9481 -1.6573 0.9760
1.2209 4.9535 -1.4443 0.9790
1.3371 8.2275 -2.3597 0.9659
1.0048 8.2753 -2.3599 0.9659
0.1995 4.9502 -1.4025 0.9796
-0.0000 8.3368 -2.3601 0.9659
-0.3357 8.3300 -2.3601 0.9659
-0.6007 4.9475 -1.4109 0.9795
-1.4323 4.9448 -1.4574 0.9788
-1.6506 4.9441 -1.4756 0.9786
-2.1058 4.9426 -1.5209 0.9779
-2.6041 4.9617 -1.5863 0.9770
-2.8522 4.9402 -1.6149 0.9766
-3.1160 4.9276 -1.6505 0.9761
-4.9953 6.6476 -2.3540 0.9660
-5.2573 6.4390 -2.3532 0.9660
-5.5104 6.2200 -2.3524 0.9660
-5.7544 5.9909 -2.3516 0.9661
-5.1354 4.9327 -2.0158 0.9708
-6.8247 4.7108 -2.3476 0.9661
-7.0088 4.4321 -2.3476 0.9661
-7.4920 3.5550 -2.3476 0.9661
-8.0915 2.7014 -2.4149 0.9652
-8.4823 2.4569 -2.5000 0.9640
-8.6525 1.7664 -2.5000 0.9640
-8.7666 1.0645 -2.5000 0.9640
-8.8023 0.7106 -2.5000 0.9640
-8.8238 0.3556 -2.5000 0.9640
-7.9637 -1.6258 -2.5000 0.9666
-7.8918 -1.9451 -2.5000 0.9666
-7.5998 -2.8822 -2.5000 0.9666
-7.4776 -3.1859 -2.5000 0.9666
-7.3432 -3.4844 -2.5000 0.9666
-7.0390 -4.0640 -2.5000 0.9666
-6.8697 -4.3441 -2.5000 0.9666
-6.4978 -4.8828 -2.5000 0.9666
-6.0839 -5.3898 -2.5000 0.9666
-5.3898 -6.0838 -2.5000 0.9666
-5.1405 -6.2959 -2.5000 0.9666
-4.8828 -6.4978 -2.5000 0.9666
-4.3441 -6.8697 -2.5000 0.9666
-3.1859 -7.4775 -2.5000 0.9666
-2.8822 -7.5998 -2.5000 0.9666
-2.5739 -7.7096 -2.5000 0.9666
-1.6259 -7.9637 -2.5000 0.9666
-1.3038 -8.0227 -2.5000 0.9666
-0.9797 -8.0687 -2.5000 0.9666
-0.3273 -8.1213 -2.5000 0.9666
0.6540 -8.1016 -2.5000 0.9666
0.9797 -8.0687 -2.5000 0.9666
1.6258 -7.9637 -2.5000 0.9666
1.9451 -7.8918 -2.5000 0.9666
2.2613 -7.8071 -2.5000 0.9666
2.5738 -7.7097 -2.5000 0.9666
2.8822 -7.5998 -2.5000 0.9666
3.1859 -7.4775 -2.5000 0.9666
3.7772 -7.1969 -2.5000 0.9666
4.3441 -6.8696 -2.5000 0.9666
4.6172 -6.6892 -2.5000 0.9666
5.3898 -6.0838 -2.5000 0.9666
6.0839 -5.3898 -2.5000 0.9666
6.2959 -5.1405 -2.5000 0.9666
6.6892 -4.6172 -2.5000 0.9666
6.8697 -4.3441 -2.5000 0.9666
7.0390 -4.0640 -2.5000 0.9666
7.1969 -3.7772 -2.5000 0.9666
7.5998 -2.8822 -2.5000 0.9666
8.0227 -1.3038 -2.5000 0.9666
5.2176 -0.2102 -1.6061 0.9784
5.2196 0.0000 -1.6054 0.9784
5.2325 0.2109 -1.6107 0.9783
8.0227 1.3038 -2.5000 0.9666
7.9637 1.6258 -2.5000 0.9666
7.1800 2.7230 -2.3619 0.9684
7.0217 2.9917 -2.3476 0.9686
6.6099 3.8162 -2.3476 0.9686
6.2814 4.3357 -2.3476 0.9686
4.3976 4.9639 -2.0398 0.9726
3.4241 4.9607 -1.8540 0.9751
2.8630 4.9589 -1.7612 0.9763
2.1316 7.3591 -2.3565 0.9684
1.2209 4.9535 -1.5692 0.9789
1.2294 7.5648 -2.3573 0.9684
-0.0000 4.9495 -1.5224 0.9795
-1.8338 7.4399 -2.3568 0.9684
-1.4323 4.9448 -1.5834 0.9787
-2.7161 7.1616 -2.3558 0.9685
-4.8349 5.9217 -2.3514 0.9685
-5.0678 5.7204 -2.3506 0.9685
-5.1354 4.9327 -2.1901 0.9706
-5.7146 5.0627 -2.3482 0.9686
-5.9122 4.8271 -2.3476 0.9686
-6.2814 4.3358 -2.3476 0.9686
-6.4509 4.0793 -2.3476 0.9686
-6.6099 3.8162 -2.3476 0.9686
-6.7582 3.5470 -2.3476 0.9686
-7.7097 2.5739 -2.5000 0.9666
-7.8071 2.2613 -2.5000 0.9666
-7.8918 1.9452 -2.5000 0.9666
-7.9637 1.6258 -2.5000 0.9666
-8.0687 0.9797 -2.5000 0.9666
-8.1214 0.3273 -2.5000 0.9666
-7.5209 0.0000 -2.5000 0.9688
-7.5148 -0.3028 -2.5000 0.9688
-7.4661 -0.9065 -2.5000 0.9688
-7.2239 -2.0924 -2.5000 0.9688
-7.1338 -2.3816 -2.5000 0.9688
-6.9191 -2.9479 -2.5000 0.9688
-6.6594 -3.4951 -2.5000 0.9688
-6.5133 -3.7604 -2.5000 0.9688
-6.3566 -4.0196 -2.5000 0.9688
-6.1896 -4.2723 -2.5000 0.9688
-6.0125 -4.5181 -2.5000 0.9688
-5.4241 -5.2099 -2.5000 0.9688
-5.2099 -5.4241 -2.5000 0.9688
-4.9873 -5.6295 -2.5000 0.9688
-4.7565 -5.8257 -2.5000 0.9688
-3.7604 -6.5133 -2.5000 0.9688
-3.4951 -6.6594 -2.5000 0.9688
-2.9479 -6.9191 -2.5000 0.9688
-2.3816 -7.1338 -2.5000 0.9688
-2.0925 -7.2239 -2.5000 0.9688
-0.6052 -7.4965 -2.5000 0.9688
0.0000 -7.5209 -2.5000 0.9688
0.3028 -7.5148 -2.5000 0.9688
0.9065 -7.4661 -2.5000 0.9688
1.5044 -7.3689 -2.5000 0.9688
1.7999 -7.3023 -2.5000 0.9688
2.0924 -7.2239 -2.5000 0.9688
2.3818 -7.1338 -2.5000 0.9688
2.6669 -7.0321 -2.5000 0.9688
2.9479 -6.9190 -2.5000 0.9688
3.2241 -6.7947 -2.5000 0.9688
4.0196 -6.3566 -2.5000 0.9688
4.2724 -6.1896 -2.5000 0.9688
4.7565 -5.8257 -2.5000 0.9688
4.9873 -5.6295 -2.5000 0.9688
5.6295 -4.9873 -2.5000 0.9688
6.5133 -3.7604 -2.5000 0.9688
7.0322 -2.6669 -2.5000 0.9688
7.2239 -2.0924 -2.5000 0.9688
7.4235 -1.2064 -2.5000 0.9688
5.2148 -0.4210 -1.7391 0.9782
5.2120 0.0000 -1.7325 0.9783
5.2439 0.4233 -1.7488 0.9781
7.3689 1.5044 -2.5000 0.9688
7.2240 2.0924 -2.5000 0.9688
7.1338 2.3816 -2.5000 0.9688
7.0322 2.6670 -2.5000 0.9688
6.4973 2.7682 -2.3476 0.9707
5.8122 4.0119 -2.3476 0.9707
5.6460 4.2427 -2.3476 0.9707
4.8939 5.0951 -2.3483 0.9707
3.4241 4.9608 -2.0036 0.9749
3.7810 5.9791 -2.3515 0.9706
2.3522 4.9572 -1.8239 0.9771
2.7752 6.5136 -2.3535 0.9706
1.9707 6.8037 -2.3545 0.9706
0.8029 4.9404 -1.6638 0.9791
0.5998 4.9398 -1.6541 0.9792
0.1990 4.9385 -1.6429 0.9794
-0.0000 4.9378 -1.6413 0.9794
-0.1990 4.9372 -1.6425 0.9794
-0.3985 4.9365 -1.6462 0.9793
-0.5993 4.9358 -1.6527 0.9793
-0.8021 4.9352 -1.6620 0.9791
-1.0074 4.9345 -1.6741 0.9790
-1.2161 4.9338 -1.6891 0.9788
-1.4323 4.9448 -1.7112 0.9785
-2.8522 4.9402 -1.8962 0.9762
-4.0177 5.8207 -2.3510 0.9706
-4.2477 5.6527 -2.3504 0.9706
-4.6862 5.2896 -2.3491 0.9707
-5.0935 4.8924 -2.3476 0.9707
-5.2863 4.6832 -2.3476 0.9707
-5.4706 4.4666 -2.3476 0.9707
-5.6460 4.2427 -2.3476 0.9707
-5.8122 4.0119 -2.3476 0.9707
-5.9691 3.7746 -2.3476 0.9707
-6.2535 3.2821 -2.3476 0.9707
-6.4973 2.7682 -2.3476 0.9707
-7.0322 2.6669 -2.5000 0.9688
-7.1338 2.3816 -2.5000 0.9688
-7.3689 1.5044 -2.5000 0.9688
-7.4235 1.2064 -2.5000 0.9688
-7.4661 0.9065 -2.5000 0.9688
-7.4965 0.6052 -2.5000 0.9688
-7.5148 0.3028 -2.5000 0.9688
-6.9909 -0.0000 -2.5000 0.9707
-6.9852 -0.2815 -2.5000 0.9707
-6.9004 -1.1214 -2.5000 0.9707
-6.7877 -1.6730 -2.5000 0.9707
-6.5366 -2.4790 -2.5000 0.9707
-6.4315 -2.7402 -2.5000 0.9707
-6.3159 -2.9969 -2.5000 0.9707
-6.0543 -3.4954 -2.5000 0.9707
-5.9086 -3.7364 -2.5000 0.9707
-5.7534 -3.9712 -2.5000 0.9707
-5.5888 -4.1997 -2.5000 0.9707
-5.4152 -4.4213 -2.5000 0.9707
-5.0418 -4.8428 -2.5000 0.9707
-4.8428 -5.0418 -2.5000 0.9707
-4.4213 -5.4152 -2.5000 0.9707
-3.7364 -5.9086 -2.5000 0.9707
-3.4954 -6.0543 -2.5000 0.9707
-3.2488 -6.1901 -2.5000 0.9707
-2.9969 -6.3159 -2.5000 0.9707
-2.7402 -6.4314 -2.5000 0.9707
-2.2138 -6.6311 -2.5000 0.9707
-1.9450 -6.7148 -2.5000 0.9707
-0.8427 -6.9399 -2.5000 0.9707
-0.2815 -6.9852 -2.5000 0.9707
0.0000 -6.9909 -2.5000 0.9707
0.2815 -6.9852 -2.5000 0.9707
0.5625 -6.9682 -2.5000 0.9707
1.6730 -6.7877 -2.5000 0.9707
2.7402 -6.4314 -2.5000 0.9707
3.4954 -6.0543 -2.5000 0.9707
3.9713 -5.7534 -2.5000 0.9707
4.1997 -5.5888 -2.5000 0.9707
4.6358 -5.2327 -2.5000 0.9707
5.0418 -4.8427 -2.5000 0.9707
5.2327 -4.6358 -2.5000 0.9707
5.5888 -4.1997 -2.5000 0.9707
6.0543 -3.4954 -2.5000 0.9707
6.3159 -2.9969 -2.5000 0.9707
6.5366 -2.4790 -2.5000 0.9707
6.6311 -2.2138 -2.5000 0.9707
6.7877 -1.6730 -2.5000 0.9707
6.9004 -1.1214 -2.5000 0.9707
5.1936 -0.4193 -1.8633 0.9781
5.1932 -0.2093 -1.8586 0.9782
5.1979 0.0000 -1.8588 0.9782
5.2211 0.4215 -1.8732 0.9780
6.9003 1.1214 -2.5000 0.9707
6.7877 1.6730 -2.5000 0.9707
5.6852 3.2824 -2.3476 0.9725
5.5484 3.5086 -2.3476 0.9725
5.4026 3.7292 -2.3476 0.9725
4.9137 4.3532 -2.3476 0.9725
4.5475 4.7345 -2.3476 0.9725
4.3534 4.9140 -2.3477 0.9725
4.0520 4.9628 -2.2911 0.9732
2.5778 6.0502 -2.3518 0.9724
1.8305 6.3195 -2.3528 0.9724
1.0111 4.9528 -1.8077 0.9788
1.0557 6.4958 -2.3534 0.9724
0.3997 4.9508 -1.7762 0.9791
-0.0000 4.9495 -1.7700 0.9792
-0.5296 6.5604 -2.3537 0.9724
-0.8039 4.9469 -1.7922 0.9789
-1.6506 4.9441 -1.8640 0.9781
-2.3324 6.1501 -2.3522 0.9724
-2.3449 4.9418 -1.9561 0.9770
-3.9459 5.2511 -2.3489 0.9725
-4.1531 5.0867 -2.3483 0.9725
-4.3534 4.9140 -2.3477 0.9725
-4.9138 4.3532 -2.3476 0.9725
-5.6852 3.2824 -2.3476 0.9725
-5.9309 2.8142 -2.3476 0.9725
-6.3244 2.6946 -2.4584 0.9712
-6.5366 2.4790 -2.5000 0.9707
-6.8496 1.3984 -2.5000 0.9707
-6.9682 0.5625 -2.5000 0.9707
-6.9852 0.2815 -2.5000 0.9707
-6.5237 -0.0000 -2.5000 0.9724
-6.5025 -0.5249 -2.5000 0.9724
-6.4761 -0.7863 -2.5000 0.9724
-6.3341 -1.5612 -2.5000 0.9724
-6.1879 -2.0658 -2.5000 0.9724
-6.0997 -2.3133 -2.5000 0.9724
-5.7764 -3.0317 -2.5000 0.9724
-5.6497 -3.2618 -2.5000 0.9724
-5.5137 -3.4867 -2.5000 0.9724
-5.2153 -3.9190 -2.5000 0.9724
-5.0533 -4.1259 -2.5000 0.9724
-4.8830 -4.3260 -2.5000 0.9724
-4.7049 -4.5191 -2.5000 0.9724
-4.1259 -5.0533 -2.5000 0.9724
-3.9191 -5.2153 -2.5000 0.9724
-3.7059 -5.3688 -2.5000 0.9724
-3.2618 -5.6496 -2.5000 0.9724
-2.7966 -5.8938 -2.5000 0.9724
-1.8150 -6.2661 -2.5000 0.9724
-0.7863 -6.4761 -2.5000 0.9724
-0.2627 -6.5184 -2.5000 0.9724
0.0000 -6.5237 -2.5000 0.9724
0.5249 -6.5025 -2.5000 0.9724
0.7863 -6.4761 -2.5000 0.9724
1.3049 -6.3918 -2.5000 0.9724
1.5612 -6.3341 -2.5000 0.9724
1.8150 -6.2661 -2.5000 0.9724
2.3133 -6.0997 -2.5000 0.9724
2.5570 -6.0016 -2.5000 0.9724
3.4867 -5.5137 -2.5000 0.9724
4.5191 -4.7049 -2.5000 0.9724
5.5137 -3.4867 -2.5000 0.9724
6.0016 -2.5570 -2.5000 0.9724
6.0997 -2.3133 -2.5000 0.9724
5.4653 -0.8882 -2.1219 0.9766
5.1858 -0.2090 -1.9889 0.9780
5.2144 0.4210 -2.0048 0.9778
5.2636 0.6391 -2.0319 0.9775
6.3918 1.3049 -2.5000 0.9724
6.3341 1.5612 -2.5000 0.9724
6.2661 1.8150 -2.5000 0.9724
6.0016 2.5571 -2.5000 0.9724
5.7111 2.7100 -2.4225 0.9733
5.4243 2.8469 -2.3476 0.9741
5.3052 3.0630 -2.3476 0.9741
4.8974 3.6801 -2.3476 0.9741
4.4181 4.2436 -2.3476 0.9741
4.2436 4.4181 -2.3476 0.9741
3.6802 4.8974 -2.3476 0.9741
3.4229 4.9589 -2.3091 0.9745
2.8493 5.4288 -2.3495 0.9741
2.3522 4.9572 -2.1027 0.9768
2.4040 5.6424 -2.3503 0.9741
1.8794 4.9557 -2.0311 0.9776
1.2209 4.9535 -1.9551 0.9784
1.0111 4.9528 -1.9371 0.9786
0.7398 6.0927 -2.3520 0.9741
0.3997 4.9508 -1.9034 0.9789
-0.0000 4.9495 -1.8967 0.9790
-0.2471 6.1328 -2.3521 0.9741
-0.4939 6.1178 -2.3521 0.9741
-1.0098 4.9462 -1.9346 0.9786
-1.4323 4.9448 -1.9728 0.9782
-1.6506 4.9441 -1.9974 0.9779
-2.1752 5.7354 -2.3507 0.9741
-2.8522 4.9402 -2.1860 0.9759
-3.1234 4.9393 -2.2395 0.9753
-3.4808 5.0428 -2.3482 0.9741
-3.6802 4.8975 -2.3476 0.9741
-3.8743 4.7452 -2.3476 0.9741
-4.4181 4.2436 -2.3476 0.9741
-4.7452 3.8743 -2.3476 0.9741
-4.8974 3.6801 -2.3476 0.9741
-6.0017 2.5571 -2.5000 0.9724
-6.1879 2.0658 -2.5000 0.9724
-6.2661 1.8150 -2.5000 0.9724
-6.3341 1.5612 -2.5000 0.9724
-6.3918 1.3049 -2.5000 0.9724
-6.4392 1.0465 -2.5000 0.9724
-6.5025 0.5250 -2.5000 0.9724
-2.6381 0.0000 -1.0797 0.9887
-2.6602 -0.3230 -1.0968 0.9885
-2.8591 -0.4646 -1.1855 0.9876
-5.9849 -1.2218 -2.5000 0.9739
-5.8671 -1.6994 -2.5000 0.9739
-5.7940 -1.9343 -2.5000 0.9739
-5.5186 -2.6186 -2.5000 0.9739
-5.1627 -3.2647 -2.5000 0.9739
-5.0271 -3.4699 -2.5000 0.9739
-4.8833 -3.6695 -2.5000 0.9739
-4.7315 -3.8632 -2.5000 0.9739
-4.5721 -4.0506 -2.5000 0.9739
-4.2314 -4.4053 -2.5000 0.9739
-3.8632 -4.7315 -2.5000 0.9739
-3.6695 -4.8832 -2.5000 0.9739
-3.4699 -5.0270 -2.5000 0.9739
-3.2647 -5.1627 -2.5000 0.9739
-3.0542 -5.2900 -2.5000 0.9739
-2.1661 -5.7114 -2.5000 0.9739
-1.9343 -5.7940 -2.5000 0.9739
-1.6994 -5.8671 -2.5000 0.9739
-1.2218 -5.9849 -2.5000 0.9739
-0.9799 -6.0292 -2.5000 0.9739
-0.7363 -6.0638 -2.5000 0.9739
-0.2460 -6.1034 -2.5000 0.9739
0.0000 -6.1083 -2.5000 0.9739
0.2459 -6.1034 -2.5000 0.9739
0.4915 -6.0885 -2.5000 0.9739
0.7363 -6.0638 -2.5000 0.9739
0.9798 -6.0292 -2.5000 0.9739
1.2218 -5.9849 -2.5000 0.9739
1.4618 -5.9308 -2.5000 0.9739
1.6994 -5.8671 -2.5000 0.9739
2.1660 -5.7114 -2.5000 0.9739
2.6186 -5.5186 -2.5000 0.9739
2.8387 -5.4086 -2.5000 0.9739
3.2647 -5.1627 -2.5000 0.9739
3.8632 -4.7315 -2.5000 0.9739
4.5721 -4.0506 -2.5000 0.9739
4.8833 -3.6695 -2.5000 0.9739
5.0271 -3.4699 -2.5000 0.9739
5.4086 -2.8387 -2.5000 0.9739
5.6195 -2.3943 -2.5000 0.9739
5.7114 -2.1660 -2.5000 0.9739
5.7940 -1.9343 -2.5000 0.9739
5.8672 -1.6994 -2.5000 0.9739
5.2137 -0.6331 -2.1495 0.9776
5.2163 0.4211 -2.1419 0.9776
5.8672 1.6995 -2.5000 0.9739
5.5186 2.6186 -2.5000 0.9739
4.9675 2.8680 -2.3476 0.9755
4.8480 3.0657 -2.3476 0.9755
4.7206 3.2584 -2.3476 0.9755
4.5856 3.4458 -2.3476 0.9755
4.4431 3.6277 -2.3476 0.9755
4.1368 3.9734 -2.3476 0.9755
3.9734 4.1368 -2.3476 0.9755
3.4458 4.5856 -2.3476 0.9755
3.2584 4.7206 -2.3476 0.9755
3.0655 4.8477 -2.3474 0.9755
2.8562 4.9472 -2.3380 0.9756
2.6664 5.0805 -2.3483 0.9755
2.2497 5.2802 -2.3490 0.9755
1.8794 4.9557 -2.1692 0.9774
1.6602 4.9729 -2.1457 0.9776
1.5974 5.5148 -2.3499 0.9755
1.0111 4.9528 -2.0689 0.9784
0.3997 4.9508 -2.0328 0.9788
-0.2313 5.7389 -2.3507 0.9755
-0.8039 4.9469 -2.0512 0.9786
-1.0098 4.9462 -2.0661 0.9784
-1.3742 5.5752 -2.3501 0.9755
-1.6506 4.9441 -2.1333 0.9777
-2.0355 5.3672 -2.3493 0.9755
-2.1058 4.9426 -2.1988 0.9770
-2.6045 4.9625 -2.2937 0.9761
-3.0655 4.8477 -2.3475 0.9755
-3.6277 4.4431 -2.3476 0.9755
-3.8037 4.2934 -2.3476 0.9755
-4.1368 3.9734 -2.3476 0.9755
-5.6195 2.3943 -2.5000 0.9739
-5.9849 1.2218 -2.5000 0.9739
-2.6499 0.2139 -1.0881 0.9886
-2.6418 0.1065 -1.0821 0.9886
-2.4020 0.0000 -1.0468 0.9896
-2.4007 -0.1938 -1.0497 0.9895
-2.4304 -0.3950 -1.0731 0.9893
-5.5696 -1.3728 -2.5000 0.9753
-5.4411 -1.8165 -2.5000 0.9753
-5.1825 -2.4591 -2.5000 0.9753
-5.0792 -2.6658 -2.5000 0.9753
-4.9678 -2.8682 -2.5000 0.9753
-4.8483 -3.0658 -2.5000 0.9753
-4.7209 -3.2586 -2.5000 0.9753
-4.5859 -3.4460 -2.5000 0.9753
-3.9737 -4.1370 -2.5000 0.9753
-3.6279 -4.4434 -2.5000 0.9753
-3.4461 -4.5858 -2.5000 0.9753
-3.2586 -4.7209 -2.5000 0.9753
-2.8682 -4.9678 -2.5000 0.9753
-2.2484 -5.2773 -2.5000 0.9753
-1.8165 -5.4411 -2.5000 0.9753
-1.1474 -5.6204 -2.5000 0.9753
-0.6914 -5.6945 -2.5000 0.9753
-0.2310 -5.7317 -2.5000 0.9753
0.0000 -5.7363 -2.5000 0.9753
0.2310 -5.7317 -2.5000 0.9753
0.4616 -5.7177 -2.5000 0.9753
0.6914 -5.6945 -2.5000 0.9753
0.9202 -5.6620 -2.5000 0.9753
1.5959 -5.5098 -2.5000 0.9753
2.0341 -5.3635 -2.5000 0.9753
2.2484 -5.2773 -2.5000 0.9753
2.4591 -5.1825 -2.5000 0.9753
2.8682 -4.9678 -2.5000 0.9753
3.4460 -4.5858 -2.5000 0.9753
3.9737 -4.1370 -2.5000 0.9753
4.4434 -3.6279 -2.5000 0.9753
4.5859 -3.4460 -2.5000 0.9753
4.8483 -3.0659 -2.5000 0.9753
5.1825 -2.4591 -2.5000 0.9753
5.2773 -2.2484 -2.5000 0.9753
5.3635 -2.0341 -2.5000 0.9753
5.4411 -1.8165 -2.5000 0.9753
5.6204 -1.1474 -2.5000 0.9753
5.6620 -0.9202 -2.5000 0.9753
5.7177 -0.4616 -2.5000 0.9753
5.7317 -0.2310 -2.5000 0.9753
5.7363 0.0000 -2.5000 0.9753
5.7317 0.2310 -2.5000 0.9753
5.7177 0.4616 -2.5000 0.9753
5.6945 0.6914 -2.5000 0.9753
5.6204 1.1474 -2.5000 0.9753
5.5696 1.3728 -2.5000 0.9753
5.5098 1.5960 -2.5000 0.9753
5.2773 2.2484 -2.5000 0.9753
5.1825 2.4591 -2.5000 0.9753
5.0792 2.6658 -2.5000 0.9753
4.7094 2.7190 -2.3699 0.9766
4.4331 3.0600 -2.3476 0.9768
4.1725 3.4068 -2.3476 0.9768
4.0320 3.5720 -2.3476 0.9768
3.5720 4.0320 -2.3476 0.9768
3.4067 4.1725 -2.3476 0.9768
3.0600 4.4331 -2.3476 0.9768
2.8790 4.5527 -2.3476 0.9768
2.6933 4.6650 -2.3476 0.9768
2.5033 4.7696 -2.3476 0.9768
2.3092 4.8664 -2.3475 0.9768
2.1067 4.9447 -2.3424 0.9768
1.6601 4.9727 -2.2847 0.9774
1.4993 5.1763 -2.3486 0.9768
1.2209 4.9535 -2.2234 0.9780
1.0111 4.9528 -2.2030 0.9782
0.6497 5.3512 -2.3493 0.9768
0.3997 4.9508 -2.1647 0.9786
0.1995 4.9502 -2.1591 0.9786
-0.0000 4.9495 -2.1571 0.9786
-0.2171 5.3864 -2.3494 0.9768
-0.4338 5.3732 -2.3494 0.9768
-0.6007 4.9475 -2.1720 0.9785
-0.8039 4.9469 -2.1842 0.9784
-1.0098 4.9462 -2.2001 0.9782
-1.4323 4.9448 -2.2436 0.9778
-1.9106 5.0378 -2.3481 0.9768
-2.6933 4.6650 -2.3476 0.9768
-3.2360 4.3063 -2.3476 0.9768
-3.5720 4.0320 -2.3476 0.9768
-3.7315 3.8849 -2.3476 0.9768
-3.8849 3.7315 -2.3476 0.9768
-4.0320 3.5720 -2.3476 0.9768
-4.1725 3.4068 -2.3476 0.9768
-4.3063 3.2360 -2.3476 0.9768
-4.4331 3.0600 -2.3476 0.9768
-4.5527 2.8790 -2.3476 0.9768
-4.6992 2.7131 -2.3648 0.9766
-5.3635 2.0341 -2.5000 0.9753
-5.4411 1.8165 -2.5000 0.9753
-5.5696 1.3728 -2.5000 0.9753
-5.6204 1.1474 -2.5000 0.9753
-2.4304 0.3950 -1.0731 0.9893
-2.4095 0.2926 -1.0578 0.9895
-2.4007 0.1938 -1.0497 0.9895
-2.2449 -0.3648 -1.0528 0.9900
-5.2439 -1.2925 -2.5000 0.9765
-4.9687 -2.1170 -2.5000 0.9765
-4.8794 -2.3153 -2.5000 0.9765
-4.3177 -3.2445 -2.5000 0.9765
-4.0426 -3.5814 -2.5000 0.9765
-3.7413 -3.8951 -2.5000 0.9765
-3.5815 -4.0426 -2.5000 0.9765
-3.2445 -4.3177 -2.5000 0.9765
-2.7004 -4.6773 -2.5000 0.9765
-2.5099 -4.7822 -2.5000 0.9765
-2.3153 -4.8794 -2.5000 0.9765
-1.9152 -5.0499 -2.5000 0.9765
-1.2925 -5.2439 -2.5000 0.9765
-0.8664 -5.3309 -2.5000 0.9765
-0.2175 -5.3965 -2.5000 0.9765
-0.0000 -5.4009 -2.5000 0.9765
0.4346 -5.3833 -2.5000 0.9765
0.8663 -5.3309 -2.5000 0.9765
1.0803 -5.2917 -2.5000 0.9765
1.7103 -5.1229 -2.5000 0.9765
1.9152 -5.0499 -2.5000 0.9765
2.1170 -4.9687 -2.5000 0.9765
2.5099 -4.7822 -2.5000 0.9765
2.8866 -4.5648 -2.5000 0.9765
3.0680 -4.4448 -2.5000 0.9765
3.2445 -4.3177 -2.5000 0.9765
3.7413 -3.8951 -2.5000 0.9765
4.1835 -3.4158 -2.5000 0.9765
4.4448 -3.0680 -2.5000 0.9765
4.8794 -2.3153 -2.5000 0.9765
5.1229 -1.7103 -2.5000 0.9765
5.2439 -1.2925 -2.5000 0.9765
5.3309 -0.8664 -2.5000 0.9765
5.3833 -0.4346 -2.5000 0.9765
5.4009 0.0000 -2.5000 0.9765
5.3615 0.6510 -2.5000 0.9765
5.3309 0.8664 -2.5000 0.9765
5.2917 1.0803 -2.5000 0.9765
5.2439 1.2925 -2.5000 0.9765
5.1229 1.7103 -2.5000 0.9765
4.9687 2.1170 -2.5000 0.9765
4.8794 2.3153 -2.5000 0.9765
4.6690 2.6957 -2.4956 0.9765
4.1739 2.8810 -2.3476 0.9779
3.9285 3.2075 -2.3476 0.9779
3.7962 3.3631 -2.3476 0.9779
3.2075 3.9285 -2.3476 0.9779
2.7106 4.2865 -2.3476 0.9779
2.3569 4.4907 -2.3476 0.9779
2.1742 4.5820 -2.3476 0.9779
1.9879 4.6658 -2.3476 0.9779
1.6060 4.8106 -2.3476 0.9779
1.2138 4.9246 -2.3477 0.9779
0.8029 4.9404 -2.3168 0.9782
0.6008 4.9487 -2.3075 0.9783
-0.0000 4.9495 -2.2910 0.9784
-0.2043 5.0690 -2.3483 0.9779
-0.4082 5.0566 -2.3482 0.9779
-1.0074 4.9345 -2.3312 0.9780
-1.4110 4.8713 -2.3475 0.9779
-1.6060 4.8106 -2.3476 0.9779
-1.9879 4.6658 -2.3476 0.9779
-2.3569 4.4907 -2.3476 0.9779
-2.5358 4.3922 -2.3476 0.9779
-2.7106 4.2865 -2.3476 0.9779
-2.8810 4.1739 -2.3476 0.9779
-3.0467 4.0545 -2.3476 0.9779
-3.2075 3.9285 -2.3476 0.9779
-3.3631 3.7962 -2.3476 0.9779
-3.9285 3.2075 -2.3476 0.9779
-4.0545 3.0468 -2.3476 0.9779
-4.6590 2.6899 -2.4902 0.9766
-4.7822 2.5099 -2.5000 0.9765
-4.9687 2.1170 -2.5000 0.9765
-5.0499 1.9152 -2.5000 0.9765
-5.1876 1.5026 -2.5000 0.9765
-5.2439 1.2925 -2.5000 0.9765
-2.2422 0.2723 -1.0455 0.9901
-2.0958 -0.2545 -1.0356 0.9906
-2.1259 -0.4340 -1.0643 0.9904
-4.8343 -1.6139 -2.5000 0.9775
-4.7654 -1.8073 -2.5000 0.9775
-4.6887 -1.9977 -2.5000 0.9775
-4.6045 -2.1848 -2.5000 0.9775
-4.4138 -2.5483 -2.5000 0.9775
-4.3076 -2.7239 -2.5000 0.9775
-4.1944 -2.8952 -2.5000 0.9775
-3.9478 -3.2233 -2.5000 0.9775
-3.8148 -3.3796 -2.5000 0.9775
-3.6756 -3.5305 -2.5000 0.9775
-3.5305 -3.6757 -2.5000 0.9775
-3.3796 -3.8148 -2.5000 0.9775
-2.3685 -4.5128 -2.5000 0.9775
-2.1849 -4.6045 -2.5000 0.9775
-1.9977 -4.6887 -2.5000 0.9775
-1.8073 -4.7654 -2.5000 0.9775
-1.6139 -4.8343 -2.5000 0.9775
-0.8175 -5.0305 -2.5000 0.9775
-0.2052 -5.0924 -2.5000 0.9775
0.0000 -5.0966 -2.5000 0.9775
0.8175 -5.0306 -2.5000 0.9775
1.0194 -4.9936 -2.5000 0.9775
1.2197 -4.9484 -2.5000 0.9775
1.8073 -4.7654 -2.5000 0.9775
2.1849 -4.6045 -2.5000 0.9775
2.8952 -4.1944 -2.5000 0.9775
3.3796 -3.8148 -2.5000 0.9775
3.6757 -3.5305 -2.5000 0.9775
3.9478 -3.2233 -2.5000 0.9775
4.1944 -2.8952 -2.5000 0.9775
4.4137 -2.5483 -2.5000 0.9775
4.6045 -2.1848 -2.5000 0.9775
4.6887 -1.9977 -2.5000 0.9775
4.8343 -1.6139 -2.5000 0.9775
4.9485 -1.2197 -2.5000 0.9775
5.0305 -0.8175 -2.5000 0.9775
5.0594 -0.6143 -2.5000 0.9775
5.0924 -0.2052 -2.5000 0.9775
5.0965 0.0000 -2.5000 0.9775
5.0800 0.4101 -2.5000 0.9775
5.0306 0.8175 -2.5000 0.9775
4.8953 1.4180 -2.5000 0.9775
4.8343 1.6139 -2.5000 0.9775
4.5128 2.3685 -2.5000 0.9775
4.4138 2.5483 -2.5000 0.9775
3.9513 2.7274 -2.3551 0.9788
3.8350 2.8818 -2.3531 0.9789
3.5823 3.1736 -2.3476 0.9789
3.4516 3.3153 -2.3476 0.9789
3.3153 3.4516 -2.3476 0.9789
3.1736 3.5823 -2.3476 0.9789
3.0268 3.7072 -2.3476 0.9789
2.5579 4.0450 -2.3476 0.9789
2.3929 4.1447 -2.3476 0.9789
2.0517 4.3238 -2.3476 0.9789
1.8759 4.4029 -2.3476 0.9789
1.5155 4.5396 -2.3476 0.9789
1.3315 4.5969 -2.3476 0.9789
1.1454 4.6468 -2.3476 0.9789
0.9573 4.6892 -2.3476 0.9789
0.7677 4.7239 -2.3476 0.9789
0.5769 4.7510 -2.3476 0.9789
0.1927 4.7820 -2.3476 0.9789
-0.9573 4.6892 -2.3476 0.9789
-1.3315 4.5969 -2.3476 0.9789
-1.5155 4.5396 -2.3476 0.9789
-1.6971 4.4749 -2.3476 0.9789
-2.5579 4.0450 -2.3476 0.9789
-2.7187 3.9387 -2.3476 0.9789
-3.1736 3.5823 -2.3476 0.9789
-3.3153 3.4516 -2.3476 0.9789
-3.4516 3.3153 -2.3476 0.9789
-3.5823 3.1736 -2.3476 0.9789
-4.2595 2.6936 -2.4721 0.9778
-4.4137 2.5483 -2.5000 0.9775
-4.6887 1.9977 -2.5000 0.9775
-4.8343 1.6139 -2.5000 0.9775
-4.8954 1.4180 -2.5000 0.9775
-2.1259 0.4340 -1.0643 0.9904
-2.0953 0.3405 -1.0413 0.9906
-2.0958 0.2545 -1.0356 0.9906
-2.0926 0.1689 -1.0298 0.9907
-2.0970 0.0845 -1.0295 0.9907
-1.9769 -0.0796 -1.0264 0.9911
-1.9739 -0.2397 -1.0315 0.9911
-1.9734 -0.3207 -1.0372 0.9910
-2.4131 -0.5948 -1.2893 0.9889
-4.6287 -1.3407 -2.5000 0.9785
-4.5710 -1.5260 -2.5000 0.9785
-4.2670 -2.2395 -2.5000 0.9785
-4.1734 -2.4095 -2.5000 0.9785
-4.0730 -2.5756 -2.5000 0.9785
-3.7328 -3.0477 -2.5000 0.9785
-3.6071 -3.1956 -2.5000 0.9785
-3.3382 -3.4754 -2.5000 0.9785
-3.1956 -3.6070 -2.5000 0.9785
-3.0477 -3.7328 -2.5000 0.9785
-2.8950 -3.8525 -2.5000 0.9785
-2.5756 -4.0729 -2.5000 0.9785
-2.0659 -4.3537 -2.5000 0.9785
-1.8889 -4.4333 -2.5000 0.9785
-1.5260 -4.5710 -2.5000 0.9785
-1.1533 -4.6789 -2.5000 0.9785
-0.9639 -4.7216 -2.5000 0.9785
-0.7730 -4.7566 -2.5000 0.9785
0.1940 -4.8151 -2.5000 0.9785
0.5809 -4.7838 -2.5000 0.9785
0.9639 -4.7216 -2.5000 0.9785
1.5260 -4.5710 -2.5000 0.9785
1.8889 -4.4333 -2.5000 0.9785
2.0658 -4.3537 -2.5000 0.9785
2.5756 -4.0729 -2.5000 0.9785
2.7375 -3.9659 -2.5000 0.9785
3.0477 -3.7328 -2.5000 0.9785
3.1956 -3.6071 -2.5000 0.9785
3.3382 -3.4754 -2.5000 0.9785
3.6071 -3.1956 -2.5000 0.9785
3.7328 -3.0477 -2.5000 0.9785
3.8525 -2.8950 -2.5000 0.9785
3.9659 -2.7375 -2.5000 0.9785
4.0729 -2.5756 -2.5000 0.9785
4.1734 -2.4095 -2.5000 0.9785
4.3537 -2.0658 -2.5000 0.9785
4.5710 -1.5260 -2.5000 0.9785
4.6287 -1.3407 -2.5000 0.9785
4.6789 -1.1532 -2.5000 0.9785
4.7216 -0.9639 -2.5000 0.9785
4.7838 -0.5808 -2.5000 0.9785
4.8151 -0.1940 -2.5000 0.9785
4.8190 0.0000 -2.5000 0.9785
4.8151 0.1941 -2.5000 0.9785
4.8033 0.3878 -2.5000 0.9785
4.7838 0.5809 -2.5000 0.9785
4.7566 0.7730 -2.5000 0.9785
4.7216 0.9639 -2.5000 0.9785
4.6789 1.1533 -2.5000 0.9785
4.5710 1.5260 -2.5000 0.9785
4.5058 1.7088 -2.5000 0.9785
4.4334 1.8889 -2.5000 0.9785
4.1733 2.4095 -2.5000 0.9785
4.0729 2.5756 -2.5000 0.9785
3.9124 2.7006 -2.4663 0.9788
3.3872 3.0008 -2.3476 0.9798
3.2636 3.1347 -2.3476 0.9798
3.1347 3.2636 -2.3476 0.9798
2.7185 3.6177 -2.3476 0.9798
2.5706 3.7242 -2.3476 0.9798
2.4186 3.8247 -2.3476 0.9798
2.2626 3.9190 -2.3476 0.9798
1.9399 4.0883 -2.3476 0.9798
1.6047 4.2312 -2.3476 0.9798
1.4330 4.2923 -2.3476 0.9798
1.2590 4.3466 -2.3476 0.9798
0.5454 4.4922 -2.3476 0.9798
0.3641 4.5105 -2.3476 0.9798
0.0000 4.5252 -2.3476 0.9798
-0.5454 4.4922 -2.3476 0.9798
-1.7737 4.1631 -2.3476 0.9798
-1.9399 4.0883 -2.3476 0.9798
-2.2626 3.9190 -2.3476 0.9798
-2.7185 3.6177 -2.3476 0.9798
-2.8620 3.5053 -2.3476 0.9798
-3.1347 3.2636 -2.3476 0.9798
-3.2636 3.1347 -2.3476 0.9798
-3.5052 2.8620 -2.3476 0.9798
-3.6255 2.7244 -2.3527 0.9798
-4.1734 2.4095 -2.5000 0.9785
-4.2670 2.2395 -2.5000 0.9785
-4.5710 1.5260 -2.5000 0.9785
-4.6287 1.3407 -2.5000 0.9785
-2.4132 0.5948 -1.2894 0.9889
-1.9840 0.4051 -1.0505 0.9909
-1.9734 0.3207 -1.0372 0.9910
-1.9730 0.1593 -1.0269 0.9911
-1.8830 0.0000 -1.0313 0.9914
-1.8820 -0.0758 -1.0316 0.9914
-1.8739 -0.3045 -1.0398 0.9914
-1.8732 -0.3824 -1.0471 0.9913
-1.8981 -0.4678 -1.0707 0.9911
-4.3843 -1.2699 -2.5000 0.9794
-4.1992 -1.7891 -2.5000 0.9794
-4.1238 -1.9568 -2.5000 0.9794
-3.9530 -2.2822 -2.5000 0.9794
-3.7565 -2.5929 -2.5000 0.9794
-3.6491 -2.7421 -2.5000 0.9794
-3.5357 -2.8868 -2.5000 0.9794
-3.2919 -3.1619 -2.5000 0.9794
-3.1619 -3.2919 -2.5000 0.9794
-3.0268 -3.4166 -2.5000 0.9794
-1.9568 -4.1238 -2.5000 0.9794
-1.7891 -4.1992 -2.5000 0.9794
-1.4454 -4.3296 -2.5000 0.9794
-1.2699 -4.3843 -2.5000 0.9794
-1.0924 -4.4318 -2.5000 0.9794
-0.5502 -4.5312 -2.5000 0.9794
-0.1838 -4.5608 -2.5000 0.9794
0.0000 -4.5645 -2.5000 0.9794
0.7322 -4.5054 -2.5000 0.9794
