ply
format ascii 1.0
element vertex 1579
property float32 x
property float32 y
property float32 z
property float32 I
end_header
19.9990 -11.5464 -1.1711 0.9117
26.0668 -12.3689 -1.4632 0.8909
27.0120 -11.5087 -1.4890 0.8891
46.1825 -5.6076 -2.3593 0.8300
46.3622 -1.8684 -2.3531 0.8304
46.3232 -0.0000 -2.3492 0.8307
49.2833 1.9860 -2.5014 0.8207
49.1634 3.9688 -2.5014 0.8207
48.6846 7.9120 -2.5014 0.8207
42.0542 12.1812 -2.2204 0.8392
32.7390 12.4162 -1.7757 0.8692
24.2615 10.3368 -1.3374 0.8998
14.0374 8.1044 -0.8220 0.9371
6.9053 7.1892 -0.5055 0.9609
5.9505 7.2880 -0.4772 0.9630
14.7465 19.6241 -1.2449 0.9064
4.8120 7.6095 -0.4566 0.9646
6.3650 11.0244 -0.6456 0.9503
1.5238 3.5766 -0.1972 0.9845
3.1273 10.7964 -0.5700 0.9560
2.7243 11.0529 -0.5773 0.9554
2.2682 11.1101 -0.5751 0.9556
1.7702 10.8925 -0.5597 0.9568
1.2822 10.5592 -0.5394 0.9583
0.8148 10.0930 -0.5135 0.9603
0.5638 13.9886 -0.7100 0.9455
-0.8452 10.4706 -0.5327 0.9588
-1.6391 8.0290 -0.4156 0.9677
-2.7510 8.2405 -0.4406 0.9658
-3.6507 8.5686 -0.4723 0.9634
-8.3556 14.4723 -0.8475 0.9353
-7.8867 11.4259 -0.7041 0.9459
-7.5576 10.0574 -0.6380 0.9509
-7.9313 9.7141 -0.6360 0.9510
-7.5790 8.5550 -0.5796 0.9553
-7.6211 7.9344 -0.5579 0.9569
-7.6720 5.7651 -0.4867 0.9623
-7.5316 5.1987 -0.4641 0.9640
-5.5439 3.2008 -0.3246 0.9747
-32.3581 16.9828 -1.8534 0.8638
-25.7339 10.9642 -1.4186 0.8940
-31.4921 11.9433 -1.7081 0.8738
-31.0089 8.9818 -1.6372 0.8787
-48.1510 3.8872 -2.4499 0.8241
-29.3435 -1.1825 -2.1533 0.8889
-29.1668 -2.3546 -2.1455 0.8893
-28.8159 -4.6830 -2.1406 0.8895
-28.6404 -5.8470 -2.1433 0.8894
-28.4643 -7.0158 -2.1495 0.8891
-28.3028 -8.1980 -2.1605 0.8885
-28.1074 -9.3836 -2.1727 0.8879
-27.7403 -11.8190 -2.2109 0.8861
-29.5090 -14.0022 -2.3949 0.8772
-28.2462 -16.3079 -2.3915 0.8774
-27.1196 -17.1494 -2.3527 0.8792
-26.8066 -18.5033 -2.3883 0.8775
-26.0391 -19.5671 -2.3882 0.8775
-23.5512 -22.6214 -2.3944 0.8772
-23.2676 -24.2241 -2.4628 0.8740
-22.9715 -25.9296 -2.5400 0.8703
-20.8106 -27.6939 -2.5400 0.8703
-18.5147 -29.2786 -2.5400 0.8703
-16.0987 -30.6735 -2.5400 0.8703
-14.8505 -31.2968 -2.5400 0.8703
-13.5783 -31.8694 -2.5400 0.8703
-10.9698 -32.8587 -2.5400 0.8703
-3.6312 -14.7324 -1.1125 0.9410
-2.3754 -14.6163 -1.0858 0.9423
-1.3434 -11.0641 -0.8172 0.9563
-1.1666 -14.4504 -1.0630 0.9435
-0.0000 -14.2904 -1.0478 0.9443
0.5727 -14.2118 -1.0429 0.9446
1.1410 -14.1338 -1.0397 0.9447
2.2717 -13.9787 -1.0384 0.9448
3.4070 -13.8229 -1.0439 0.9445
3.9810 -13.7442 -1.0492 0.9442
4.5619 -13.6645 -1.0563 0.9439
11.5159 -30.3650 -2.3812 0.8779
15.0832 -28.7387 -2.3798 0.8779
16.2242 -28.1012 -2.3792 0.8780
16.5578 -23.9881 -2.1372 0.8897
16.4346 -21.8705 -2.0059 0.8961
16.1474 -19.7770 -1.8720 0.9027
15.6727 -16.3170 -1.6589 0.9133
13.9673 -12.3740 -1.3682 0.9279
14.9845 -12.2344 -1.4184 0.9253
18.5694 -11.7426 -1.6109 0.9157
27.0120 -11.5087 -2.1528 0.8889
30.0433 -10.0299 -2.3224 0.8807
30.9047 -8.9517 -2.3591 0.8789
31.4616 -6.4229 -2.3544 0.8792
34.0045 -2.7451 -2.5014 0.8721
34.0875 -1.3737 -2.5014 0.8721
34.1152 -0.0000 -2.5014 0.8721
34.0875 1.3737 -2.5014 0.8721
33.8664 4.1121 -2.5014 0.8721
33.4257 6.8239 -2.5014 0.8721
33.1238 8.1643 -2.5014 0.8721
30.0228 11.3861 -2.3543 0.8792
24.1850 10.3042 -1.9275 0.8999
16.2926 8.5510 -1.3491 0.9289
11.3032 7.8020 -1.0070 0.9464
10.0799 7.5745 -0.9245 0.9507
8.5414 6.9738 -0.8085 0.9567
8.0063 7.0929 -0.7843 0.9580
7.2183 6.9333 -0.7339 0.9607
6.7413 7.0184 -0.7135 0.9617
5.9674 6.7358 -0.6598 0.9646
5.5526 6.8007 -0.6437 0.9654
5.0542 6.7259 -0.6169 0.9668
1.8436 3.5127 -0.2909 0.9842
1.6545 3.4869 -0.2830 0.9846
2.4654 6.5006 -0.5098 0.9725
0.5111 6.3310 -0.4657 0.9748
-0.4250 10.5478 -0.7740 0.9585
-0.7585 6.2475 -0.4614 0.9751
-1.8256 6.3029 -0.4811 0.9740
-2.0274 6.0727 -0.4694 0.9746
-2.3311 6.1467 -0.4820 0.9740
-2.9065 6.1253 -0.4971 0.9732
-3.8918 5.6383 -0.5023 0.9729
-4.1419 5.5118 -0.5055 0.9727
-4.7732 5.8461 -0.5534 0.9702
-5.8256 5.5956 -0.5923 0.9681
-7.3059 5.0429 -0.6509 0.9650
-5.5439 3.2008 -0.4694 0.9747
-30.4469 11.5470 -2.3876 0.8776
-30.8871 10.3116 -2.3876 0.8776
-30.7772 7.5859 -2.3242 0.8806
-31.9736 6.5275 -2.3927 0.8773
-30.1187 3.6571 -2.2246 0.8854
-26.4568 0.0000 -2.5400 0.8991
-25.6880 -6.3315 -2.5400 0.8991
-25.0952 -8.3782 -2.5400 0.8991
-24.7375 -9.3817 -2.5400 0.8991
-23.9024 -11.3419 -2.5400 0.8991
-23.4263 -12.2951 -2.5400 0.8991
-22.9123 -13.2284 -2.5400 0.8991
-21.1507 -15.8937 -2.5400 0.8991
-19.0807 -18.3273 -2.5400 0.8991
-18.3273 -19.0807 -2.5400 0.8991
-17.5441 -19.8032 -2.5400 0.8991
-16.7325 -20.4936 -2.5400 0.8991
-15.0292 -21.7735 -2.5400 0.8991
-13.2284 -22.9123 -2.5400 0.8991
-12.2951 -23.4263 -2.5400 0.8991
-10.3702 -24.3397 -2.5400 0.8991
-8.3780 -25.0953 -2.5400 0.8991
-6.9192 -23.8877 -2.3876 0.9049
-3.6312 -14.7324 -1.4567 0.9408
-3.0015 -14.7022 -1.4406 0.9415
-1.3430 -11.0605 -1.0697 0.9562
-1.1666 -14.4504 -1.3918 0.9434
-0.5791 -14.3698 -1.3807 0.9438
0.5727 -14.2118 -1.3655 0.9444
2.2718 -13.9787 -1.3596 0.9447
3.9810 -13.7442 -1.3737 0.9441
8.7654 -23.1124 -2.3731 0.9054
12.3455 -21.3830 -2.3705 0.9055
13.1937 -20.8643 -2.3700 0.9056
14.8229 -19.7257 -2.3689 0.9056
15.8757 -17.9199 -2.2984 0.9083
15.6727 -16.3170 -2.1721 0.9131
15.4730 -14.8621 -2.0597 0.9174
13.9673 -12.3740 -1.7915 0.9278
16.0809 -12.0840 -1.9312 0.9224
17.2703 -11.9208 -2.0147 0.9191
18.5429 -11.7258 -2.1063 0.9156
22.1996 -10.5338 -2.3590 0.9060
22.9387 -8.6995 -2.3553 0.9061
23.2499 -7.7619 -2.3532 0.9062
23.7820 -5.8617 -2.3515 0.9063
25.5283 -5.2116 -2.5014 0.9006
25.7174 -4.1795 -2.5014 0.9006
12.4512 0.0000 -1.1954 0.9512
12.4554 0.5019 -1.1968 0.9511
25.9703 2.0965 -2.5014 0.9006
25.8649 3.1406 -2.5014 0.9006
25.7174 4.1795 -2.5014 0.9006
22.9294 8.6960 -2.3543 0.9062
22.5607 9.6122 -2.3543 0.9062
19.7590 9.3757 -2.0997 0.9159
13.9137 8.0330 -1.5424 0.9375
11.1104 7.6690 -1.2961 0.9472
9.9969 7.5122 -1.2005 0.9510
8.5237 6.9594 -1.0564 0.9567
6.7835 7.0624 -0.9401 0.9614
4.8946 6.5134 -0.7822 0.9678
3.7895 6.5636 -0.7276 0.9700
1.8431 3.5117 -0.3808 0.9842
2.4661 6.5025 -0.6677 0.9724
1.5360 6.2317 -0.6162 0.9745
1.2415 6.0812 -0.5959 0.9754
1.0253 6.3085 -0.6136 0.9746
0.7650 6.3001 -0.6093 0.9748
0.2451 6.0809 -0.5843 0.9758
0.0000 5.9255 -0.5689 0.9765
-0.2580 6.4021 -0.6151 0.9746
-0.4892 6.0602 -0.5837 0.9759
-0.7319 6.0281 -0.5830 0.9759
-1.4979 6.0773 -0.6009 0.9752
-2.1696 5.7207 -0.5874 0.9757
-2.4686 5.7941 -0.6046 0.9750
-2.9272 5.5773 -0.6047 0.9750
-3.7662 5.4563 -0.6365 0.9737
-4.4212 5.4150 -0.6711 0.9723
-4.7732 5.3878 -0.6911 0.9715
-6.0169 5.3305 -0.7717 0.9682
-7.0801 5.3203 -0.8502 0.9650
-24.3397 10.3702 -2.5400 0.8991
-25.9221 5.2921 -2.5400 0.8991
-26.2639 3.1890 -2.5400 0.8991
-26.3710 2.1289 -2.5400 0.8991
-26.4353 1.0654 -2.5400 0.8991
-21.3135 -1.7206 -2.5400 0.9175
-20.7615 -5.1172 -2.5400 0.9175
-20.5386 -5.9491 -2.5400 0.9175
-20.2824 -6.7713 -2.5400 0.9175
-19.6718 -8.3814 -2.5400 0.9175
-18.9336 -9.9371 -2.5400 0.9175
-16.0053 -14.1795 -2.5400 0.9175
-14.8124 -15.4214 -2.5400 0.9175
-13.5235 -16.5633 -2.5400 0.9175
-12.8456 -17.0944 -2.5400 0.9175
-12.1469 -17.5978 -2.5400 0.9175
-7.8785 -18.4915 -2.3876 0.9222
-5.8295 -15.3710 -1.9528 0.9359
-6.3658 -19.0681 -2.3879 0.9222
-3.0015 -14.7022 -1.7824 0.9413
-1.3426 -11.0570 -1.3231 0.9561
-0.5791 -14.3698 -1.7083 0.9437
0.5727 -14.2118 -1.6895 0.9443
1.1410 -14.1338 -1.6844 0.9445
2.8379 -13.9010 -1.6853 0.9445
3.4070 -13.8229 -1.6911 0.9443
3.9810 -13.7442 -1.6997 0.9440
4.5619 -13.6645 -1.7112 0.9436
7.0651 -18.6290 -2.3667 0.9229
7.8086 -18.3275 -2.3664 0.9229
9.2555 -17.6350 -2.3658 0.9229
9.9565 -17.2452 -2.3654 0.9229
11.3077 -16.3820 -2.3645 0.9229
13.1909 -14.8894 -2.3629 0.9230
13.7761 -14.3425 -2.3623 0.9230
15.8795 -11.9327 -2.3595 0.9231
17.1729 -9.9148 -2.3555 0.9232
17.5467 -9.2092 -2.3539 0.9233
17.8911 -8.4895 -2.3523 0.9233
20.2266 -5.8587 -2.5014 0.9187
20.4461 -5.0395 -2.5014 0.9187
20.7853 -3.3780 -2.5014 0.9187
20.9045 -2.5383 -2.5014 0.9187
11.6546 -0.0000 -1.3844 0.9541
13.1865 1.0645 -1.5715 0.9481
20.9045 2.5383 -2.5014 0.9187
20.7853 3.3779 -2.5014 0.9187
20.4461 5.0395 -2.5014 0.9187
18.7713 6.2668 -2.3507 0.9234
18.2339 7.7688 -2.3543 0.9233
17.9063 8.4967 -2.3543 0.9233
16.4166 8.6161 -2.2023 0.9280
13.9762 8.0691 -1.9170 0.9371
12.0318 7.6084 -1.6910 0.9443
8.5520 6.9825 -1.3115 0.9565
8.0952 7.1717 -1.2847 0.9574
6.7819 7.0606 -1.1629 0.9613
5.5348 6.7789 -1.0395 0.9654
4.1833 6.6153 -0.9297 0.9690
1.8426 3.5108 -0.4710 0.9842
1.6536 3.4850 -0.4582 0.9846
2.4518 6.4649 -0.8213 0.9725
2.2021 6.5962 -0.8260 0.9724
1.5258 6.1903 -0.7573 0.9746
1.2526 6.1354 -0.7438 0.9751
0.0000 5.9649 -0.7085 0.9763
-0.9398 5.7829 -0.6959 0.9767
-1.2030 5.8929 -0.7144 0.9761
-1.4589 5.9191 -0.7242 0.9757
-1.6991 5.8661 -0.7255 0.9757
-1.9175 5.7436 -0.7193 0.9759
-2.1345 5.6283 -0.7150 0.9760
-2.3882 5.6054 -0.7238 0.9758
-2.8506 5.4315 -0.7286 0.9756
-3.1818 5.5111 -0.7559 0.9747
-3.6547 5.7795 -0.8123 0.9728
-4.3765 5.3602 -0.8220 0.9725
-4.7683 5.3823 -0.8541 0.9715
-6.1694 5.0371 -0.9461 0.9684
-6.9779 5.2435 -1.0368 0.9655
-7.3243 5.0556 -1.0572 0.9648
-3.8623 2.4424 -0.5428 0.9818
-5.5439 3.2008 -0.7604 0.9745
-18.9336 9.9371 -2.5400 0.9175
-20.5387 5.9491 -2.5400 0.9175
-21.1060 3.4301 -2.5400 0.9175
-21.2270 2.5774 -2.5400 0.9175
-21.3135 1.7206 -2.5400 0.9175
-17.9119 -0.7218 -2.5400 0.9301
-17.8683 -1.4425 -2.5400 0.9301
-17.7957 -2.1608 -2.5400 0.9301
-17.6943 -2.8756 -2.5400 0.9301
-17.4055 -4.2901 -2.5400 0.9301
-17.2187 -4.9874 -2.5400 0.9301
-16.4919 -7.0266 -2.5400 0.9301
-16.1956 -7.6849 -2.5400 0.9301
-15.5248 -8.9632 -2.5400 0.9301
-14.7532 -10.1834 -2.5400 0.9301
-13.8859 -11.3375 -2.5400 0.9301
-13.4181 -11.8874 -2.5400 0.9301
-12.4181 -12.9286 -2.5400 0.9301
-8.4254 -14.5933 -2.3876 0.9342
-7.2238 -15.2239 -2.3876 0.9342
-6.6061 -15.5050 -2.3880 0.9342
-5.7998 -15.2929 -2.3174 0.9361
-1.3421 -11.0534 -1.5776 0.9560
-0.5791 -14.3698 -2.0377 0.9436
0.5727 -14.2118 -2.0153 0.9442
1.1410 -14.1338 -2.0091 0.9443
2.2717 -13.9787 -2.0066 0.9444
3.4070 -13.8229 -2.0172 0.9441
5.9122 -15.5892 -2.3623 0.9349
7.1460 -15.0599 -2.3619 0.9349
7.7457 -14.7582 -2.3616 0.9349
10.0064 -13.3161 -2.3601 0.9349
11.0410 -12.4627 -2.3591 0.9349
11.5292 -12.0032 -2.3582 0.9350
11.9981 -11.5243 -2.3572 0.9350
12.4468 -11.0270 -2.3561 0.9350
13.2812 -9.9801 -2.3539 0.9351
14.3648 -8.2935 -2.3502 0.9352
14.6795 -7.7044 -2.3490 0.9352
15.5666 -7.3865 -2.4413 0.9328
16.2414 -6.9198 -2.5014 0.9312
16.5069 -6.2602 -2.5014 0.9312
16.7455 -5.5905 -2.5014 0.9312
16.9571 -4.9117 -2.5014 0.9312
17.4255 -2.8319 -2.5014 0.9312
17.5254 -2.1280 -2.5014 0.9312
11.5885 -0.4670 -1.6433 0.9542
11.4945 -0.0000 -1.6286 0.9546
11.4937 0.4632 -1.6299 0.9546
11.8928 0.9601 -1.6906 0.9529
17.2973 3.5313 -2.5014 0.9312
16.9571 4.9117 -2.5014 0.9312
15.7303 5.2515 -2.3497 0.9352
15.0118 7.1232 -2.3543 0.9351
14.0731 8.1250 -2.3025 0.9365
12.0975 7.6500 -2.0281 0.9438
10.0445 7.5479 -1.7802 0.9505
8.1240 7.1972 -1.5378 0.9571
7.1625 6.8796 -1.4072 0.9607
6.7607 7.0386 -1.3828 0.9613
5.9984 6.7708 -1.2817 0.9641
5.5029 6.7398 -1.2328 0.9655
4.9582 6.5981 -1.1694 0.9672
4.2085 6.6550 -1.1157 0.9687
1.8421 3.5098 -0.5616 0.9841
1.6532 3.4840 -0.5464 0.9845
2.1945 6.5733 -0.9819 0.9724
1.5378 6.2389 -0.9104 0.9744
0.4854 6.0120 -0.8546 0.9759
0.0000 5.8838 -0.8337 0.9765
-0.4860 6.0203 -0.8558 0.9759
-0.9423 5.7983 -0.8323 0.9765
-1.6781 5.7934 -0.8546 0.9759
-1.9288 5.7775 -0.8630 0.9757
-3.2408 5.6133 -0.9184 0.9742
-3.7138 5.3804 -0.9263 0.9739
-4.3877 5.3740 -0.9830 0.9724
-4.7322 5.3415 -1.0111 0.9716
-4.9448 5.1480 -1.0114 0.9716
-5.4010 5.1877 -1.0611 0.9702
-6.2924 5.1375 -1.1510 0.9677
-7.0119 5.2690 -1.2427 0.9652
-7.3318 5.0607 -1.2623 0.9646
-3.8623 2.4424 -0.6475 0.9817
-15.8731 8.3308 -2.5400 0.9301
-16.7615 6.3568 -2.5400 0.9301
-17.2187 4.9874 -2.5400 0.9301
-17.7957 2.1608 -2.5400 0.9301
-17.8683 1.4425 -2.5400 0.9301
-15.4057 -0.6208 -2.5400 0.9394
-15.3682 -1.2406 -2.5400 0.9394
-15.1066 -3.0840 -2.5400 0.9394
-14.6247 -4.8825 -2.5400 0.9394
-13.6522 -7.1652 -2.5400 0.9394
-13.0313 -8.2405 -2.5400 0.9394
-12.6889 -8.7585 -2.5400 0.9394
-11.5407 -10.2242 -2.5400 0.9394
-10.6806 -11.1196 -2.5400 0.9394
-10.2242 -11.5407 -2.5400 0.9394
-7.1519 -12.3876 -2.3564 0.9437
-6.6431 -12.6574 -2.3549 0.9437
-6.1225 -12.9030 -2.3528 0.9437
-5.5929 -13.1270 -2.3506 0.9438
-4.5153 -13.5251 -2.3490 0.9438
-3.9807 -13.7429 -2.3571 0.9436
-3.4249 -13.8954 -2.3576 0.9436
-2.2966 -14.1317 -2.3586 0.9436
-1.3417 -11.0498 -1.8337 0.9559
-1.1524 -14.2751 -2.3593 0.9436
0.0000 -14.3234 -2.3596 0.9436
0.5768 -14.3123 -2.3597 0.9436
1.1526 -14.2777 -2.3598 0.9436
1.6978 -13.9829 -2.3205 0.9445
2.8652 -14.0345 -2.3597 0.9436
3.4278 -13.9073 -2.3596 0.9436
5.0782 -13.3901 -2.3592 0.9436
6.1372 -12.9338 -2.3584 0.9436
6.6517 -12.6737 -2.3579 0.9436
7.1550 -12.3928 -2.3574 0.9436
7.6463 -12.0917 -2.3568 0.9437
9.0403 -11.0724 -2.3548 0.9437
9.8953 -10.3021 -2.3532 0.9437
10.6842 -9.4654 -2.3515 0.9438
11.4018 -8.5679 -2.3496 0.9438
12.5670 -7.9469 -2.4495 0.9415
13.4447 -7.0563 -2.5014 0.9403
13.9689 -5.9516 -2.5014 0.9403
14.1972 -5.3843 -2.5014 0.9403
14.4025 -4.8083 -2.5014 0.9403
14.5845 -4.2244 -2.5014 0.9403
14.7427 -3.6338 -2.5014 0.9403
14.9873 -2.4357 -2.5014 0.9403
15.0733 -1.8302 -2.5014 0.9403
11.4817 -0.4627 -1.8930 0.9545
11.3890 -0.0000 -1.8762 0.9549
15.0733 1.8302 -2.5014 0.9403
14.9873 2.4357 -2.5014 0.9403
14.5845 4.2245 -2.5014 0.9403
13.5251 4.5153 -2.3490 0.9438
13.1346 5.5961 -2.3520 0.9438
12.6543 6.6415 -2.3543 0.9437
12.3766 7.1456 -2.3543 0.9437
12.0788 7.6382 -2.3543 0.9437
11.2389 7.7577 -2.2497 0.9461
8.1296 7.2022 -1.7892 0.9569
7.1838 6.9001 -1.6409 0.9604
6.8143 7.0944 -1.6205 0.9609
5.5572 6.8064 -1.4475 0.9650
4.4615 6.4635 -1.2938 0.9687
4.2365 6.6995 -1.3058 0.9684
1.8415 3.5088 -0.6528 0.9841
2.1943 6.5728 -1.1416 0.9723
1.8460 6.3729 -1.0930 0.9735
1.2496 6.1207 -1.0291 0.9750
0.4866 6.0268 -0.9961 0.9758
0.2409 5.9771 -0.9855 0.9760
0.0000 6.0041 -0.9891 0.9760
-0.2508 6.2229 -1.0260 0.9751
-0.4860 6.0206 -0.9951 0.9758
-0.7171 5.9065 -0.9802 0.9762
-0.9411 5.7908 -0.9665 0.9765
-1.1497 5.6320 -0.9469 0.9770
-1.6789 5.7965 -0.9942 0.9758
-2.4105 5.6576 -1.0131 0.9754
-2.7139 5.7194 -1.0429 0.9747
-2.8845 5.4959 -1.0225 0.9752
-3.5629 5.6343 -1.0982 0.9733
-3.7424 5.4218 -1.0853 0.9736
-4.3459 5.3227 -1.1320 0.9725
-4.9729 5.1773 -1.1826 0.9713
-7.0074 5.2657 -1.4440 0.9651
-3.8623 2.4424 -0.7528 0.9816
-13.3526 7.7091 -2.5400 0.9394
-14.1844 6.0434 -2.5400 0.9394
-14.4163 5.4674 -2.5400 0.9394
-14.9702 3.6898 -2.5400 0.9394
-15.1066 3.0840 -2.5400 0.9394
-15.3682 1.2407 -2.5400 0.9394
-15.4057 0.6208 -2.5400 0.9394
-13.5134 0.0000 -2.5400 0.9465
-13.4696 -1.0874 -2.5400 0.9465
-13.4149 -1.6288 -2.5400 0.9465
-13.1207 -3.2340 -2.5400 0.9465
-12.8179 -4.2792 -2.5400 0.9465
-12.2087 -5.7931 -2.5400 0.9465
-11.9655 -6.2800 -2.5400 0.9465
-11.7029 -6.7567 -2.5400 0.9465
-11.4214 -7.2224 -2.5400 0.9465
-11.1213 -7.6765 -2.5400 0.9465
-10.4675 -8.5465 -2.5400 0.9465
-9.7459 -9.3612 -2.5400 0.9465
-9.3481 -9.7324 -2.5365 0.9466
-8.9177 -10.0659 -2.5277 0.9467
-7.5713 -10.9690 -2.5052 0.9472
-7.1156 -11.2525 -2.5024 0.9473
-5.3575 -11.2906 -2.3490 0.9504
-4.8985 -11.4972 -2.3490 0.9504
-2.5048 -12.2691 -2.3537 0.9503
-1.3412 -11.0461 -2.0915 0.9557
-1.0081 -12.4872 -2.3547 0.9503
-0.5045 -12.5190 -2.3550 0.9503
-0.0000 -12.5302 -2.3552 0.9503
0.5046 -12.5208 -2.3553 0.9503
1.0084 -12.4908 -2.3554 0.9503
2.0102 -12.3694 -2.3555 0.9503
2.9988 -12.1666 -2.3553 0.9503
3.4860 -12.0352 -2.3551 0.9503
4.4423 -11.7133 -2.3547 0.9503
5.3689 -11.3147 -2.3540 0.9503
6.2596 -10.8420 -2.3531 0.9503
6.6897 -10.5789 -2.3526 0.9503
7.9102 -9.6882 -2.3509 0.9504
8.2915 -9.3591 -2.3502 0.9504
8.6590 -9.0150 -2.3495 0.9504
9.0131 -8.6572 -2.3490 0.9504
9.5753 -8.4829 -2.4045 0.9493
10.2332 -8.3552 -2.4831 0.9477
10.6390 -7.9947 -2.5014 0.9473
10.9523 -7.5598 -2.5014 0.9473
11.2478 -7.1127 -2.5014 0.9473
11.7837 -6.1846 -2.5014 0.9473
12.0232 -5.7051 -2.5014 0.9473
12.2431 -5.2163 -2.5014 0.9473
12.4433 -4.7191 -2.5014 0.9473
12.6232 -4.2142 -2.5014 0.9473
12.7826 -3.7025 -2.5014 0.9473
12.9213 -3.1848 -2.5014 0.9473
13.0391 -2.6620 -2.5014 0.9473
13.1357 -2.1348 -2.5014 0.9473
11.4667 -0.4621 -2.1570 0.9544
11.3575 0.4577 -2.1365 0.9548
13.1357 2.1348 -2.5014 0.9473
13.0391 2.6620 -2.5014 0.9473
12.9214 3.1848 -2.5014 0.9473
11.6884 4.4328 -2.3497 0.9504
11.5069 4.9026 -2.3510 0.9504
10.8475 6.2628 -2.3543 0.9503
10.5865 6.6945 -2.3543 0.9503
10.3084 7.1154 -2.3543 0.9503
8.1642 7.2328 -2.0501 0.9566
6.7810 7.0598 -1.8399 0.9609
5.5862 6.8419 -1.6602 0.9647
4.5053 6.5269 -1.4907 0.9682
4.2213 6.6754 -1.4845 0.9684
3.7754 6.5391 -1.4192 0.9697
1.8410 3.5078 -0.7446 0.9840
1.5215 3.5710 -0.7296 0.9843
1.8360 6.3383 -1.2403 0.9735
1.5284 6.2007 -1.2004 0.9743
1.2519 6.1321 -1.1764 0.9748
1.0136 6.2369 -1.1877 0.9746
0.4894 6.0621 -1.1432 0.9756
0.0000 5.9447 -1.1174 0.9761
-0.4876 6.0401 -1.1390 0.9756
-0.7163 5.8997 -1.1171 0.9761
-1.6542 5.7111 -1.1176 0.9761
-2.1580 5.6903 -1.1439 0.9755
-2.4265 5.6952 -1.1636 0.9751
-3.2337 5.6009 -1.2156 0.9740
-3.6115 5.7112 -1.2701 0.9729
-3.7547 5.4396 -1.2424 0.9735
-4.0070 5.3324 -1.2537 0.9732
-4.5159 5.5310 -1.3421 0.9714
-4.7008 5.3061 -1.3324 0.9716
-6.1843 5.0493 -1.5006 0.9680
-7.3165 5.0502 -1.6710 0.9645
-3.8623 2.4424 -0.8590 0.9816
-11.6861 4.9790 -2.3876 0.9496
-12.6352 4.7919 -2.5400 0.9465
-12.8179 4.2793 -2.5400 0.9465
-12.9798 3.7596 -2.5400 0.9465
-13.2403 2.7030 -2.5400 0.9465
-13.4148 1.6289 -2.5400 0.9465
-13.4695 1.0874 -2.5400 0.9465
-13.5024 0.5441 -2.5400 0.9465
-11.9772 -0.9669 -2.5400 0.9521
-11.7734 -2.4036 -2.5400 0.9521
-11.6670 -2.8757 -2.5400 0.9521
-11.3978 -3.8051 -2.5400 0.9521
-11.0547 -4.7100 -2.5400 0.9521
-10.6398 -5.5842 -2.5400 0.9521
-10.4063 -6.0081 -2.5400 0.9521
-10.1560 -6.4222 -2.5400 0.9521
-9.5834 -7.2014 -2.5339 0.9522
-8.9311 -7.9123 -2.5222 0.9524
-8.2283 -8.5666 -2.5108 0.9526
-7.4911 -9.1749 -2.5037 0.9527
-7.1120 -9.4643 -2.5025 0.9528
-5.4994 -10.4782 -2.5014 0.9528
-3.0922 -10.6755 -2.3493 0.9556
-2.2240 -10.8937 -2.3502 0.9556
-0.5410 -13.4247 -2.8400 0.9466
0.4480 -11.1163 -2.3517 0.9555
1.7847 -10.9819 -2.3518 0.9555
2.2254 -10.9009 -2.3518 0.9555
2.6625 -10.8020 -2.3517 0.9555
3.0951 -10.6854 -2.3515 0.9555
3.5225 -10.5513 -2.3513 0.9555
4.7670 -10.0463 -2.3505 0.9556
5.1669 -9.8447 -2.3502 0.9556
5.9402 -9.3937 -2.3493 0.9556
6.7347 -8.9622 -2.3697 0.9552
7.2418 -8.8696 -2.4204 0.9543
7.7715 -8.7722 -2.4773 0.9532
8.1975 -8.5345 -2.5014 0.9528
9.4603 -7.1090 -2.5014 0.9528
9.7389 -6.7223 -2.5014 0.9528
10.0017 -6.3247 -2.5014 0.9528
10.2482 -5.9168 -2.5014 0.9528
11.0646 -4.1963 -2.5014 0.9528
11.5945 -2.3670 -2.5014 0.9528
11.6804 -1.8982 -2.5014 0.9528
11.7474 -1.4264 -2.5014 0.9528
11.8240 -0.4765 -2.5014 0.9528
11.8241 0.4765 -2.5014 0.9528
11.5945 2.3670 -2.5014 0.9528
11.4898 2.8320 -2.5014 0.9528
8.9041 6.6910 -2.3543 0.9555
8.6275 7.0441 -2.3543 0.9555
7.2870 6.9993 -2.1358 0.9595
5.9901 6.7614 -1.9094 0.9637
4.9694 6.6129 -1.7485 0.9667
4.5394 6.5763 -1.6891 0.9679
4.1870 6.6212 -1.6559 0.9685
2.1815 6.5344 -1.4562 0.9722
1.4974 6.0749 -1.3226 0.9747
1.0171 6.2581 -1.3402 0.9744
0.4918 6.0920 -1.2919 0.9753
0.2400 5.9559 -1.2600 0.9759
0.0000 5.8655 -1.2399 0.9763
-0.2499 6.2028 -1.3122 0.9749
-0.4831 5.9847 -1.2692 0.9758
-1.1716 5.7390 -1.2381 0.9763
-1.4315 5.8078 -1.2644 0.9758
-1.9295 5.7796 -1.2880 0.9754
-2.1519 5.6742 -1.2828 0.9755
-2.4080 5.6519 -1.2986 0.9752
-2.6691 5.6250 -1.3161 0.9749
-2.9082 5.5411 -1.3228 0.9747
-3.7279 5.4007 -1.3872 0.9735
-4.0135 5.3410 -1.4122 0.9731
-4.5105 5.5243 -1.5075 0.9713
-5.4959 5.2789 -1.6108 0.9693
-5.9385 5.2610 -1.6770 0.9681
-10.2047 4.8422 -2.3876 0.9549
-10.5612 4.0054 -2.3876 0.9549
-10.7139 3.5768 -2.3876 0.9549
-11.6670 2.8757 -2.5400 0.9521
-11.7734 2.4035 -2.5400 0.9521
-11.8606 1.9275 -2.5400 0.9521
-11.9772 0.9669 -2.5400 0.9521
-12.0065 0.4835 -2.5400 0.9521
-10.8027 0.0000 -2.5389 0.9566
-10.7679 -0.8693 -2.5389 0.9566
-10.6658 -1.7334 -2.5396 0.9566
-10.5857 -2.1611 -2.5392 0.9566
-10.4864 -2.5850 -2.5383 0.9566
-10.3728 -3.0045 -2.5381 0.9566
-10.0876 -3.8257 -2.5356 0.9566
-9.0621 -5.7305 -2.5199 0.9569
-8.2687 -6.7512 -2.5088 0.9571
-7.3780 -7.6813 -2.5032 0.9572
-6.7344 -8.2481 -2.5026 0.9572
-6.3960 -8.5116 -2.5023 0.9572
-5.3216 -9.2173 -2.5014 0.9572
-4.9461 -9.4241 -2.5014 0.9572
-4.5627 -9.6156 -2.5014 0.9572
-4.1718 -9.7915 -2.5014 0.9572
-3.7741 -9.9516 -2.5014 0.9572
-2.9611 -10.2230 -2.5014 0.9572
-2.5334 -10.2784 -2.4880 0.9574
-2.0879 -10.2271 -2.4532 0.9580
-1.6537 -10.1753 -2.4228 0.9585
-1.2293 -10.1240 -2.3969 0.9590
-0.8132 -10.0730 -2.3751 0.9593
-0.4041 -10.0268 -2.3584 0.9596
0.0000 -9.9947 -2.3490 0.9598
0.4024 -9.9866 -2.3490 0.9598
1.9992 -9.7928 -2.3490 0.9598
2.3919 -9.7043 -2.3490 0.9598
2.7807 -9.6001 -2.3490 0.9598
3.1775 -9.5178 -2.3583 0.9596
3.5838 -9.4496 -2.3752 0.9593
3.9982 -9.3841 -2.3973 0.9590
5.2927 -9.1672 -2.4878 0.9574
5.6884 -8.9955 -2.5014 0.9572
6.3938 -8.5086 -2.5014 0.9572
6.7312 -8.2443 -2.5014 0.9572
7.0577 -7.9665 -2.5014 0.9572
7.3728 -7.6759 -2.5014 0.9572
7.9665 -7.0578 -2.5014 0.9572
8.2443 -6.7312 -2.5014 0.9572
8.5086 -6.3938 -2.5014 0.9572
8.7592 -6.0460 -2.5014 0.9572
8.9955 -5.6884 -2.5014 0.9572
9.4241 -4.9462 -2.5014 0.9572
9.7915 -4.1718 -2.5014 0.9572
10.2230 -2.9611 -2.5014 0.9572
10.4281 -2.1289 -2.5014 0.9572
10.5054 -1.7073 -2.5014 0.9572
10.5656 -1.2829 -2.5014 0.9572
10.6087 -0.8564 -2.5014 0.9572
10.6346 0.4286 -2.5014 0.9572
10.2230 2.9611 -2.5014 0.9572
10.0955 3.3704 -2.5014 0.9572
9.5177 3.6096 -2.3924 0.9590
9.1969 3.9184 -2.3495 0.9598
8.8596 4.6499 -2.3516 0.9597
8.6690 5.0050 -2.3526 0.9597
8.4641 5.3523 -2.3536 0.9597
7.4982 6.6428 -2.3543 0.9597
7.2246 6.9393 -2.3543 0.9597
5.5864 6.8421 -2.0760 0.9644
5.0623 6.7366 -1.9805 0.9660
1.8400 3.5058 -0.9305 0.9839
1.6513 3.4801 -0.9053 0.9843
1.5206 3.5691 -0.9118 0.9842
2.4264 6.3978 -1.6082 0.9723
2.1850 6.5449 -1.6217 0.9720
-0.2492 6.1848 -1.4548 0.9749
-0.4879 6.0442 -1.4252 0.9754
-0.9450 5.8153 -1.3847 0.9761
-1.4774 5.9942 -1.4510 0.9750
-1.9136 5.7320 -1.4202 0.9755
-2.1203 5.5909 -1.4053 0.9757
-2.6688 5.6243 -1.4631 0.9747
-2.8843 5.4956 -1.4587 0.9748
-3.1901 5.5254 -1.4995 0.9741
-3.5881 5.6741 -1.5778 0.9728
-3.7588 5.4456 -1.5551 0.9732
-3.9610 5.2711 -1.5496 0.9733
-4.7298 5.3388 -1.6763 0.9711
-5.4363 5.2217 -1.7716 0.9695
-6.0111 5.3253 -1.8874 0.9675
-6.3329 5.1706 -1.9215 0.9670
-7.1667 5.3853 -2.1069 0.9638
-8.7979 5.0795 -2.3876 0.9591
-8.9953 4.7211 -2.3876 0.9591
-9.1773 4.3547 -2.3874 0.9591
-9.3408 3.9797 -2.3863 0.9591
-9.8222 2.4210 -2.3775 0.9593
-10.6460 1.7302 -2.5349 0.9566
-10.7136 1.3009 -2.5364 0.9566
-10.7908 0.4349 -2.5381 0.9566
-9.7322 -0.3922 -2.5219 0.9606
-9.7094 -0.7838 -2.5221 0.9606
-9.6702 -1.1742 -2.5222 0.9605
-9.6140 -1.5624 -2.5219 0.9606
-9.5409 -1.9478 -2.5213 0.9606
-9.4514 -2.3296 -2.5204 0.9606
-8.7642 -4.1587 -2.5117 0.9607
-8.5845 -4.5055 -2.5102 0.9607
-8.3874 -4.8425 -2.5076 0.9608
-8.1820 -5.1740 -2.5065 0.9608
-7.7313 -5.8097 -2.5040 0.9608
-7.4903 -6.1157 -2.5037 0.9608
-7.2373 -6.4116 -2.5035 0.9608
-6.6965 -6.9718 -2.5029 0.9608
-6.4096 -7.2350 -2.5027 0.9608
-6.1125 -7.4864 -2.5024 0.9609
-5.4890 -7.9522 -2.5018 0.9609
-4.8305 -8.3667 -2.5014 0.9609
-4.4897 -8.5544 -2.5014 0.9609
-3.0593 -9.1638 -2.5014 0.9609
-1.9324 -9.4657 -2.5014 0.9609
-1.1645 -9.5905 -2.5014 0.9609
-0.7774 -9.6296 -2.5014 0.9609
0.0000 -9.6610 -2.5014 0.9609
0.7774 -9.6296 -2.5014 0.9609
1.1645 -9.5905 -2.5014 0.9609
1.5497 -9.5359 -2.5014 0.9609
2.3120 -9.3802 -2.5014 0.9609
3.0593 -9.1638 -2.5014 0.9609
3.4258 -9.0332 -2.5014 0.9609
4.1416 -8.7282 -2.5014 0.9609
4.8305 -8.3666 -2.5014 0.9609
6.1100 -7.4834 -2.5014 0.9609
6.4064 -7.2313 -2.5014 0.9609
7.2313 -6.4064 -2.5014 0.9609
7.4834 -6.1100 -2.5014 0.9609
7.7234 -5.8037 -2.5014 0.9609
8.1653 -5.1634 -2.5014 0.9609
8.7282 -4.1416 -2.5014 0.9609
8.8879 -3.7868 -2.5014 0.9609
9.1638 -3.0593 -2.5014 0.9609
9.2795 -2.6879 -2.5014 0.9609
9.3802 -2.3120 -2.5014 0.9609
9.4657 -1.9324 -2.5014 0.9609
9.6296 -0.7774 -2.5014 0.9609
9.6610 0.0000 -2.5014 0.9609
9.5905 1.1645 -2.5014 0.9609
9.4657 1.9324 -2.5014 0.9609
9.3802 2.3120 -2.5014 0.9609
9.2795 2.6879 -2.5014 0.9609
9.1638 3.0593 -2.5014 0.9609
9.0332 3.4258 -2.5014 0.9609
8.0394 4.2194 -2.3508 0.9632
7.6798 4.8564 -2.3527 0.9632
7.2693 5.4625 -2.3543 0.9631
7.0435 5.7508 -2.3543 0.9631
5.9733 6.7425 -2.3323 0.9635
5.1581 6.8641 -2.2231 0.9651
4.4978 6.5161 -2.0500 0.9678
4.3270 6.8425 -2.0962 0.9671
3.7426 6.4823 -1.9380 0.9695
1.8394 3.5047 -1.0248 0.9838
1.6509 3.4792 -0.9971 0.9842
2.1898 6.5592 -1.7905 0.9718
1.8604 6.4225 -1.7313 0.9728
1.2460 6.1029 -1.6127 0.9746
0.7479 6.1596 -1.6066 0.9747
0.4847 6.0032 -1.5594 0.9754
0.2381 5.9081 -1.5310 0.9759
0.0000 5.9104 -1.5303 0.9759
-0.2511 6.2318 -1.6148 0.9746
-0.4880 6.0460 -1.5705 0.9752
-0.9380 5.7723 -1.5142 0.9761
-1.1856 5.8078 -1.5348 0.9758
-1.4701 5.9645 -1.5905 0.9749
-1.6888 5.8305 -1.5717 0.9752
-2.6651 5.6166 -1.6097 0.9746
-2.8910 5.5083 -1.6107 0.9746
-3.1676 5.4865 -1.6403 0.9742
-3.7535 5.4379 -1.7108 0.9731
-4.0265 5.3583 -1.7354 0.9727
-4.3655 5.3468 -1.7872 0.9719
-5.6479 5.4248 -2.0276 0.9682
-6.3167 5.1573 -2.1114 0.9669
-7.8992 4.5606 -2.3616 0.9630
-8.7549 2.5359 -2.3600 0.9630
-8.8462 2.1804 -2.3590 0.9631
-9.6965 0.7828 -2.5188 0.9606
-9.7255 0.3919 -2.5202 0.9606
-8.8538 -0.0000 -2.5065 0.9639
-8.8289 -0.7127 -2.5075 0.9638
-8.7433 -1.4209 -2.5076 0.9638
-8.5979 -2.1192 -2.5069 0.9639
-8.2740 -3.1380 -2.5051 0.9639
-8.1404 -3.4683 -2.5049 0.9639
-7.0703 -5.3130 -2.5037 0.9639
-6.6186 -5.8636 -2.5032 0.9639
-6.1241 -6.3759 -2.5027 0.9639
-5.8619 -6.6167 -2.5025 0.9639
-5.3083 -7.0641 -2.5015 0.9639
-5.0194 -7.2718 -2.5014 0.9639
-4.7225 -7.4681 -2.5014 0.9639
-4.4180 -7.6521 -2.5014 0.9639
-4.1063 -7.8238 -2.5014 0.9639
-3.4634 -8.1289 -2.5014 0.9639
-3.1333 -8.2617 -2.5014 0.9639
-2.4583 -8.4871 -2.5014 0.9639
-2.1146 -8.5792 -2.5014 0.9639
-1.4174 -8.7215 -2.5014 0.9639
-1.0651 -8.7715 -2.5014 0.9639
-0.3558 -8.8288 -2.5014 0.9639
0.3558 -8.8288 -2.5014 0.9639
0.7110 -8.8073 -2.5014 0.9639
1.7674 -8.6574 -2.5014 0.9639
3.4634 -8.1289 -2.5014 0.9639
3.7879 -7.9828 -2.5014 0.9639
4.1063 -7.8239 -2.5014 0.9639
4.4180 -7.6522 -2.5014 0.9639
4.7225 -7.4681 -2.5014 0.9639
5.0194 -7.2719 -2.5014 0.9639
5.5883 -6.8444 -2.5014 0.9639
6.1209 -6.3725 -2.5014 0.9639
6.6138 -5.8593 -2.5014 0.9639
7.2718 -5.0194 -2.5014 0.9639
7.6522 -4.4180 -2.5014 0.9639
7.8238 -4.1063 -2.5014 0.9639
7.9828 -3.7879 -2.5014 0.9639
8.2618 -3.1333 -2.5014 0.9639
8.6574 -1.7674 -2.5014 0.9639
8.7715 -1.0651 -2.5014 0.9639
8.8288 -0.3558 -2.5014 0.9639
8.8288 0.3558 -2.5014 0.9639
8.8073 0.7110 -2.5014 0.9639
8.6574 1.7674 -2.5014 0.9639
8.5792 2.1146 -2.5014 0.9639
8.4871 2.4583 -2.5014 0.9639
8.3812 2.7981 -2.5014 0.9639
8.2618 3.1333 -2.5014 0.9639
7.7485 3.3013 -2.3844 0.9656
7.4975 3.5576 -2.3493 0.9661
7.3509 3.8580 -2.3502 0.9661
7.1922 4.1524 -2.3510 0.9661
6.8395 4.7210 -2.3527 0.9660
6.4418 5.2596 -2.3543 0.9660
6.2250 5.5148 -2.3543 0.9660
5.7610 5.9978 -2.3543 0.9660
5.2597 6.4420 -2.3543 0.9660
4.9960 6.6485 -2.3543 0.9660
4.5423 6.5805 -2.2636 0.9673
4.3269 6.8423 -2.2918 0.9669
3.8498 6.6679 -2.1797 0.9685
1.6504 3.4781 -1.0899 0.9841
2.4650 6.4997 -1.9679 0.9715
2.1857 6.5470 -1.9540 0.9717
1.8390 6.3488 -1.8712 0.9729
1.2346 6.0473 -1.7473 0.9747
1.0211 6.2829 -1.8020 0.9739
0.4939 6.1182 -1.7377 0.9748
0.0000 6.0280 -1.7065 0.9753
-0.4907 6.0784 -1.7264 0.9750
-0.7154 5.8922 -1.6803 0.9756
-0.9428 5.8012 -1.6638 0.9759
-1.4552 5.9040 -1.7214 0.9750
-1.9063 5.7101 -1.7042 0.9753
-2.6613 5.6086 -1.7574 0.9745
-3.1901 5.5254 -1.8062 0.9738
-3.7810 5.4777 -1.8842 0.9727
-4.0069 5.3322 -1.8882 0.9727
-4.5573 5.5817 -2.0399 0.9705
-5.7721 5.5442 -2.2657 0.9673
-6.6485 4.9960 -2.3543 0.9660
-7.2023 4.1582 -2.3543 0.9660
-7.4965 3.5571 -2.3490 0.9661
-7.8710 2.6277 -2.3491 0.9661
-8.0576 1.9860 -2.3493 0.9661
-8.1313 1.6600 -2.3494 0.9661
-8.1916 1.3313 -2.3494 0.9661
-8.8230 0.7123 -2.5059 0.9639
-8.8469 0.3565 -2.5065 0.9639
-8.1354 0.0000 -2.5023 0.9665
-8.1313 -0.3277 -2.5031 0.9665
-8.1147 -0.6551 -2.5040 0.9665
-8.0404 -1.3067 -2.5055 0.9665
-7.9809 -1.6293 -2.5054 0.9665
-7.9083 -1.9492 -2.5052 0.9665
-7.3562 -3.4906 -2.5044 0.9665
-7.2091 -3.7837 -2.5042 0.9665
-6.8802 -4.3508 -2.5038 0.9665
-6.6989 -4.6239 -2.5036 0.9665
-6.0903 -5.3955 -2.5026 0.9665
-5.6336 -5.8652 -2.5014 0.9665
-5.3929 -6.0873 -2.5014 0.9665
-4.8856 -6.5015 -2.5014 0.9665
-4.0663 -7.0430 -2.5014 0.9665
-3.4864 -7.3473 -2.5014 0.9665
-2.8838 -7.6041 -2.5014 0.9665
-1.3046 -8.0272 -2.5014 0.9665
-0.9803 -8.0733 -2.5014 0.9665
-0.6544 -8.1062 -2.5014 0.9665
-0.3275 -8.1260 -2.5014 0.9665
0.3275 -8.1259 -2.5014 0.9665
1.3045 -8.0272 -2.5014 0.9665
1.6267 -7.9682 -2.5014 0.9665
2.2626 -7.8115 -2.5014 0.9665
2.8838 -7.6041 -2.5014 0.9665
3.1877 -7.4818 -2.5014 0.9665
3.7794 -7.2010 -2.5014 0.9665
4.0663 -7.0430 -2.5014 0.9665
5.8652 -5.6336 -2.5014 0.9665
6.0873 -5.3929 -2.5014 0.9665
6.2995 -5.1434 -2.5014 0.9665
6.8735 -4.3466 -2.5014 0.9665
7.2010 -3.7794 -2.5014 0.9665
7.4818 -3.1877 -2.5014 0.9665
7.6041 -2.8838 -2.5014 0.9665
7.7140 -2.5753 -2.5014 0.9665
7.8115 -2.2626 -2.5014 0.9665
7.8962 -1.9462 -2.5014 0.9665
7.9682 -1.6267 -2.5014 0.9665
8.0732 -0.9803 -2.5014 0.9665
8.1062 -0.6544 -2.5014 0.9665
8.1259 -0.3275 -2.5014 0.9665
8.0272 1.3046 -2.5014 0.9665
7.9682 1.6267 -2.5014 0.9665
7.8115 2.2626 -2.5014 0.9665
7.7140 2.5753 -2.5014 0.9665
7.4818 3.1877 -2.5014 0.9665
6.8997 3.2740 -2.3490 0.9685
6.4608 4.0855 -2.3512 0.9685
6.2930 4.3438 -2.3519 0.9685
5.5204 5.3024 -2.3543 0.9685
5.3024 5.5204 -2.3543 0.9685
4.5983 6.1192 -2.3543 0.9685
4.3482 6.2994 -2.3543 0.9685
4.0910 6.4694 -2.3543 0.9685
1.8383 3.5027 -1.2167 0.9836
1.5194 3.5661 -1.1923 0.9839
1.8702 6.4567 -2.0676 0.9723
1.2300 6.0247 -1.8913 0.9746
1.0176 6.2613 -1.9511 0.9738
0.2430 6.0295 -1.8561 0.9751
-0.4853 6.0116 -1.8551 0.9751
-0.7203 5.9328 -1.8382 0.9753
-1.1780 5.7703 -1.8114 0.9757
-1.6814 5.8050 -1.8589 0.9750
-1.9359 5.7987 -1.8803 0.9747
-2.4248 5.6912 -1.9028 0.9744
-3.2617 5.6494 -2.0065 0.9731
-4.0800 5.4295 -2.0890 0.9720
-4.8404 5.4637 -2.2452 0.9699
-5.0861 5.2952 -2.2583 0.9697
-6.2995 4.3482 -2.3543 0.9685
-6.6289 3.8272 -2.3543 0.9685
-7.1408 2.7081 -2.3490 0.9685
-7.2440 2.4184 -2.3490 0.9685
-8.1065 0.6544 -2.5015 0.9665
-7.5190 -0.3030 -2.5014 0.9688
-7.5007 -0.6055 -2.5014 0.9688
-7.4703 -0.9071 -2.5014 0.9688
-7.4279 -1.2072 -2.5015 0.9688
-7.3736 -1.5053 -2.5016 0.9688
-7.3073 -1.8011 -2.5017 0.9688
-7.0372 -2.6689 -2.5018 0.9688
-6.6638 -3.4974 -2.5016 0.9688
-6.3601 -4.0220 -2.5014 0.9688
-6.0159 -4.5207 -2.5014 0.9688
-5.6326 -4.9901 -2.5014 0.9688
-5.4271 -5.2129 -2.5014 0.9688
-4.5207 -6.0159 -2.5014 0.9688
-4.2748 -6.1931 -2.5014 0.9688
-2.6685 -7.0361 -2.5014 0.9688
-2.0936 -7.2280 -2.5014 0.9688
-1.2071 -7.4277 -2.5014 0.9688
-0.6055 -7.5007 -2.5014 0.9688
-0.3030 -7.5190 -2.5014 0.9688
0.0000 -7.5251 -2.5014 0.9688
0.6055 -7.5007 -2.5014 0.9688
1.2071 -7.4277 -2.5014 0.9688
1.5052 -7.3730 -2.5014 0.9688
1.8009 -7.3065 -2.5014 0.9688
2.0936 -7.2280 -2.5014 0.9688
2.3830 -7.1379 -2.5014 0.9688
3.2260 -6.7986 -2.5014 0.9688
3.4971 -6.6632 -2.5014 0.9688
3.7626 -6.5170 -2.5014 0.9688
4.2748 -6.1931 -2.5014 0.9688
4.5207 -6.0159 -2.5014 0.9688
4.9901 -5.6326 -2.5014 0.9688
5.2128 -5.4271 -2.5014 0.9688
5.6326 -4.9901 -2.5014 0.9688
6.0159 -4.5207 -2.5014 0.9688
6.5170 -3.7626 -2.5014 0.9688
7.0361 -2.6684 -2.5014 0.9688
7.2280 -2.0936 -2.5014 0.9688
7.3065 -1.8009 -2.5014 0.9688
7.3730 -1.5052 -2.5014 0.9688
7.4277 -1.2071 -2.5014 0.9688
7.4703 -0.9071 -2.5014 0.9688
7.5007 -0.6055 -2.5014 0.9688
7.4703 0.9070 -2.5014 0.9688
7.4277 1.2071 -2.5014 0.9688
7.3065 1.8009 -2.5014 0.9688
7.2280 2.0936 -2.5014 0.9688
6.5068 3.0875 -2.3941 0.9701
5.6565 4.2506 -2.3520 0.9706
5.4823 4.4762 -2.3526 0.9706
5.2991 4.6946 -2.3533 0.9706
5.1072 4.9055 -2.3539 0.9706
4.9064 5.1080 -2.3543 0.9706
4.6967 5.3015 -2.3543 0.9706
4.2549 5.6622 -2.3543 0.9706
3.5414 6.1338 -2.3543 0.9706
1.8378 3.5016 -1.3145 0.9835
1.6494 3.4761 -1.2790 0.9839
1.5190 3.5651 -1.2881 0.9838
2.2047 6.6037 -2.3142 0.9711
1.9090 6.5903 -2.2807 0.9715
1.5186 6.1610 -2.1093 0.9736
0.7515 6.1890 -2.0724 0.9741
0.4984 6.1732 -2.0587 0.9742
0.2429 6.0258 -2.0047 0.9749
0.0000 5.9913 -1.9915 0.9751
-0.2574 6.3892 -2.1255 0.9734
-0.4945 6.1260 -2.0430 0.9744
-0.7136 5.8771 -1.9680 0.9754
-1.1709 5.7358 -1.9459 0.9756
-2.1586 5.6919 -2.0235 0.9747
-2.4085 5.6531 -2.0426 0.9744
-2.6946 5.6787 -2.0893 0.9739
-3.2312 5.5965 -2.1481 0.9731
-3.7966 5.5004 -2.2216 0.9722
-4.1560 5.5306 -2.2996 0.9713
-4.4794 5.4863 -2.3543 0.9706
-4.6967 5.3015 -2.3543 0.9706
-5.4863 4.4794 -2.3543 0.9706
-5.6622 4.2549 -2.3543 0.9706
-5.8289 4.0234 -2.3543 0.9706
-6.1338 3.5413 -2.3543 0.9706
-6.2703 3.2909 -2.3539 0.9706
-6.5112 2.7742 -2.3526 0.9706
-6.6158 2.5090 -2.3520 0.9706
-7.5190 0.3030 -2.5014 0.9688
-6.9948 -0.0000 -2.5014 0.9707
-6.9721 -0.5629 -2.5014 0.9707
-6.9438 -0.8431 -2.5014 0.9707
-6.9042 -1.1221 -2.5014 0.9707
-6.8534 -1.3992 -2.5014 0.9707
-6.7916 -1.6740 -2.5014 0.9707
-6.7186 -1.9461 -2.5014 0.9707
-6.4351 -2.7417 -2.5014 0.9707
-6.1936 -3.2506 -2.5014 0.9707
-5.9119 -3.7385 -2.5014 0.9707
-5.7566 -3.9735 -2.5014 0.9707
-5.5920 -4.2021 -2.5014 0.9707
-5.2357 -4.6384 -2.5014 0.9707
-4.6384 -5.2357 -2.5014 0.9707
-4.4238 -5.4182 -2.5014 0.9707
-4.2021 -5.5920 -2.5014 0.9707
-3.4974 -6.0577 -2.5014 0.9707
-2.9986 -6.3195 -2.5014 0.9707
-2.7417 -6.4351 -2.5014 0.9707
-1.3991 -6.8535 -2.5014 0.9707
-1.1220 -6.9042 -2.5014 0.9707
-0.8431 -6.9438 -2.5014 0.9707
-0.2817 -6.9891 -2.5014 0.9707
0.0000 -6.9948 -2.5014 0.9707
0.2816 -6.9891 -2.5014 0.9707
1.3991 -6.8534 -2.5014 0.9707
2.2150 -6.6348 -2.5014 0.9707
2.4804 -6.5403 -2.5014 0.9707
2.9986 -6.3195 -2.5014 0.9707
3.4974 -6.0577 -2.5014 0.9707
3.7385 -5.9119 -2.5014 0.9707
3.9735 -5.7566 -2.5014 0.9707
4.4238 -5.4182 -2.5014 0.9707
4.8455 -5.0447 -2.5014 0.9707
5.4182 -4.4238 -2.5014 0.9707
5.5919 -4.2021 -2.5014 0.9707
5.9119 -3.7385 -2.5014 0.9707
6.0577 -3.4974 -2.5014 0.9707
6.1936 -3.2507 -2.5014 0.9707
6.3195 -2.9986 -2.5014 0.9707
6.5403 -2.4804 -2.5014 0.9707
6.6348 -2.2151 -2.5014 0.9707
6.7916 -1.6740 -2.5014 0.9707
6.8535 -1.3992 -2.5014 0.9707
6.9438 -0.8431 -2.5014 0.9707
6.9721 0.5628 -2.5014 0.9707
6.9042 1.1221 -2.5014 0.9707
6.8534 1.3991 -2.5014 0.9707
6.7916 1.6740 -2.5014 0.9707
6.7186 1.9461 -2.5014 0.9707
6.6348 2.2150 -2.5014 0.9707
6.4351 2.7417 -2.5014 0.9707
5.5543 3.5123 -2.3501 0.9725
5.2565 3.9500 -2.3513 0.9725
5.0945 4.1596 -2.3520 0.9724
4.7457 4.5583 -2.3532 0.9724
4.5595 4.7469 -2.3537 0.9724
4.3657 4.9278 -2.3543 0.9724
4.1637 5.0996 -2.3543 0.9724
3.9550 5.2632 -2.3543 0.9724
3.7399 5.4182 -2.3543 0.9724
3.2918 5.7015 -2.3543 0.9724
1.6489 3.4751 -1.3755 0.9838
1.5185 3.5641 -1.3854 0.9837
2.0848 6.2447 -2.3543 0.9724
1.0264 6.3154 -2.2881 0.9732
0.7644 6.2956 -2.2679 0.9734
0.5004 6.1989 -2.2240 0.9739
0.2414 5.9908 -2.1441 0.9749
-0.2538 6.2978 -2.2540 0.9736
-0.4929 6.1063 -2.1908 0.9743
-0.7170 5.9054 -2.1273 0.9750
-1.1611 5.6878 -2.0760 0.9756
-2.1397 5.6421 -2.1579 0.9747
-2.9454 5.6120 -2.2665 0.9734
-3.2918 5.7015 -2.3543 0.9724
-3.5187 5.5644 -2.3543 0.9724
-3.7399 5.4182 -2.3543 0.9724
-3.9550 5.2632 -2.3543 0.9724
-4.1637 5.0996 -2.3543 0.9724
-4.5606 4.7481 -2.3543 0.9724
-4.7481 4.5606 -2.3543 0.9724
-5.2632 3.9550 -2.3543 0.9724
-5.4182 3.7399 -2.3543 0.9724
-3.8623 2.4424 -1.6342 0.9808
-5.7001 3.2910 -2.3537 0.9724
-6.0507 2.5779 -2.3520 0.9724
-6.2351 2.0816 -2.3507 0.9725
-6.4359 1.3139 -2.3490 0.9725
-6.9042 1.1221 -2.5014 0.9707
-6.9438 0.8431 -2.5014 0.9707
-6.9721 0.5629 -2.5014 0.9707
-6.9891 0.2817 -2.5014 0.9707
-6.4428 -1.0471 -2.5014 0.9724
-6.2696 -1.8160 -2.5014 0.9724
-6.1914 -2.0670 -2.5014 0.9724
-6.1032 -2.3146 -2.5014 0.9724
-6.0050 -2.5585 -2.5014 0.9724
-5.8971 -2.7982 -2.5014 0.9724
-5.3719 -3.7080 -2.5014 0.9724
-5.2182 -3.9213 -2.5014 0.9724
-4.3284 -4.8858 -2.5014 0.9724
-4.1282 -5.0561 -2.5014 0.9724
-3.9212 -5.2182 -2.5014 0.9724
-3.4886 -5.5169 -2.5014 0.9724
-3.2637 -5.6529 -2.5014 0.9724
-3.0334 -5.7797 -2.5014 0.9724
-2.5585 -6.0050 -2.5014 0.9724
-1.3056 -6.3954 -2.5014 0.9724
-0.7868 -6.4797 -2.5014 0.9724
-0.5252 -6.5062 -2.5014 0.9724
0.0000 -6.5273 -2.5014 0.9724
1.0471 -6.4428 -2.5014 0.9724
2.5585 -6.0050 -2.5014 0.9724
2.7982 -5.8971 -2.5014 0.9724
3.0334 -5.7797 -2.5014 0.9724
3.4886 -5.5168 -2.5014 0.9724
3.7080 -5.3719 -2.5014 0.9724
4.1282 -5.0561 -2.5014 0.9724
4.5216 -4.7075 -2.5014 0.9724
5.3719 -3.7079 -2.5014 0.9724
5.6528 -3.2637 -2.5014 0.9724
5.8971 -2.7982 -2.5014 0.9724
6.0050 -2.5585 -2.5014 0.9724
6.1032 -2.3146 -2.5014 0.9724
6.3954 -1.3056 -2.5014 0.9724
6.4428 -1.0471 -2.5014 0.9724
6.4797 -0.7868 -2.5014 0.9724
6.5062 -0.5253 -2.5014 0.9724
6.5220 0.2628 -2.5014 0.9724
6.4797 0.7868 -2.5014 0.9724
6.4428 1.0471 -2.5014 0.9724
6.3954 1.3056 -2.5014 0.9724
6.1914 2.0670 -2.5014 0.9724
6.1032 2.3146 -2.5014 0.9724
6.0050 2.5585 -2.5014 0.9724
5.8971 2.7982 -2.5014 0.9724
5.5872 2.9324 -2.4181 0.9733
5.0472 3.4838 -2.3502 0.9741
4.5939 4.0698 -2.3519 0.9741
3.8850 4.7583 -2.3541 0.9740
3.6907 4.9114 -2.3543 0.9740
3.4899 5.0561 -2.3543 0.9740
1.8366 3.4994 -1.5145 0.9832
1.6484 3.4740 -1.4736 0.9837
1.5181 3.5630 -1.4842 0.9835
0.7405 6.0988 -2.3543 0.9740
0.2461 6.1062 -2.3419 0.9742
0.0000 6.0086 -2.3026 0.9746
-0.2474 6.1386 -2.3543 0.9740
-0.7226 5.9517 -2.2976 0.9746
-0.9472 5.8284 -2.2629 0.9750
-1.7007 5.8717 -2.3427 0.9742
-1.9309 5.7838 -2.3367 0.9742
-2.1612 5.6986 -2.3356 0.9742
-2.4081 5.6520 -2.3543 0.9740
-2.6337 5.5504 -2.3543 0.9740
-3.0718 5.3205 -2.3543 0.9740
-3.2835 5.1925 -2.3543 0.9740
-3.6907 4.9114 -2.3543 0.9740
-4.5985 4.0739 -2.3543 0.9740
-4.7588 3.8855 -2.3543 0.9740
-5.0555 3.4895 -2.3540 0.9740
-5.5448 2.6310 -2.3519 0.9741
-5.8172 1.9421 -2.3502 0.9741
-5.8892 1.7058 -2.3496 0.9741
-5.9515 1.4669 -2.3490 0.9741
-6.4428 1.0471 -2.5014 0.9724
-2.8160 -0.0000 -1.1525 0.9879
-2.8096 -0.2268 -1.1536 0.9879
-3.0246 -0.4916 -1.2541 0.9868
-5.7146 -2.1673 -2.5014 0.9739
-5.4117 -2.8403 -2.5014 0.9739
-4.8860 -3.6716 -2.5014 0.9739
-4.4078 -4.2338 -2.5014 0.9739
-4.2338 -4.4078 -2.5014 0.9739
-4.0529 -4.5747 -2.5014 0.9739
-3.8654 -4.7342 -2.5014 0.9739
-3.4719 -5.0299 -2.5014 0.9739
-3.2665 -5.1656 -2.5014 0.9739
-2.3956 -5.6227 -2.5014 0.9739
-2.1673 -5.7146 -2.5014 0.9739
-1.7004 -5.8705 -2.5014 0.9739
-1.2225 -5.9883 -2.5014 0.9739
-0.9804 -6.0326 -2.5014 0.9739
-0.2461 -6.1068 -2.5014 0.9739
0.7367 -6.0672 -2.5014 0.9739
0.9804 -6.0326 -2.5014 0.9739
1.2225 -5.9883 -2.5014 0.9739
1.7004 -5.8705 -2.5014 0.9739
3.0559 -5.2929 -2.5014 0.9739
3.4719 -5.0299 -2.5014 0.9739
4.2338 -4.4078 -2.5014 0.9739
4.4078 -4.2338 -2.5014 0.9739
4.8860 -3.6716 -2.5014 0.9739
5.1656 -3.2665 -2.5014 0.9739
5.2930 -3.0559 -2.5014 0.9739
5.5217 -2.6201 -2.5014 0.9739
5.7146 -2.1673 -2.5014 0.9739
5.9342 -1.4626 -2.5014 0.9739
5.9883 -1.2225 -2.5014 0.9739
6.0672 -0.7367 -2.5014 0.9739
6.1068 -0.2461 -2.5014 0.9739
6.0919 0.4918 -2.5014 0.9739
6.0672 0.7367 -2.5014 0.9739
6.0326 0.9804 -2.5014 0.9739
5.9883 1.2225 -2.5014 0.9739
5.8705 1.7004 -2.5014 0.9739
5.7146 2.1673 -2.5014 0.9739
5.6227 2.3956 -2.5014 0.9739
5.5217 2.6201 -2.5014 0.9739
5.4117 2.8403 -2.5014 0.9739
4.8513 3.0678 -2.3492 0.9755
4.5909 3.4498 -2.3503 0.9755
4.1444 3.9807 -2.3519 0.9755
3.8122 4.3031 -2.3529 0.9755
3.6366 4.4540 -2.3534 0.9755
3.2676 4.7340 -2.3542 0.9754
3.0745 4.8619 -2.3543 0.9754
1.8360 3.4983 -1.6170 0.9831
1.5176 3.5620 -1.5846 0.9834
1.4055 3.7059 -1.6221 0.9830
1.8216 5.4564 -2.3543 0.9754
1.6004 5.5253 -2.3543 0.9754
1.3767 5.5853 -2.3543 0.9754
0.9228 5.6779 -2.3543 0.9754
0.6934 5.7105 -2.3543 0.9754
0.4629 5.7338 -2.3543 0.9754
0.0000 5.7524 -2.3543 0.9754
-0.2316 5.7478 -2.3543 0.9754
-0.4629 5.7338 -2.3543 0.9754
-0.6934 5.7105 -2.3543 0.9754
-0.9228 5.6780 -2.3543 0.9754
-1.1506 5.6362 -2.3543 0.9754
-1.3767 5.5853 -2.3543 0.9754
-1.6004 5.5253 -2.3543 0.9754
-1.8216 5.4564 -2.3543 0.9754
-2.0398 5.3786 -2.3543 0.9754
-2.8762 4.9818 -2.3543 0.9754
-3.0745 4.8619 -2.3543 0.9754
-3.8146 4.3058 -2.3543 0.9754
-3.9848 4.1487 -2.3543 0.9754
-4.1487 3.9849 -2.3543 0.9754
-4.3058 3.8146 -2.3543 0.9754
-4.4557 3.6380 -2.3542 0.9754
-4.5977 3.4550 -2.3538 0.9754
-5.0883 2.6705 -2.3519 0.9755
-5.1905 2.4629 -2.3514 0.9755
-5.2843 2.2514 -2.3508 0.9755
-5.4458 1.8181 -2.3498 0.9755
-3.0070 0.6139 -1.2561 0.9868
-2.8203 0.1137 -1.1552 0.9879
-2.3650 0.0000 -1.0307 0.9897
-2.3670 -0.0954 -1.0324 0.9897
-2.3649 -0.1909 -1.0340 0.9897
-2.3794 -0.2889 -1.0446 0.9896
-2.4021 -0.3904 -1.0606 0.9894
-2.4207 -0.4942 -1.0767 0.9893
-5.5728 -1.3736 -2.5014 0.9753
-5.5129 -1.5968 -2.5014 0.9753
-5.3666 -2.0353 -2.5014 0.9753
-4.8510 -3.0676 -2.5014 0.9753
-4.5885 -3.4480 -2.5014 0.9753
-4.2961 -3.8060 -2.5014 0.9753
-3.9759 -4.1394 -2.5014 0.9753
-3.2604 -4.7236 -2.5014 0.9753
-3.0676 -4.8510 -2.5014 0.9753
-2.8698 -4.9706 -2.5014 0.9753
-2.2497 -5.2803 -2.5014 0.9753
-1.8175 -5.4442 -2.5014 0.9753
-1.5968 -5.5130 -2.5014 0.9753
-0.9207 -5.6652 -2.5014 0.9753
0.4618 -5.7209 -2.5014 0.9753
1.1481 -5.6236 -2.5014 0.9753
1.3736 -5.5728 -2.5014 0.9753
1.8175 -5.4442 -2.5014 0.9753
2.0353 -5.3666 -2.5014 0.9753
2.2497 -5.2803 -2.5014 0.9753
2.6673 -5.0821 -2.5014 0.9753
2.8698 -4.9706 -2.5014 0.9753
3.0676 -4.8510 -2.5014 0.9753
3.2604 -4.7236 -2.5014 0.9753
3.6300 -4.4459 -2.5014 0.9753
3.8060 -4.2961 -2.5014 0.9753
3.9759 -4.1394 -2.5014 0.9753
4.1394 -3.9759 -2.5014 0.9753
4.5884 -3.4480 -2.5014 0.9753
4.8510 -3.0676 -2.5014 0.9753
5.0821 -2.6673 -2.5014 0.9753
5.2803 -2.2497 -2.5014 0.9753
5.5728 -1.3736 -2.5014 0.9753
5.6236 -1.1481 -2.5014 0.9753
5.6977 -0.6918 -2.5014 0.9753
5.7349 -0.2311 -2.5014 0.9753
5.6652 0.9207 -2.5014 0.9753
5.3666 2.0353 -2.5014 0.9753
5.1854 2.4605 -2.5014 0.9753
4.5555 2.8807 -2.3490 0.9768
4.4365 3.0623 -2.3494 0.9768
4.3105 3.2391 -2.3499 0.9767
4.1775 3.4108 -2.3504 0.9767
4.0376 3.5770 -2.3509 0.9767
3.8911 3.7375 -2.3514 0.9767
3.5792 4.0400 -2.3523 0.9767
3.4142 4.1816 -2.3527 0.9767
3.2437 4.3165 -2.3532 0.9767
1.6474 3.4718 -1.6748 0.9834
1.5172 3.5609 -1.6869 0.9833
1.4050 3.7048 -1.7268 0.9829
0.8666 5.3321 -2.3543 0.9767
0.6512 5.3627 -2.3543 0.9767
0.4347 5.3846 -2.3543 0.9767
0.2175 5.3977 -2.3543 0.9767
-0.2175 5.3977 -2.3543 0.9767
-0.6512 5.3627 -2.3543 0.9767
-0.8666 5.3321 -2.3543 0.9767
-1.5030 5.1888 -2.3543 0.9767
-2.1174 4.9698 -2.3543 0.9767
-2.5105 4.7833 -2.3543 0.9767
-2.7010 4.6784 -2.3543 0.9767
-2.8872 4.5658 -2.3543 0.9767
-3.0687 4.4458 -2.3543 0.9767
-3.2453 4.3187 -2.3543 0.9767
-3.4165 4.1845 -2.3543 0.9767
-4.7773 2.5073 -2.3514 0.9767
-4.9615 2.1139 -2.3504 0.9767
-5.1133 1.7071 -2.3493 0.9768
-5.4579 1.3453 -2.4499 0.9758
-2.4021 0.3904 -1.0606 0.9894
-2.3794 0.2889 -1.0446 0.9896
-2.2030 0.0000 -1.0198 0.9903
-2.2037 -0.0888 -1.0209 0.9903
-2.2080 -0.2681 -1.0295 0.9902
-2.2466 -0.4586 -1.0614 0.9899
-2.3851 -0.5879 -1.1371 0.9892
-5.1906 -1.5035 -2.5014 0.9765
-5.1258 -1.7113 -2.5014 0.9765
-5.0528 -1.9163 -2.5014 0.9765
-4.8822 -2.3166 -2.5014 0.9765
-4.7849 -2.5113 -2.5014 0.9765
-4.6799 -2.7020 -2.5014 0.9765
-4.3201 -3.2464 -2.5014 0.9765
-4.1859 -3.4177 -2.5014 0.9765
-3.8973 -3.7434 -2.5014 0.9765
-3.2464 -4.3201 -2.5014 0.9765
-3.0698 -4.4473 -2.5014 0.9765
-2.8882 -4.5673 -2.5014 0.9765
-2.5113 -4.7850 -2.5014 0.9765
-2.3166 -4.8822 -2.5014 0.9765
-1.5035 -5.1906 -2.5014 0.9765
-0.8669 -5.3339 -2.5014 0.9765
0.0000 -5.4039 -2.5014 0.9765
0.8668 -5.3339 -2.5014 0.9765
1.5035 -5.1906 -2.5014 0.9765
2.1182 -4.9715 -2.5014 0.9765
2.3166 -4.8822 -2.5014 0.9765
2.5113 -4.7850 -2.5014 0.9765
3.5835 -4.0449 -2.5014 0.9765
3.8973 -3.7434 -2.5014 0.9765
4.0449 -3.5835 -2.5014 0.9765
4.1859 -3.4177 -2.5014 0.9765
4.3201 -3.2464 -2.5014 0.9765
4.4473 -3.0698 -2.5014 0.9765
4.7849 -2.5113 -2.5014 0.9765
4.8822 -2.3166 -2.5014 0.9765
5.1258 -1.7113 -2.5014 0.9765
5.3995 -0.2176 -2.5014 0.9765
5.4039 0.0000 -2.5014 0.9765
5.3864 0.4348 -2.5014 0.9765
5.3645 0.6514 -2.5014 0.9765
5.2469 1.2932 -2.5014 0.9765
5.1258 1.7113 -2.5014 0.9765
5.0528 1.9162 -2.5014 0.9765
4.8822 2.3166 -2.5014 0.9765
4.7849 2.5113 -2.5014 0.9765
4.6799 2.7020 -2.5014 0.9765
4.3280 2.7369 -2.3703 0.9777
4.1764 2.8827 -2.3490 0.9779
3.8008 3.3672 -2.3504 0.9779
3.6628 3.5182 -2.3509 0.9779
3.5188 3.6635 -2.3513 0.9779
3.2138 3.9362 -2.3522 0.9779
2.8876 4.1834 -2.3530 0.9778
2.7172 4.2970 -2.3533 0.9778
2.5424 4.4036 -2.3537 0.9778
1.8348 3.4960 -1.8276 0.9827
1.5167 3.5598 -1.7911 0.9831
1.4046 3.7036 -1.8335 0.9827
1.4151 4.8854 -2.3543 0.9778
0.8159 5.0203 -2.3543 0.9778
0.6131 5.0491 -2.3543 0.9778
0.2048 5.0821 -2.3543 0.9778
-1.0174 4.9834 -2.3543 0.9778
-1.4151 4.8854 -2.3543 0.9778
-1.6106 4.8245 -2.3543 0.9778
-1.8036 4.7557 -2.3543 0.9778
-2.7184 4.2988 -2.3543 0.9778
-3.2168 3.9398 -2.3543 0.9778
-3.6672 3.5224 -2.3537 0.9778
-3.8054 3.3713 -2.3533 0.9778
-4.0631 3.0532 -2.3526 0.9778
-4.1820 2.8866 -2.3522 0.9779
-3.7936 2.3989 -2.0776 0.9804
-4.3992 2.5398 -2.3513 0.9779
-4.5875 2.1768 -2.3504 0.9779
-4.6705 1.9899 -2.3500 0.9779
-4.8135 1.6070 -2.3490 0.9779
-4.9236 1.4261 -2.3728 0.9777
-2.2466 0.4586 -1.0614 0.9899
-2.2008 0.1777 -1.0220 0.9903
-2.0590 -0.0000 -1.0100 0.9909
-2.0750 -0.3372 -1.0312 0.9907
-2.0898 -0.4266 -1.0462 0.9905
-2.1007 -0.5178 -1.0613 0.9904
-2.9436 -0.8526 -1.5032 0.9864
-4.8370 -1.6148 -2.5014 0.9775
-4.7681 -1.8083 -2.5014 0.9775
-4.6071 -2.1861 -2.5014 0.9775
-4.4163 -2.5497 -2.5014 0.9775
-4.3100 -2.7255 -2.5014 0.9775
-3.9500 -3.2251 -2.5014 0.9775
-3.6777 -3.5325 -2.5014 0.9775
-3.5325 -3.6777 -2.5014 0.9775
-3.3816 -3.8170 -2.5014 0.9775
-3.2251 -3.9500 -2.5014 0.9775
-3.0635 -4.0767 -2.5014 0.9775
-2.8968 -4.1968 -2.5014 0.9775
-2.7255 -4.3100 -2.5014 0.9775
-2.1861 -4.6071 -2.5014 0.9775
-1.8083 -4.7681 -2.5014 0.9775
-1.2204 -4.9513 -2.5014 0.9775
-0.6147 -5.0623 -2.5014 0.9775
-0.4103 -5.0829 -2.5014 0.9775
-0.0000 -5.0994 -2.5014 0.9775
0.2053 -5.0953 -2.5014 0.9775
0.4103 -5.0829 -2.5014 0.9775
0.8180 -5.0334 -2.5014 0.9775
1.4187 -4.8981 -2.5014 0.9775
1.6148 -4.8370 -2.5014 0.9775
1.8083 -4.7681 -2.5014 0.9775
2.1861 -4.6071 -2.5014 0.9775
2.3698 -4.5153 -2.5014 0.9775
2.7255 -4.3100 -2.5014 0.9775
2.8968 -4.1968 -2.5014 0.9775
3.0634 -4.0767 -2.5014 0.9775
3.3816 -3.8170 -2.5014 0.9775
3.6777 -3.5325 -2.5014 0.9775
3.8170 -3.3816 -2.5014 0.9775
3.9500 -3.2251 -2.5014 0.9775
4.0767 -3.0635 -2.5014 0.9775
4.1968 -2.8968 -2.5014 0.9775
4.3100 -2.7255 -2.5014 0.9775
4.5153 -2.3698 -2.5014 0.9775
4.6914 -1.9988 -2.5014 0.9775
4.7681 -1.8083 -2.5014 0.9775
4.8981 -1.4187 -2.5014 0.9775
4.9513 -1.2204 -2.5014 0.9775
4.9964 -1.0200 -2.5014 0.9775
5.0623 -0.6147 -2.5014 0.9775
5.0829 -0.4104 -2.5014 0.9775
5.0953 -0.2053 -2.5014 0.9775
5.0994 -0.0000 -2.5014 0.9775
5.0829 0.4103 -2.5014 0.9775
5.0623 0.6147 -2.5014 0.9775
4.9513 1.2204 -2.5014 0.9775
4.8370 1.6148 -2.5014 0.9775
4.6914 1.9988 -2.5014 0.9775
4.6071 2.1861 -2.5014 0.9775
4.2827 2.7082 -2.4855 0.9777
3.5860 3.1769 -2.3500 0.9789
3.4558 3.3193 -2.3504 0.9789
3.1786 3.5879 -2.3513 0.9789
3.0321 3.7136 -2.3517 0.9789
2.8805 3.8333 -2.3520 0.9789
1.8342 3.4948 -1.9361 0.9826
1.6463 3.4696 -1.8838 0.9830
1.4041 3.7024 -1.9423 0.9825
1.5199 4.5526 -2.3543 0.9788
1.1486 4.6601 -2.3543 0.9788
0.9600 4.7026 -2.3543 0.9788
0.5785 4.7646 -2.3543 0.9788
-0.5785 4.7646 -2.3543 0.9788
-0.7699 4.7375 -2.3543 0.9788
-1.1486 4.6602 -2.3543 0.9788
-1.3353 4.6101 -2.3543 0.9788
-1.7020 4.4877 -2.3543 0.9788
-1.8813 4.4155 -2.3543 0.9788
-2.0576 4.3362 -2.3543 0.9788
-2.2305 4.2499 -2.3543 0.9788
-2.5652 4.0566 -2.3543 0.9788
-2.8832 3.8369 -2.3542 0.9788
-3.0350 3.7172 -2.3540 0.9788
-3.1819 3.5916 -2.3537 0.9788
-3.5901 3.1806 -2.3527 0.9789
-3.7148 3.0330 -2.3524 0.9789
-3.9076 2.2561 -2.2133 0.9801
-4.2428 2.2268 -2.3504 0.9789
-4.4066 1.8775 -2.3496 0.9789
-4.5423 1.5164 -2.3490 0.9789
-2.0750 0.3372 -1.0312 0.9907
-2.0575 0.2498 -1.0167 0.9908
