ply
format ascii 1.0
element vertex 1574
property float32 x
property float32 y
property float32 z
property float32 I
end_header
45.1264 -5.4794 -0.2559 0.8337
21.5164 8.1601 -0.1296 0.9121
40.0561 23.1264 -0.2604 0.8311
39.7471 27.4354 -0.2719 0.8243
20.1542 20.9827 -0.1638 0.8901
18.1937 20.5364 -0.1545 0.8961
13.8656 20.0879 -0.1374 0.9070
11.8946 18.8099 -0.1253 0.9148
10.9621 18.9869 -0.1234 0.9160
4.7251 9.9579 -0.0621 0.9569
4.4747 10.5024 -0.0643 0.9554
1.2195 3.6530 -0.0217 0.9847
1.0983 3.7919 -0.0222 0.9843
2.6820 10.8810 -0.0631 0.9562
2.0866 10.2205 -0.0587 0.9591
1.2365 10.1834 -0.0578 0.9598
-0.5172 12.8356 -0.0723 0.9499
-1.4244 8.7649 -0.0500 0.9651
-1.7096 8.3747 -0.0481 0.9664
-2.3323 8.0523 -0.0472 0.9670
-2.6940 8.0696 -0.0479 0.9665
-3.1294 8.2517 -0.0497 0.9653
-3.5599 8.3554 -0.0511 0.9643
-4.0273 8.4875 -0.0529 0.9631
-41.4550 17.6624 -0.2537 0.8351
-42.5874 16.1513 -0.2564 0.8334
-41.0571 3.3145 -0.2319 0.8481
-32.2593 -10.7698 -0.9576 0.8728
-5.7720 -15.2195 -0.4583 0.9369
-0.0000 -14.1911 -0.3996 0.9448
0.5680 -14.0949 -0.3972 0.9451
1.1302 -13.9997 -0.3955 0.9453
2.2445 -13.8110 -0.3940 0.9455
2.8003 -13.7169 -0.3942 0.9455
12.3904 -32.6709 -0.9839 0.8695
13.8168 -32.4294 -0.9926 0.8684
15.2710 -32.1831 -1.0030 0.8671
16.7587 -31.9312 -1.0154 0.8656
17.0972 -22.7523 -0.8014 0.8924
16.1909 -18.2757 -0.6875 0.9069
16.0790 -16.7400 -0.6536 0.9113
15.8169 -15.1924 -0.6175 0.9160
14.3951 -11.7533 -0.5233 0.9283
15.4117 -11.5811 -0.5428 0.9258
20.4426 -10.7291 -0.6501 0.9118
26.0419 -12.3571 -0.8116 0.8911
26.2590 -11.1880 -0.8037 0.8921
27.4353 -10.4048 -0.8262 0.8892
29.4449 -9.8301 -0.8741 0.8832
32.4197 -9.3905 -0.9504 0.8737
34.5192 -8.5082 -1.0011 0.8674
37.8540 -7.7279 -1.0879 0.8568
40.5997 -6.5981 -1.1582 0.8482
43.5759 -5.2911 -1.2360 0.8389
16.9034 9.7591 -0.5496 0.9249
12.4072 8.5641 -0.4245 0.9415
35.6236 31.5597 -1.3401 0.8266
28.9691 27.8252 -1.1310 0.8515
13.8659 20.0882 -0.6873 0.9069
11.4029 19.7504 -0.6422 0.9128
10.3117 21.7313 -0.6773 0.9082
4.0852 9.5883 -0.2935 0.9592
1.0980 3.7909 -0.1111 0.9843
2.3698 11.6078 -0.3336 0.9537
1.0203 12.6384 -0.3570 0.9505
-2.2806 18.7829 -0.5328 0.9271
-2.0145 8.1734 -0.2370 0.9669
-3.0945 8.1596 -0.2457 0.9657
-9.4147 14.8882 -0.4960 0.9319
-9.1692 13.2839 -0.4545 0.9375
-43.3701 14.4791 -1.2875 0.8328
-48.3757 0.0001 -2.4533 0.8239
-47.8165 -7.7709 -2.4568 0.8236
-47.4667 -9.6904 -2.4569 0.8236
-47.0341 -11.5929 -2.4567 0.8236
-46.5195 -13.4745 -2.4562 0.8237
-45.2487 -17.1606 -2.4542 0.8238
-43.6615 -20.7176 -2.4509 0.8240
-41.7721 -24.1172 -2.4462 0.8243
-26.2098 -23.2198 -1.7758 0.8691
-26.0020 -24.9753 -1.8284 0.8655
-25.7811 -26.8410 -1.8874 0.8615
-25.0218 -33.2980 -2.1123 0.8464
-24.7324 -35.8310 -2.2080 0.8400
-25.1624 -39.7911 -2.3876 0.8282
-23.5397 -40.7721 -2.3876 0.8282
-2.3716 -14.5927 -0.7498 0.9425
-0.5758 -14.2886 -0.7252 0.9443
0.5680 -14.0949 -0.7154 0.9451
1.1302 -13.9997 -0.7123 0.9453
1.6884 -13.9052 -0.7104 0.9454
2.2445 -13.8110 -0.7096 0.9455
3.9183 -13.5275 -0.7142 0.9452
4.4842 -13.4317 -0.7181 0.9449
16.7587 -31.9312 -1.8288 0.8655
18.0883 -28.6044 -1.7164 0.8732
17.5499 -25.4255 -1.5668 0.8836
16.7101 -20.4661 -1.3399 0.8996
16.0790 -16.7401 -1.1771 0.9112
14.3951 -11.7533 -0.9425 0.9283
15.4117 -11.5811 -0.9777 0.9257
18.9228 -10.9251 -1.1081 0.9162
20.4426 -10.7291 -1.1708 0.9117
26.0419 -12.3571 -1.4618 0.8910
26.2590 -11.1880 -1.4475 0.8920
27.4353 -10.4049 -1.4881 0.8891
29.1584 -9.7345 -1.5590 0.8842
32.2642 -7.9524 -1.6852 0.8754
37.8540 -7.7279 -1.9593 0.8566
40.5996 -6.5981 -2.0860 0.8481
46.4305 -1.8711 -2.3566 0.8302
46.3917 -0.0000 -2.3527 0.8304
46.2807 1.8650 -2.3490 0.8307
49.1634 3.9689 -2.5014 0.8207
48.6846 7.9120 -2.5014 0.8207
48.3265 9.8659 -2.5014 0.8207
47.3759 13.7226 -2.5014 0.8207
31.6327 13.4774 -1.7438 0.8713
23.6407 11.2176 -1.3270 0.9005
16.0233 9.2510 -0.9383 0.9286
13.9133 8.7982 -0.8348 0.9362
12.0300 8.3037 -0.7413 0.9431
10.8575 8.1588 -0.6888 0.9471
9.6311 7.8635 -0.6306 0.9514
8.5814 7.6025 -0.5814 0.9551
7.8076 7.4993 -0.5490 0.9576
7.3932 7.6971 -0.5413 0.9582
6.3380 7.7626 -0.5082 0.9607
5.1370 7.4423 -0.4586 0.9644
13.5746 21.4665 -1.2881 0.9033
4.2558 7.3712 -0.4317 0.9665
5.8992 11.2400 -0.6438 0.9504
5.4446 11.4742 -0.6441 0.9504
4.9467 11.6102 -0.6400 0.9507
1.3960 3.6810 -0.1997 0.9844
1.0977 3.7899 -0.2001 0.9843
2.6625 10.8021 -0.5642 0.9564
0.8808 10.9097 -0.5551 0.9571
0.4205 10.4344 -0.5296 0.9590
0.0000 13.9642 -0.7082 0.9456
-0.5770 14.3186 -0.7267 0.9442
-2.2807 18.7830 -0.9596 0.9270
-1.4183 8.7273 -0.4484 0.9652
-1.7139 8.3956 -0.4346 0.9663
-2.3304 8.0457 -0.4248 0.9670
-2.6861 8.0461 -0.4302 0.9666
-4.0431 8.5207 -0.4783 0.9629
-8.6843 12.5814 -0.7753 0.9406
-8.4901 11.2983 -0.7167 0.9450
-8.1193 9.9444 -0.6511 0.9499
-8.1102 8.4436 -0.5937 0.9542
-6.0649 5.8254 -0.4265 0.9669
-6.7748 5.5314 -0.4435 0.9656
-7.8407 4.9581 -0.4705 0.9635
-26.4721 11.2787 -1.4593 0.8911
-31.4777 7.7585 -1.6441 0.8782
-47.0704 9.6095 -2.4364 0.8250
-47.4889 7.7177 -2.4400 0.8247
-47.8324 5.8079 -2.4436 0.8245
-30.1715 1.2159 -1.5314 0.8861
-32.6996 0.0000 -2.3976 0.8771
-32.6850 -1.3171 -2.3985 0.8770
-32.4868 -3.9446 -2.3995 0.8770
-29.2915 -4.7603 -2.1759 0.8878
-31.7727 -7.8313 -2.3994 0.8770
-31.4256 -9.1025 -2.3989 0.8770
-27.7649 -11.8295 -2.2129 0.8860
-29.5109 -14.0031 -2.3950 0.8772
-27.3070 -14.3318 -2.2612 0.8837
-28.2516 -16.3111 -2.3919 0.8774
-26.9417 -17.0369 -2.3372 0.8800
-26.0390 -19.5670 -2.3882 0.8775
-23.4849 -22.5576 -2.3876 0.8776
-22.9580 -23.9018 -2.4300 0.8755
-22.6227 -25.5357 -2.5014 0.8721
-20.8106 -27.6939 -2.5400 0.8703
-19.6786 -28.5094 -2.5400 0.8703
-18.5147 -29.2786 -2.5400 0.8703
-14.8505 -31.2968 -2.5400 0.8703
-13.5783 -31.8694 -2.5400 0.8703
-5.7710 -15.2169 -1.1933 0.9368
-10.9698 -32.8587 -2.5400 0.8703
-9.6379 -33.2737 -2.5400 0.8703
-8.2902 -33.6348 -2.5400 0.8703
-3.0009 -14.6993 -1.1000 0.9416
-2.3716 -14.5927 -1.0840 0.9424
-1.3295 -10.9490 -0.8087 0.9567
-0.5758 -14.2886 -1.0485 0.9443
-0.0000 -14.1911 -1.0405 0.9447
2.2445 -13.8110 -1.0259 0.9454
2.8003 -13.7169 -1.0265 0.9454
3.9183 -13.5275 -1.0326 0.9451
4.4842 -13.4317 -1.0383 0.9448
12.7299 -29.8782 -2.3813 0.8779
15.0872 -28.7462 -2.3804 0.8779
17.0972 -22.7523 -2.0868 0.8921
16.0790 -16.7401 -1.7019 0.9111
13.4478 -11.9137 -1.3173 0.9305
15.4117 -11.5811 -1.4135 0.9256
17.7010 -11.1934 -1.5356 0.9194
20.4426 -10.7291 -1.6928 0.9116
26.2590 -11.1880 -2.0928 0.8918
27.4353 -10.4048 -2.1514 0.8890
31.6925 -5.1506 -2.3542 0.8792
31.9550 -2.5797 -2.3506 0.8793
34.1152 -0.0002 -2.5014 0.8721
14.4186 0.5810 -1.0581 0.9438
14.1785 1.1446 -1.0430 0.9445
33.8664 4.1121 -2.5014 0.8721
33.6734 5.4724 -2.5014 0.8721
21.5029 8.1550 -1.6862 0.9119
29.5400 12.5858 -2.3543 0.8792
19.2199 10.0874 -1.5915 0.9166
13.6986 8.6624 -1.1884 0.9371
10.8947 8.1868 -0.9992 0.9468
9.5850 7.8259 -0.9073 0.9516
8.2445 7.3040 -0.8076 0.9568
7.7304 7.4252 -0.7859 0.9579
6.9219 7.2064 -0.7327 0.9607
6.5103 7.3485 -0.7198 0.9614
5.3063 7.0615 -0.6477 0.9652
3.7539 7.1523 -0.5923 0.9681
2.8738 6.7449 -0.5376 0.9710
1.2186 3.6501 -0.2822 0.9847
1.4550 7.1269 -0.5333 0.9712
0.5436 6.7334 -0.4953 0.9733
0.2743 6.8059 -0.4994 0.9731
-0.2626 6.5159 -0.4782 0.9742
-0.5158 6.3900 -0.4701 0.9746
-1.0796 6.6430 -0.4935 0.9734
-1.2873 6.3056 -0.4719 0.9745
-2.3380 8.0721 -0.6162 0.9669
-2.0832 6.2400 -0.4824 0.9740
-2.3114 6.0948 -0.4779 0.9742
-2.5036 5.8762 -0.4683 0.9747
-2.8712 6.0511 -0.4911 0.9735
-3.1373 5.9776 -0.4950 0.9733
-3.3127 5.7377 -0.4858 0.9738
-4.2583 5.6667 -0.5197 0.9720
-4.4247 5.4192 -0.5130 0.9723
-5.2517 5.4676 -0.5559 0.9701
-5.4287 5.2143 -0.5519 0.9703
-6.1433 5.4425 -0.6018 0.9676
-7.6890 5.3073 -0.6850 0.9632
-7.7519 4.9019 -0.6725 0.9639
-4.2067 2.4287 -0.3562 0.9807
-26.5270 12.5872 -2.1529 0.8889
-26.3476 11.2257 -2.0999 0.8915
-30.4469 11.5470 -2.3876 0.8776
-30.8871 10.3117 -2.3876 0.8776
-31.2773 9.0596 -2.3876 0.8776
-32.2031 5.2335 -2.3922 0.8773
-32.5619 2.6287 -2.3953 0.8772
-30.1715 1.2159 -2.2140 0.8859
-26.4354 -1.0653 -2.5400 0.8991
-26.3710 -2.1289 -2.5400 0.8991
-26.2639 -3.1890 -2.5400 0.8991
-26.1142 -4.2440 -2.5400 0.8991
-25.9221 -5.2920 -2.5400 0.8991
-24.3397 -10.3702 -2.5400 0.8991
-23.9024 -11.3418 -2.5400 0.8991
-23.4263 -12.2951 -2.5400 0.8991
-22.3610 -14.1402 -2.5400 0.8991
-21.7735 -15.0292 -2.5400 0.8991
-20.4935 -16.7325 -2.5400 0.8991
-19.0807 -18.3273 -2.5400 0.8991
-18.3273 -19.0807 -2.5400 0.8991
-15.8937 -21.1507 -2.5400 0.8991
-15.0292 -21.7735 -2.5400 0.8991
-14.1403 -22.3610 -2.5400 0.8991
-10.3702 -24.3397 -2.5400 0.8991
-5.7705 -15.2156 -1.5623 0.9367
-7.3607 -25.4122 -2.5400 0.8991
-5.9519 -24.1479 -2.3877 0.9049
-3.0009 -14.6993 -1.4403 0.9415
-1.3291 -10.9465 -1.0586 0.9567
-1.1615 -14.3878 -1.3858 0.9436
-0.5758 -14.2886 -1.3729 0.9442
-0.0000 -14.1911 -1.3624 0.9446
0.5680 -14.0949 -1.3543 0.9449
2.8003 -13.7169 -1.3441 0.9453
3.3576 -13.6225 -1.3470 0.9452
8.7670 -23.1166 -2.3736 0.9054
9.6867 -22.7355 -2.3726 0.9055
10.5906 -22.3191 -2.3717 0.9055
11.4791 -21.8715 -2.3714 0.9055
14.0237 -20.3169 -2.3701 0.9056
14.8270 -19.7312 -2.3695 0.9056
15.6056 -19.1134 -2.3689 0.9056
16.0790 -16.7401 -2.2284 0.9109
16.5089 -11.3953 -1.9258 0.9226
17.7010 -11.1934 -2.0106 0.9193
21.7748 -11.4283 -2.3609 0.9059
22.6057 -9.6314 -2.3590 0.9060
22.9586 -8.7071 -2.3573 0.9060
23.5435 -6.8195 -2.3532 0.9062
23.7776 -5.8606 -2.3511 0.9063
23.9729 -4.8941 -2.3490 0.9064
25.7174 -4.1795 -2.5014 0.9006
25.8649 -3.1406 -2.5014 0.9006
26.0337 -1.0491 -2.5014 0.9006
26.0548 -0.0000 -2.5014 0.9006
25.7174 4.1795 -2.5014 0.9006
25.2977 6.2353 -2.5014 0.9006
23.2129 7.7496 -2.3495 0.9063
21.4984 8.1533 -2.2074 0.9117
22.5606 9.6122 -2.3543 0.9062
19.8709 10.4290 -2.1545 0.9138
15.9318 9.1982 -1.7661 0.9287
10.9176 8.2041 -1.3111 0.9466
8.5884 7.6086 -1.1016 0.9549
6.9118 7.1959 -0.9579 0.9607
6.0730 7.4381 -0.9219 0.9621
4.8831 7.0744 -0.8253 0.9660
4.2311 6.6908 -0.7600 0.9687
3.9476 6.8373 -0.7580 0.9688
3.2078 6.7603 -0.7184 0.9704
2.8966 6.7984 -0.7095 0.9707
1.3953 3.6791 -0.3778 0.9843
1.2183 3.6492 -0.3694 0.9847
1.6481 6.6866 -0.6612 0.9727
1.0409 6.4044 -0.6229 0.9743
0.7631 6.2842 -0.6078 0.9749
0.5223 6.4693 -0.6231 0.9743
0.2558 6.3469 -0.6098 0.9748
0.0000 6.2425 -0.5993 0.9752
-0.4867 6.0291 -0.5807 0.9760
-0.7675 6.3211 -0.6113 0.9747
-1.0004 6.1562 -0.5988 0.9752
-1.4484 5.8764 -0.5811 0.9760
-1.7272 5.9631 -0.5960 0.9754
-2.0219 6.0564 -0.6130 0.9747
-3.1054 5.9168 -0.6415 0.9735
-3.3032 5.7214 -0.6343 0.9738
-3.5456 5.6070 -0.6369 0.9737
-3.9427 5.7120 -0.6663 0.9725
-4.3167 5.2870 -0.6553 0.9729
-5.1835 5.3966 -0.7184 0.9704
-5.3577 5.1462 -0.7132 0.9706
-6.4366 5.2553 -0.7978 0.9672
-6.7243 5.0529 -0.8075 0.9668
-7.5502 5.2115 -0.8808 0.9638
-7.7077 4.8740 -0.8755 0.9640
-4.2067 2.4287 -0.4663 0.9807
-5.9092 3.1014 -0.6407 0.9735
-23.9024 11.3419 -2.5400 0.8991
-24.3397 10.3702 -2.5400 0.8991
-25.6880 6.3315 -2.5400 0.8991
-26.3710 2.1289 -2.5400 0.8991
-26.4354 1.0654 -2.5400 0.8991
-21.3829 0.0000 -2.5400 0.9175
-21.3655 -0.8610 -2.5400 0.9175
-21.2270 -2.5774 -2.5400 0.9175
-21.1060 -3.4301 -2.5400 0.9175
-20.9507 -4.2771 -2.5400 0.9175
-20.7615 -5.1173 -2.5400 0.9175
-20.5387 -5.9491 -2.5400 0.9175
-20.2824 -6.7713 -2.5400 0.9175
-19.6718 -8.3814 -2.5400 0.9175
-18.9336 -9.9371 -2.5400 0.9175
-18.5181 -10.6914 -2.5400 0.9175
-17.5978 -12.1469 -2.5400 0.9175
-17.0944 -12.8456 -2.5400 0.9175
-15.4214 -14.8125 -2.5400 0.9175
-14.1795 -16.0053 -2.5400 0.9175
-12.1469 -17.5978 -2.5400 0.9175
-11.4284 -18.0726 -2.5400 0.9175
-9.9371 -18.9336 -2.5400 0.9175
-8.3814 -19.6718 -2.5400 0.9175
-5.7153 -15.0701 -1.9145 0.9371
-5.5937 -19.3117 -2.3882 0.9222
-4.8118 -19.5222 -2.3884 0.9222
-3.0009 -14.6993 -1.7821 0.9414
-2.3715 -14.5927 -1.7562 0.9422
-1.1615 -14.3878 -1.7146 0.9435
-0.0000 -14.1911 -1.6857 0.9444
0.5680 -14.0949 -1.6756 0.9448
2.2445 -13.8110 -1.6621 0.9452
2.8003 -13.7169 -1.6630 0.9452
3.3576 -13.6225 -1.6666 0.9451
9.2575 -17.6387 -2.3663 0.9229
10.6435 -16.8314 -2.3655 0.9229
11.9588 -15.9143 -2.3646 0.9229
13.7803 -14.3469 -2.3630 0.9230
13.3971 -11.8688 -2.1261 0.9304
14.3756 -11.7374 -2.2045 0.9280
15.8851 -11.9369 -2.3603 0.9231
17.1848 -9.9216 -2.3571 0.9232
17.5591 -9.2157 -2.3556 0.9232
18.2192 -7.7625 -2.3524 0.9233
18.5041 -7.0177 -2.3508 0.9234
19.8621 -5.7531 -2.4563 0.9201
20.7853 -3.3780 -2.5014 0.9187
21.0409 -0.8479 -2.5014 0.9187
13.1734 -0.0000 -1.5648 0.9483
13.0538 1.5850 -1.5620 0.9484
20.7853 3.3779 -2.5014 0.9187
20.4461 5.0395 -2.5014 0.9187
20.2266 5.8587 -2.5014 0.9187
18.7573 6.2621 -2.3490 0.9234
17.5497 9.2108 -2.3543 0.9233
16.5389 9.5487 -2.2685 0.9260
13.7349 8.6854 -1.9303 0.9366
10.8927 8.1853 -1.6185 0.9466
7.7595 7.4531 -1.2780 0.9576
6.4895 7.3251 -1.1625 0.9613
5.9495 7.2868 -1.1174 0.9628
5.2703 7.0135 -1.0421 0.9653
4.9500 7.1713 -1.0351 0.9655
4.2593 6.7354 -0.9466 0.9684
3.9196 6.7889 -0.9312 0.9689
3.6604 6.9743 -0.9356 0.9688
2.8263 6.6334 -0.8565 0.9714
1.2180 3.6483 -0.4569 0.9846
1.0968 3.7867 -0.4683 0.9842
1.3138 6.4349 -0.7802 0.9739
1.0274 6.3217 -0.7608 0.9745
0.5123 6.3450 -0.7562 0.9747
-0.2442 6.0600 -0.7204 0.9759
-0.4885 6.0513 -0.7212 0.9758
-0.7703 6.3442 -0.7591 0.9746
-1.2169 5.9608 -0.7227 0.9758
-1.4391 5.8386 -0.7143 0.9761
-1.7380 6.0004 -0.7421 0.9752
-2.2578 5.9533 -0.7563 0.9747
-3.0462 5.8040 -0.7786 0.9739
-3.2420 5.6153 -0.7702 0.9742
-3.5156 5.5595 -0.7814 0.9739
-4.1563 5.5310 -0.8218 0.9725
-4.7522 5.3641 -0.8513 0.9715
-5.3760 5.1637 -0.8855 0.9704
-5.8353 5.1696 -0.9260 0.9691
-6.6040 4.9625 -0.9813 0.9673
-4.2067 2.4287 -0.5770 0.9806
-19.3184 9.1667 -2.5400 0.9175
-19.6718 8.3814 -2.5400 0.9175
-19.9933 7.5825 -2.5400 0.9175
-20.5387 5.9491 -2.5400 0.9175
-20.7615 5.1173 -2.5400 0.9175
-20.9507 4.2771 -2.5400 0.9175
-21.1060 3.4301 -2.5400 0.9175
-21.3135 1.7206 -2.5400 0.9175
-21.3655 0.8610 -2.5400 0.9175
-17.9264 0.0000 -2.5400 0.9301
-17.9119 -0.7218 -2.5400 0.9301
-17.8683 -1.4425 -2.5400 0.9301
-17.6943 -2.8756 -2.5400 0.9301
-17.2187 -4.9874 -2.5400 0.9301
-16.7615 -6.3568 -2.5400 0.9301
-15.8731 -8.3308 -2.5400 0.9301
-15.5247 -8.9632 -2.5400 0.9301
-13.8859 -11.3375 -2.5400 0.9301
-12.9286 -12.4181 -2.5400 0.9301
-11.3375 -13.8859 -2.5400 0.9301
-10.7692 -14.3312 -2.5400 0.9301
-10.1834 -14.7532 -2.5400 0.9301
-8.9632 -15.5247 -2.5400 0.9301
-7.8310 -14.9207 -2.3876 0.9342
-6.6050 -15.5024 -2.3876 0.9342
-5.6991 -15.0273 -2.2772 0.9371
-5.3369 -15.9860 -2.3879 0.9342
-1.3285 -10.9412 -1.5616 0.9565
-1.1615 -14.3878 -2.0452 0.9434
-0.5758 -14.2886 -2.0262 0.9439
-0.0000 -14.1911 -2.0107 0.9443
0.5680 -14.0949 -1.9987 0.9446
1.6884 -13.9052 -1.9847 0.9450
2.2445 -13.8110 -1.9825 0.9450
2.8003 -13.7169 -1.9836 0.9450
3.3576 -13.6225 -1.9879 0.9449
4.4842 -13.4317 -2.0064 0.9444
5.9132 -15.5917 -2.3627 0.9349
6.5357 -15.3397 -2.3625 0.9349
7.1473 -15.0627 -2.3623 0.9349
7.7472 -14.7610 -2.3620 0.9349
9.4660 -13.7138 -2.3610 0.9349
11.0439 -12.4660 -2.3598 0.9349
11.5345 -12.0087 -2.3593 0.9349
12.0044 -11.5304 -2.3584 0.9350
12.4536 -11.0329 -2.3574 0.9350
14.0352 -8.8753 -2.3529 0.9351
14.6881 -7.7089 -2.3504 0.9352
16.5068 -6.2602 -2.5014 0.9312
16.9571 -4.9117 -2.5014 0.9312
17.2973 -3.5313 -2.5014 0.9312
17.5254 -2.1280 -2.5014 0.9312
17.5968 -1.4206 -2.5014 0.9312
17.6398 -0.7109 -2.5014 0.9312
12.9759 -0.0000 -1.8385 0.9489
12.7445 0.5136 -1.8072 0.9498
12.6767 1.0234 -1.8020 0.9499
17.4255 2.8319 -2.5014 0.9312
17.2973 3.5313 -2.5014 0.9312
16.9571 4.9117 -2.5014 0.9312
15.5054 5.8804 -2.3496 0.9352
15.2676 6.5049 -2.3514 0.9352
14.3900 8.3081 -2.3543 0.9351
13.8195 8.7388 -2.3167 0.9361
11.9879 8.2747 -2.0639 0.9429
9.6055 7.8426 -1.7570 0.9511
8.6451 7.6589 -1.6365 0.9544
4.3488 6.8769 -1.1529 0.9677
3.2154 6.7763 -1.0627 0.9702
2.8906 6.7843 -1.0449 0.9706
1.3946 3.6772 -0.5572 0.9842
1.2177 3.6473 -0.5448 0.9846
1.6663 6.7606 -0.9866 0.9723
1.0248 6.3055 -0.9052 0.9745
0.2516 6.2423 -0.8852 0.9751
-0.2453 6.0878 -0.8633 0.9757
-0.9928 6.1093 -0.8770 0.9753
-1.7279 5.9657 -0.8800 0.9752
-2.2392 5.9044 -0.8947 0.9748
-2.4750 5.8091 -0.8947 0.9748
-3.2721 5.6675 -0.9272 0.9739
-3.4413 5.4421 -0.9123 0.9743
-4.0285 5.8364 -1.0048 0.9718
-4.1496 5.5222 -0.9787 0.9725
-4.7544 5.3666 -1.0159 0.9715
-5.8112 5.1483 -1.1000 0.9691
-6.3676 5.1989 -1.1647 0.9673
-6.6730 5.0143 -1.1827 0.9668
-7.7508 4.9013 -1.2994 0.9636
-4.2067 2.4287 -0.6882 0.9806
-17.2187 4.9874 -2.5400 0.9301
-17.6943 2.8756 -2.5400 0.9301
-17.7957 2.1608 -2.5400 0.9301
-17.8683 1.4425 -2.5400 0.9301
-15.3058 -1.8585 -2.5400 0.9394
-15.2186 -2.4733 -2.5400 0.9394
-14.9702 -3.6898 -2.5400 0.9394
-14.1844 -6.0434 -2.5400 0.9394
-13.9296 -6.6097 -2.5400 0.9394
-13.6521 -7.1652 -2.5400 0.9394
-13.0313 -8.2405 -2.5400 0.9394
-12.3260 -9.2624 -2.5400 0.9394
-11.9430 -9.7512 -2.5400 0.9394
-11.1196 -10.6806 -2.5400 0.9394
-9.2624 -12.3261 -2.5400 0.9394
-8.7408 -12.6632 -2.5348 0.9395
-6.1241 -12.9064 -2.3534 0.9437
-3.4249 -13.8953 -2.3576 0.9436
-2.8633 -14.0253 -2.3582 0.9436
-0.5768 -14.3118 -2.3596 0.9436
1.1527 -14.2789 -2.3599 0.9436
2.8655 -14.0360 -2.3600 0.9436
3.4282 -13.9090 -2.3599 0.9436
4.5360 -13.5869 -2.3597 0.9436
5.0791 -13.3925 -2.3596 0.9436
5.6138 -13.1761 -2.3594 0.9436
7.6492 -12.0963 -2.3577 0.9436
8.5933 -11.4357 -2.3565 0.9437
9.4800 -10.7007 -2.3551 0.9437
9.8999 -10.3069 -2.3543 0.9437
10.3033 -9.8964 -2.3535 0.9437
10.6894 -9.4700 -2.3526 0.9438
11.0578 -9.0284 -2.3517 0.9438
11.4078 -8.5724 -2.3508 0.9438
12.0515 -7.6209 -2.3490 0.9438
13.9689 -5.9516 -2.5014 0.9403
14.1973 -5.3843 -2.5014 0.9403
14.4025 -4.8083 -2.5014 0.9403
14.5845 -4.2244 -2.5014 0.9403
14.9873 -2.4357 -2.5014 0.9403
15.0733 -1.8302 -2.5014 0.9403
15.1347 -1.2218 -2.5014 0.9403
15.1717 -0.6114 -2.5014 0.9403
12.6394 1.0204 -2.0890 0.9499
14.8771 3.0372 -2.5014 0.9403
12.6489 6.6387 -2.3533 0.9437
12.3766 7.1456 -2.3543 0.9437
10.8999 8.1907 -2.2461 0.9462
8.5728 7.5949 -1.8868 0.9546
7.7658 7.4592 -1.7739 0.9573
6.0241 7.3782 -1.5692 0.9621
4.9665 7.1952 -1.4403 0.9652
4.2362 6.6989 -1.3057 0.9684
3.6608 6.9751 -1.2977 0.9686
1.3942 3.6762 -0.6477 0.9842
1.2173 3.6464 -0.6333 0.9845
1.3340 6.5343 -1.0987 0.9733
1.0310 6.3438 -1.0588 0.9743
0.5174 6.4092 -1.0593 0.9743
0.2535 6.2886 -1.0368 0.9748
-0.2438 6.0511 -0.9977 0.9757
-0.7610 6.2682 -1.0402 0.9747
-0.9974 6.1374 -1.0243 0.9751
-1.4448 5.8620 -0.9946 0.9758
-2.2175 5.8470 -1.0302 0.9750
-2.4520 5.7551 -1.0306 0.9750
-2.7132 5.7180 -1.0426 0.9747
-2.9607 5.6412 -1.0495 0.9745
-3.2115 5.5625 -1.0581 0.9743
-4.3495 5.3271 -1.1330 0.9725
-5.1771 5.3899 -1.2312 0.9702
-5.3468 5.1357 -1.2213 0.9704
-7.4446 5.1385 -1.4902 0.9640
-4.2067 2.4287 -0.8002 0.9805
-13.9296 6.6097 -2.5400 0.9394
-14.1844 6.0434 -2.5400 0.9394
-14.4163 5.4674 -2.5400 0.9394
-14.9702 3.6898 -2.5400 0.9394
-15.3058 1.8585 -2.5400 0.9394
-15.3682 1.2407 -2.5400 0.9394
-15.4057 0.6208 -2.5400 0.9394
-13.5024 -0.5441 -2.5400 0.9465
-13.4696 -1.0874 -2.5400 0.9465
-13.4148 -1.6289 -2.5400 0.9465
-12.9798 -3.7596 -2.5400 0.9465
-12.6352 -4.7919 -2.5400 0.9465
-12.4320 -5.2968 -2.5400 0.9465
-12.2087 -5.7931 -2.5400 0.9465
-11.7029 -6.7567 -2.5400 0.9465
-11.4214 -7.2224 -2.5400 0.9465
-11.1213 -7.6765 -2.5400 0.9465
-10.1149 -8.9610 -2.5400 0.9465
-9.7459 -9.3612 -2.5400 0.9465
-9.3485 -9.7329 -2.5366 0.9466
-8.4760 -10.3812 -2.5190 0.9469
-7.1161 -11.2532 -2.5026 0.9473
-6.6368 -11.4953 -2.4949 0.9474
-5.8078 -11.0658 -2.3490 0.9504
-4.4316 -11.6851 -2.3490 0.9504
-3.4825 -12.0229 -2.3527 0.9503
-2.5048 -12.2695 -2.3538 0.9503
-2.0092 -12.3627 -2.3542 0.9503
0.0000 -12.5317 -2.3555 0.9503
1.0085 -12.4927 -2.3558 0.9503
1.5108 -12.4425 -2.3559 0.9503
2.0106 -12.3717 -2.3559 0.9503
2.5071 -12.2806 -2.3559 0.9503
3.4869 -12.0381 -2.3557 0.9503
3.9685 -11.8871 -2.3555 0.9503
4.4435 -11.7166 -2.3553 0.9503
5.3705 -11.3182 -2.3547 0.9503
5.8210 -11.0910 -2.3544 0.9503
6.6921 -10.5827 -2.3535 0.9503
7.9133 -9.6921 -2.3518 0.9503
8.6627 -9.0188 -2.3505 0.9504
9.0160 -8.6600 -2.3498 0.9504
9.3544 -8.2873 -2.3490 0.9504
9.8106 -8.0101 -2.3806 0.9498
10.4624 -7.8620 -2.4599 0.9481
10.9523 -7.5598 -2.5014 0.9473
11.2478 -7.1127 -2.5014 0.9473
12.0232 -5.7051 -2.5014 0.9473
12.2431 -5.2163 -2.5014 0.9473
12.4433 -4.7191 -2.5014 0.9473
12.6232 -4.2142 -2.5014 0.9473
13.0391 -2.6619 -2.5014 0.9473
13.2649 -1.0708 -2.5014 0.9473
13.3081 -0.0000 -2.5014 0.9473
12.9214 3.1848 -2.5014 0.9473
12.6232 4.2142 -2.5014 0.9473
12.4433 4.7191 -2.5014 0.9473
11.0804 5.8154 -2.3521 0.9503
10.8432 6.2603 -2.3534 0.9503
10.3084 7.1154 -2.3543 0.9503
9.6204 7.8548 -2.3344 0.9507
6.9307 7.2156 -1.8805 0.9601
6.4635 7.2957 -1.8321 0.9611
5.2877 7.0367 -1.6544 0.9648
4.9372 7.1527 -1.6336 0.9652
3.6014 6.8618 -1.4566 0.9690
3.1955 6.7343 -1.4011 0.9701
1.0959 3.7836 -0.7404 0.9841
1.3318 6.5232 -1.2514 0.9733
1.0381 6.3873 -1.2163 0.9740
0.7632 6.2852 -1.1900 0.9746
0.0000 6.1877 -1.1631 0.9751
-0.2479 6.1512 -1.1571 0.9753
-0.4886 6.0526 -1.1414 0.9756
-0.7594 6.2548 -1.1843 0.9747
-1.2213 5.9825 -1.1477 0.9755
-1.4344 5.8198 -1.1266 0.9759
-1.9937 5.9720 -1.1834 0.9747
-2.4673 5.7911 -1.1832 0.9747
-2.6928 5.6750 -1.1807 0.9748
-3.2546 5.6371 -1.2235 0.9739
-4.0005 5.7958 -1.3237 0.9717
-4.1218 5.4851 -1.2896 0.9725
-4.6067 5.1998 -1.3057 0.9721
-5.1384 5.3496 -1.3942 0.9703
-5.3831 5.1705 -1.4029 0.9701
-5.9972 5.3130 -1.5060 0.9679
-6.3933 5.2200 -1.5514 0.9670
-7.6302 5.2667 -1.7426 0.9630
-7.7843 4.9224 -1.7311 0.9632
-11.2476 5.9032 -2.3876 0.9496
-11.6861 4.9790 -2.3876 0.9496
-11.8771 4.5044 -2.3876 0.9496
-12.9798 3.7596 -2.5400 0.9465
-13.2403 2.7030 -2.5400 0.9465
-13.3384 2.1677 -2.5400 0.9465
-13.5024 0.5441 -2.5400 0.9465
-12.0162 0.0000 -2.5400 0.9521
-11.9286 -1.4484 -2.5400 0.9521
-11.8606 -1.9275 -2.5400 0.9521
-11.6670 -2.8757 -2.5400 0.9521
-10.8560 -5.1513 -2.5400 0.9521
-10.6398 -5.5842 -2.5400 0.9521
-9.8773 -6.8180 -2.5370 0.9521
-9.5791 -7.1982 -2.5328 0.9522
-9.2603 -7.5607 -2.5270 0.9523
-6.3258 -10.0034 -2.5018 0.9528
-5.9168 -10.2482 -2.5014 0.9528
-5.0602 -10.6641 -2.4951 0.9529
-4.4984 -10.5580 -2.4259 0.9542
-3.0923 -10.6758 -2.3494 0.9556
-2.2241 -10.8942 -2.3503 0.9556
-1.7839 -10.9768 -2.3507 0.9556
-1.3275 -10.9333 -2.3281 0.9560
-0.8951 -11.0878 -2.3514 0.9555
-0.4480 -11.1161 -2.3516 0.9555
0.8954 -11.0915 -2.3521 0.9555
2.2259 -10.9031 -2.3522 0.9555
3.0958 -10.6879 -2.3521 0.9555
3.9452 -10.4027 -2.3517 0.9555
5.1685 -9.8478 -2.3509 0.9555
6.3145 -9.1482 -2.3497 0.9556
7.0282 -8.6079 -2.3490 0.9556
7.5039 -8.4701 -2.3920 0.9548
8.0267 -8.3567 -2.4493 0.9537
8.5344 -8.1975 -2.5014 0.9528
8.8576 -7.8472 -2.5014 0.9528
10.2482 -5.9168 -2.5014 0.9528
10.6911 -5.0730 -2.5014 0.9528
11.2246 -3.7473 -2.5014 0.9528
11.3664 -3.2923 -2.5014 0.9528
11.5945 -2.3670 -2.5014 0.9528
11.7953 -0.9522 -2.5014 0.9528
11.8241 -0.4765 -2.5014 0.9528
11.7953 0.9522 -2.5014 0.9528
11.5945 2.3670 -2.5014 0.9528
10.2234 4.3558 -2.3490 0.9556
10.0438 4.7659 -2.3500 0.9556
9.8486 5.1690 -2.3511 0.9555
9.4099 5.9505 -2.3534 0.9555
8.9041 6.6910 -2.3543 0.9555
8.6275 7.0441 -2.3543 0.9555
8.3368 7.3858 -2.3543 0.9555
7.8969 7.5851 -2.3145 0.9562
7.0184 7.3069 -2.1416 0.9594
6.5579 7.4023 -2.0904 0.9604
6.0410 7.3988 -2.0190 0.9617
5.2305 6.9606 -1.8404 0.9650
4.9845 7.2213 -1.8548 0.9648
4.2942 6.7906 -1.6983 0.9677
3.6429 6.9409 -1.6570 0.9685
3.2085 6.7617 -1.5820 0.9699
2.8338 6.6512 -1.5282 0.9709
1.3934 3.6742 -0.8306 0.9841
1.0956 3.7825 -0.8324 0.9840
1.3254 6.4922 -1.4006 0.9733
1.0157 6.2495 -1.3384 0.9744
0.5190 6.4282 -1.3632 0.9740
0.0000 6.2127 -1.3132 0.9749
-0.2433 6.0370 -1.2771 0.9756
-0.4877 6.0410 -1.2811 0.9755
-1.2203 5.9777 -1.2896 0.9754
-1.4287 5.7967 -1.2620 0.9759
-1.7124 5.9119 -1.3010 0.9752
-2.0086 6.0167 -1.3408 0.9744
-2.6722 5.6316 -1.3176 0.9748
-3.0440 5.7999 -1.3846 0.9736
-3.2430 5.6170 -1.3710 0.9738
-3.5221 5.5697 -1.3930 0.9734
-4.0210 5.8254 -1.4962 0.9715
-4.1320 5.4987 -1.4539 0.9723
-4.7186 5.3263 -1.5041 0.9713
-5.1683 5.3808 -1.5771 0.9700
-5.3518 5.1404 -1.5686 0.9701
-5.8341 5.1686 -1.6476 0.9686
-6.3912 5.2182 -1.7441 0.9668
-6.6279 4.9805 -1.7525 0.9667
-10.2047 4.8422 -2.3876 0.9549
-10.7139 3.5768 -2.3876 0.9549
-11.9772 0.9669 -2.5400 0.9521
-12.0065 0.4839 -2.5400 0.9521
-10.7568 -0.8684 -2.5363 0.9566
-10.7151 -1.3010 -2.5368 0.9566
-10.6537 -1.7314 -2.5367 0.9566
-10.5744 -2.1588 -2.5365 0.9566
-10.2260 -3.4139 -2.5337 0.9567
-10.0757 -3.8213 -2.5326 0.9567
-9.7178 -4.6111 -2.5280 0.9568
-9.5117 -4.9921 -2.5247 0.9568
-9.2900 -5.3636 -2.5211 0.9569
-8.5398 -6.4173 -2.5106 0.9571
-8.2664 -6.7493 -2.5081 0.9571
-7.9797 -7.0694 -2.5055 0.9571
-6.7344 -8.2482 -2.5026 0.9572
-6.0474 -8.7612 -2.5020 0.9572
-5.6891 -8.9965 -2.5017 0.9572
-5.3216 -9.2173 -2.5014 0.9572
-4.5627 -9.6156 -2.5014 0.9572
-3.3704 -10.0955 -2.5014 0.9572
-1.2197 -10.0451 -2.3782 0.9593
-0.8064 -9.9889 -2.3553 0.9597
-0.4024 -9.9866 -2.3490 0.9598
0.4025 -9.9871 -2.3491 0.9598
0.8043 -9.9633 -2.3492 0.9598
1.6035 -9.8667 -2.3493 0.9598
2.3922 -9.7054 -2.3493 0.9598
3.1651 -9.4806 -2.3490 0.9598
3.9176 -9.1950 -2.3490 0.9598
4.3112 -9.0856 -2.3635 0.9595
4.7247 -9.0023 -2.3894 0.9591
5.5827 -8.8284 -2.4549 0.9580
6.0304 -8.7366 -2.4949 0.9573
6.3938 -8.5086 -2.5014 0.9572
6.7312 -8.2443 -2.5014 0.9572
7.0577 -7.9666 -2.5014 0.9572
7.6759 -7.3728 -2.5014 0.9572
8.2443 -6.7312 -2.5014 0.9572
8.5086 -6.3938 -2.5014 0.9572
8.9955 -5.6884 -2.5014 0.9572
9.2173 -5.3216 -2.5014 0.9572
9.4241 -4.9461 -2.5014 0.9572
9.7915 -4.1718 -2.5014 0.9572
9.9516 -3.7741 -2.5014 0.9572
10.0955 -3.3704 -2.5014 0.9572
10.2230 -2.9611 -2.5014 0.9572
10.3339 -2.5471 -2.5014 0.9572
10.5054 -1.7073 -2.5014 0.9572
10.5656 -1.2829 -2.5014 0.9572
10.6346 0.4286 -2.5014 0.9572
10.3339 2.5471 -2.5014 0.9572
10.2230 2.9611 -2.5014 0.9572
10.0955 3.3704 -2.5014 0.9572
9.7057 4.1352 -2.4795 0.9576
8.8548 4.6474 -2.3503 0.9597
8.6643 5.0024 -2.3513 0.9597
8.2408 5.6882 -2.3534 0.9597
8.0084 6.0179 -2.3543 0.9597
7.4982 6.6428 -2.3543 0.9597
6.5578 7.4021 -2.3242 0.9602
5.0227 7.2767 -2.0780 0.9643
4.3243 6.8382 -1.9015 0.9673
3.9433 6.8299 -1.8535 0.9681
3.2152 6.7758 -1.7627 0.9697
2.8828 6.7662 -1.7285 0.9702
1.3931 3.6732 -0.9233 0.9840
1.3386 6.5566 -1.5727 0.9729
0.0000 6.2363 -1.4657 0.9747
-0.2444 6.0640 -1.4264 0.9754
-0.7643 6.2948 -1.4903 0.9743
-0.9942 6.1181 -1.4568 0.9749
-1.2093 5.9237 -1.4209 0.9755
-1.7488 6.0376 -1.4773 0.9745
-1.9956 5.9778 -1.4811 0.9744
-2.2461 5.9225 -1.4887 0.9743
-2.7108 5.7129 -1.4862 0.9744
-3.9540 5.7283 -1.6359 0.9718
-4.1418 5.5117 -1.6203 0.9721
-5.1750 5.3878 -1.7557 0.9698
-6.4329 5.2522 -1.9518 0.9665
-7.6574 5.2855 -2.1868 0.9625
-4.2067 2.4287 -1.1416 0.9802
-8.9945 4.7207 -2.3874 0.9591
-9.1652 4.3489 -2.3842 0.9592
-9.6013 3.2054 -2.3790 0.9593
-9.7145 2.8138 -2.3770 0.9593
-9.8844 2.0179 -2.3710 0.9594
-9.9476 1.6166 -2.3686 0.9594
-10.6886 1.2978 -2.5305 0.9567
-10.7413 0.8671 -2.5327 0.9567
-9.7145 0.0000 -2.5153 0.9607
-9.5244 -1.9444 -2.5169 0.9606
-9.4360 -2.3258 -2.5163 0.9606
-9.3312 -2.7028 -2.5153 0.9607
-9.2103 -3.0748 -2.5141 0.9607
-8.7576 -4.1555 -2.5098 0.9607
-8.5759 -4.5010 -2.5077 0.9608
-8.1760 -5.1702 -2.5046 0.9608
-7.9596 -5.4942 -2.5042 0.9608
-7.7312 -5.8096 -2.5039 0.9608
-7.4903 -6.1156 -2.5037 0.9608
-6.6965 -6.9717 -2.5029 0.9608
-6.4096 -7.2350 -2.5026 0.9608
-5.1638 -8.1659 -2.5016 0.9609
-4.8305 -8.3666 -2.5014 0.9609
-3.4258 -9.0332 -2.5014 0.9609
-3.0593 -9.1638 -2.5014 0.9609
-1.9324 -9.4657 -2.5014 0.9609
-1.1645 -9.5905 -2.5014 0.9609
-0.3890 -9.6531 -2.5014 0.9609
0.3890 -9.6531 -2.5014 0.9609
1.9325 -9.4657 -2.5014 0.9609
2.3120 -9.3802 -2.5014 0.9609
2.6879 -9.2795 -2.5014 0.9609
3.0593 -9.1638 -2.5014 0.9609
3.4258 -9.0332 -2.5014 0.9609
3.7868 -8.8879 -2.5014 0.9609
5.1634 -8.1654 -2.5014 0.9609
6.6924 -6.9675 -2.5014 0.9609
7.2313 -6.4064 -2.5014 0.9609
7.7234 -5.8038 -2.5014 0.9609
8.1653 -5.1635 -2.5014 0.9609
8.3666 -4.8305 -2.5014 0.9609
8.5544 -4.4897 -2.5014 0.9609
9.0332 -3.4258 -2.5014 0.9609
9.3802 -2.3120 -2.5014 0.9609
9.4657 -1.9325 -2.5014 0.9609
9.5905 -1.1645 -2.5014 0.9609
9.6296 -0.7774 -2.5014 0.9609
9.6531 0.3890 -2.5014 0.9609
9.5905 1.1645 -2.5014 0.9609
9.5359 1.5497 -2.5014 0.9609
9.4657 1.9324 -2.5014 0.9609
9.3802 2.3120 -2.5014 0.9609
9.1638 3.0593 -2.5014 0.9609
8.8879 3.7868 -2.5014 0.9609
8.1964 3.8892 -2.3490 0.9632
7.6760 4.8540 -2.3515 0.9632
7.4772 5.1611 -2.3524 0.9632
6.5579 6.2989 -2.3543 0.9631
6.2989 6.5579 -2.3543 0.9631
5.3042 7.0586 -2.2861 0.9642
3.6289 6.9142 -2.0218 0.9683
3.2002 6.7443 -1.9328 0.9696
2.8655 6.7254 -1.8928 0.9702
1.2161 3.6425 -0.9943 0.9843
1.6649 6.7546 -1.8012 0.9717
1.0355 6.3711 -1.6713 0.9737
0.5170 6.4035 -1.6634 0.9738
-0.2479 6.1524 -1.5943 0.9749
-0.9920 6.1043 -1.6013 0.9748
-1.4248 5.7810 -1.5416 0.9757
-1.7412 6.0116 -1.6205 0.9745
-2.2157 5.8425 -1.6179 0.9745
-2.7306 5.7547 -1.6492 0.9740
-3.4968 5.5297 -1.6940 0.9733
-4.1368 5.5051 -1.7829 0.9719
-4.3729 5.3558 -1.7902 0.9718
-4.7294 5.3384 -1.8466 0.9710
-5.1576 5.3696 -1.9277 0.9697
-5.4158 5.2019 -1.9443 0.9694
-5.8784 5.2078 -2.0334 0.9681
-6.4342 5.2533 -2.1507 0.9663
-7.6853 4.8599 -2.3543 0.9631
-8.0345 4.2168 -2.3494 0.9632
-8.2017 3.8918 -2.3505 0.9632
-8.5014 3.2242 -2.3542 0.9631
-8.9053 1.8180 -2.3533 0.9631
-8.9703 1.4578 -2.3530 0.9631
-9.6727 0.7809 -2.5126 0.9607
-9.7024 0.3910 -2.5142 0.9607
-8.8457 -0.3565 -2.5062 0.9639
-8.8238 -0.7123 -2.5061 0.9639
-8.6722 -1.7704 -2.5057 0.9639
-8.5934 -2.1181 -2.5055 0.9639
-8.5006 -2.4622 -2.5054 0.9639
-8.3940 -2.8023 -2.5052 0.9639
-8.1401 -3.4682 -2.5049 0.9639
-7.2790 -5.0243 -2.5038 0.9639
-6.8499 -5.5927 -2.5034 0.9639
-6.6185 -5.8635 -2.5032 0.9639
-6.3764 -6.1247 -2.5029 0.9639
-6.1241 -6.3758 -2.5027 0.9639
-5.8618 -6.6166 -2.5025 0.9639
-5.5901 -6.8466 -2.5022 0.9639
-5.0194 -7.2718 -2.5014 0.9639
-4.4180 -7.6522 -2.5014 0.9639
-2.1146 -8.5792 -2.5014 0.9639
-1.7674 -8.6574 -2.5014 0.9639
-1.4174 -8.7215 -2.5014 0.9639
-1.0651 -8.7715 -2.5014 0.9639
-0.7110 -8.8073 -2.5014 0.9639
0.0000 -8.8360 -2.5014 0.9639
0.3558 -8.8288 -2.5014 0.9639
0.7110 -8.8073 -2.5014 0.9639
1.0651 -8.7715 -2.5014 0.9639
1.4174 -8.7215 -2.5014 0.9639
1.7674 -8.6574 -2.5014 0.9639
2.1146 -8.5792 -2.5014 0.9639
3.1333 -8.2618 -2.5014 0.9639
3.4634 -8.1289 -2.5014 0.9639
4.1063 -7.8238 -2.5014 0.9639
4.4180 -7.6522 -2.5014 0.9639
5.3081 -7.0638 -2.5014 0.9639
5.5883 -6.8444 -2.5014 0.9639
5.8593 -6.6138 -2.5014 0.9639
6.1209 -6.3725 -2.5014 0.9639
6.6138 -5.8593 -2.5014 0.9639
6.8444 -5.5883 -2.5014 0.9639
7.0638 -5.3081 -2.5014 0.9639
7.6522 -4.4180 -2.5014 0.9639
7.9828 -3.7879 -2.5014 0.9639
8.1289 -3.4634 -2.5014 0.9639
8.2618 -3.1333 -2.5014 0.9639
8.3812 -2.7981 -2.5014 0.9639
8.7215 -1.4174 -2.5014 0.9639
8.7715 -1.0651 -2.5014 0.9639
8.8360 0.0000 -2.5014 0.9639
8.8288 0.3558 -2.5014 0.9639
8.8073 0.7110 -2.5014 0.9639
8.7215 1.4174 -2.5014 0.9639
8.6574 1.7674 -2.5014 0.9639
8.5792 2.1146 -2.5014 0.9639
8.3812 2.7981 -2.5014 0.9639
8.2618 3.1333 -2.5014 0.9639
7.9241 3.7600 -2.4830 0.9642
7.3473 3.8562 -2.3491 0.9661
7.1887 4.1504 -2.3499 0.9661
7.0183 4.4381 -2.3507 0.9661
6.4389 5.2572 -2.3532 0.9660
4.7243 6.8443 -2.3543 0.9660
4.3424 6.8668 -2.3000 0.9668
3.9722 6.8799 -2.2490 0.9675
3.2119 6.7688 -2.1210 0.9693
1.3923 3.6712 -1.1115 0.9838
1.2157 3.6415 -1.0868 0.9842
1.0947 3.7792 -1.1139 0.9838
1.6681 6.7678 -1.9733 0.9714
1.3230 6.4804 -1.8724 0.9729
1.0401 6.3995 -1.8354 0.9734
0.7560 6.2261 -1.7755 0.9743
0.5190 6.4283 -1.8257 0.9735
-0.2464 6.1140 -1.7322 0.9749
-0.4957 6.1410 -1.7441 0.9747
-0.7621 6.2766 -1.7899 0.9741
-1.0018 6.1648 -1.7681 0.9744
-1.4541 5.8995 -1.7201 0.9751
-1.9913 5.9647 -1.7802 0.9742
-2.2367 5.8979 -1.7857 0.9741
-2.7215 5.7356 -1.7972 0.9740
-2.9923 5.7014 -1.8228 0.9736
-3.2193 5.5760 -1.8227 0.9736
-3.5364 5.5924 -1.8731 0.9729
-4.7781 5.3934 -2.0398 0.9705
-5.1785 5.3913 -2.1163 0.9694
-6.2435 5.5312 -2.3613 0.9659
-6.4420 5.2597 -2.3543 0.9660
-6.6485 4.9960 -2.3543 0.9660
-7.5135 3.5652 -2.3543 0.9660
-7.6336 3.2524 -2.3490 0.9661
-7.9700 2.3085 -2.3490 0.9661
-8.0565 1.9857 -2.3490 0.9661
-8.7771 1.0657 -2.5030 0.9639
-8.8121 0.7114 -2.5028 0.9639
-8.1325 0.0000 -2.5014 0.9665
-8.1267 -0.3275 -2.5016 0.9665
-7.9063 -1.9487 -2.5046 0.9665
-7.8226 -2.2659 -2.5050 0.9665
-7.7246 -2.5788 -2.5048 0.9665
-7.3560 -3.4904 -2.5043 0.9665
-7.2089 -3.7835 -2.5041 0.9665
-6.8801 -4.3507 -2.5038 0.9665
-6.5065 -4.8894 -2.5033 0.9665
-6.3018 -5.1452 -2.5023 0.9665
-6.0878 -5.3930 -2.5016 0.9665
-5.8652 -5.6336 -2.5014 0.9665
-5.6336 -5.8654 -2.5014 0.9665
-5.3929 -6.0873 -2.5014 0.9665
-4.8856 -6.5015 -2.5014 0.9665
-4.3466 -6.8735 -2.5014 0.9665
-2.2626 -7.8115 -2.5014 0.9665
-1.6267 -7.9682 -2.5014 0.9665
-1.3046 -8.0272 -2.5014 0.9665
-0.9803 -8.0733 -2.5014 0.9665
-0.6544 -8.1062 -2.5014 0.9665
-0.0000 -8.1325 -2.5014 0.9665
0.6544 -8.1062 -2.5014 0.9665
1.3045 -8.0272 -2.5014 0.9665
1.9462 -7.8962 -2.5014 0.9665
2.5753 -7.7140 -2.5014 0.9665
3.1877 -7.4818 -2.5014 0.9665
3.4864 -7.3473 -2.5014 0.9665
3.7794 -7.2010 -2.5014 0.9665
4.3466 -6.8736 -2.5014 0.9665
4.8856 -6.5015 -2.5014 0.9665
5.1434 -6.2995 -2.5014 0.9665
5.6336 -5.8652 -2.5014 0.9665
5.8652 -5.6336 -2.5014 0.9665
6.0873 -5.3929 -2.5014 0.9665
6.2995 -5.1434 -2.5014 0.9665
6.6930 -4.6198 -2.5014 0.9665
6.8735 -4.3466 -2.5014 0.9665
7.0430 -4.0663 -2.5014 0.9665
7.3473 -3.4864 -2.5014 0.9665
7.6041 -2.8839 -2.5014 0.9665
7.7140 -2.5753 -2.5014 0.9665
7.9682 -1.6267 -2.5014 0.9665
8.0732 -0.9803 -2.5014 0.9665
8.1062 -0.6544 -2.5014 0.9665
8.1325 -0.0000 -2.5014 0.9665
8.1259 0.3275 -2.5014 0.9665
8.0732 0.9803 -2.5014 0.9665
7.9682 1.6267 -2.5014 0.9665
7.8962 1.9462 -2.5014 0.9665
7.8115 2.2626 -2.5014 0.9665
7.7140 2.5753 -2.5014 0.9665
7.6041 2.8838 -2.5014 0.9665
7.4818 3.1877 -2.5014 0.9665
7.3473 3.4864 -2.5014 0.9665
6.7795 3.5581 -2.3550 0.9685
6.4579 4.0837 -2.3501 0.9685
6.1123 4.5930 -2.3516 0.9685
5.9242 4.8370 -2.3524 0.9685
5.5191 5.3012 -2.3538 0.9685
5.0758 5.7294 -2.3543 0.9685
4.8410 5.9291 -2.3543 0.9685
4.5983 6.1192 -2.3543 0.9685
4.0910 6.4694 -2.3543 0.9685
1.3919 3.6701 -1.2073 0.9837
1.2154 3.6405 -1.1805 0.9841
1.0944 3.7781 -1.2098 0.9837
1.6541 6.7109 -2.1259 0.9715
1.3510 6.6173 -2.0773 0.9721
0.2563 6.3604 -1.9579 0.9737
-0.2485 6.1681 -1.8987 0.9745
-0.4936 6.1143 -1.8868 0.9747
-0.9927 6.1086 -1.9035 0.9744
-1.2207 5.9797 -1.8772 0.9748
-2.0080 6.0148 -1.9504 0.9738
-2.2506 5.9343 -1.9521 0.9738
-2.7155 5.7227 -1.9483 0.9738
-4.4515 5.4521 -2.1649 0.9710
-5.0403 5.6893 -2.3378 0.9687
-5.3024 5.5204 -2.3543 0.9685
-5.4757 5.2594 -2.3353 0.9687
-5.7294 5.0758 -2.3543 0.9685
-6.2994 4.3482 -2.3543 0.9685
-6.4694 4.0910 -2.3543 0.9685
-4.2067 2.4287 -1.4940 0.9799
-6.7776 3.5572 -2.3543 0.9685
-7.1523 2.7125 -2.3528 0.9685
-7.2535 2.4216 -2.3521 0.9685
-7.3428 2.1269 -2.3513 0.9685
-7.4827 1.5276 -2.3490 0.9685
-7.5382 1.2251 -2.3490 0.9685
-8.1259 0.3275 -2.5014 0.9665
-7.5251 0.0000 -2.5014 0.9688
-7.5190 -0.3030 -2.5014 0.9688
-7.4703 -0.9070 -2.5014 0.9688
-7.4277 -1.2071 -2.5014 0.9688
-7.3731 -1.5052 -2.5014 0.9688
-7.3065 -1.8009 -2.5014 0.9688
-7.0361 -2.6685 -2.5014 0.9688
-6.7986 -3.2260 -2.5014 0.9688
-6.3602 -4.0219 -2.5014 0.9688
-5.8290 -4.7592 -2.5014 0.9688
-5.4271 -5.2128 -2.5014 0.9688
-4.9901 -5.6326 -2.5014 0.9688
-4.7592 -5.8290 -2.5014 0.9688
-4.5207 -6.0159 -2.5014 0.9688
-3.2260 -6.7986 -2.5014 0.9688
-2.6685 -7.0361 -2.5014 0.9688
-2.3830 -7.1379 -2.5014 0.9688
-1.5052 -7.3731 -2.5014 0.9688
-0.6055 -7.5007 -2.5014 0.9688
-0.3030 -7.5190 -2.5014 0.9688
-0.0000 -7.5251 -2.5014 0.9688
1.2071 -7.4277 -2.5014 0.9688
2.6685 -7.0361 -2.5014 0.9688
2.9496 -6.9230 -2.5014 0.9688
3.2260 -6.7986 -2.5014 0.9688
3.4971 -6.6632 -2.5014 0.9688
4.2748 -6.1931 -2.5014 0.9688
4.7592 -5.8290 -2.5014 0.9688
4.9901 -5.6326 -2.5014 0.9688
6.1931 -4.2748 -2.5014 0.9688
6.3602 -4.0219 -2.5014 0.9688
6.5169 -3.7626 -2.5014 0.9688
6.6632 -3.4971 -2.5014 0.9688
6.7986 -3.2260 -2.5014 0.9688
6.9230 -2.9496 -2.5014 0.9688
7.1379 -2.3830 -2.5014 0.9688
7.2280 -2.0936 -2.5014 0.9688
7.4277 -1.2071 -2.5014 0.9688
7.4703 -0.9071 -2.5014 0.9688
7.5190 0.3030 -2.5014 0.9688
7.5007 0.6055 -2.5014 0.9688
7.4277 1.2071 -2.5014 0.9688
7.3731 1.5052 -2.5014 0.9688
7.3065 1.8009 -2.5014 0.9688
7.1379 2.3829 -2.5014 0.9688
6.7986 3.2260 -2.5014 0.9688
6.1199 3.5333 -2.3490 0.9707
5.9741 3.7778 -2.3496 0.9706
5.6541 4.2488 -2.3510 0.9706
5.4801 4.4743 -2.3517 0.9706
5.2969 4.6927 -2.3523 0.9706
4.9048 5.1065 -2.3536 0.9706
4.4794 5.4863 -2.3543 0.9706
4.2549 5.6622 -2.3543 0.9706
4.0234 5.8289 -2.3543 0.9706
3.7855 5.9862 -2.3543 0.9706
3.5413 6.1338 -2.3543 0.9706
3.2915 6.2714 -2.3543 0.9706
3.0363 6.3989 -2.3543 0.9706
2.7762 6.5159 -2.3543 0.9706
1.3915 3.6691 -1.3044 0.9836
1.2150 3.6395 -1.2754 0.9840
1.6638 6.7501 -2.3109 0.9711
1.0267 6.3169 -2.1273 0.9734
0.5193 6.4324 -2.1451 0.9732
0.2588 6.4219 -2.1364 0.9733
-0.2478 6.1489 -2.0456 0.9744
-0.7753 6.3855 -2.1382 0.9733
-1.0071 6.1969 -2.0869 0.9739
-1.2168 5.9605 -2.0222 0.9747
-2.0199 6.0505 -2.1203 0.9735
-2.2561 5.9489 -2.1149 0.9735
-2.4486 5.7471 -2.0766 0.9740
-2.7042 5.6991 -2.0969 0.9738
-3.0250 5.7637 -2.1637 0.9729
-3.2132 5.5654 -2.1362 0.9733
-4.6967 5.3015 -2.3543 0.9706
-4.9064 5.1081 -2.3543 0.9706
-5.1081 4.9064 -2.3543 0.9706
-5.8289 4.0234 -2.3543 0.9706
-4.2067 2.4287 -1.6146 0.9797
-6.3962 3.0350 -2.3533 0.9706
-6.5114 2.7743 -2.3527 0.9706
-6.7098 2.2401 -2.3514 0.9706
-6.7926 1.9675 -2.3507 0.9706
-6.8642 1.6919 -2.3500 0.9706
-6.9247 1.4137 -2.3493 0.9706
-6.9875 1.1356 -2.3532 0.9706
-7.4703 0.9071 -2.5014 0.9688
-7.5007 0.6055 -2.5014 0.9688
-7.5190 0.3030 -2.5014 0.9688
-6.9891 -0.2817 -2.5014 0.9707
-6.9438 -0.8431 -2.5014 0.9707
-6.7916 -1.6740 -2.5014 0.9707
-6.6348 -2.2150 -2.5014 0.9707
-6.4351 -2.7417 -2.5014 0.9707
-5.7566 -3.9735 -2.5014 0.9707
-5.5920 -4.2021 -2.5014 0.9707
-5.2357 -4.6384 -2.5014 0.9707
-4.8455 -5.0447 -2.5014 0.9707
-4.4238 -5.4182 -2.5014 0.9707
-4.2021 -5.5919 -2.5014 0.9707
-3.9735 -5.7566 -2.5014 0.9707
-3.4974 -6.0577 -2.5014 0.9707
-2.7417 -6.4351 -2.5014 0.9707
-2.4804 -6.5403 -2.5014 0.9707
-2.2150 -6.6348 -2.5014 0.9707
-1.6740 -6.7916 -2.5014 0.9707
-1.1221 -6.9042 -2.5014 0.9707
-0.5629 -6.9721 -2.5014 0.9707
-0.2817 -6.9892 -2.5014 0.9707
0.2816 -6.9891 -2.5014 0.9707
0.5628 -6.9721 -2.5014 0.9707
1.1220 -6.9042 -2.5014 0.9707
1.3991 -6.8535 -2.5014 0.9707
2.2150 -6.6348 -2.5014 0.9707
2.4804 -6.5403 -2.5014 0.9707
2.7417 -6.4351 -2.5014 0.9707
2.9986 -6.3195 -2.5014 0.9707
3.2506 -6.1936 -2.5014 0.9707
3.7385 -5.9120 -2.5014 0.9707
3.9735 -5.7566 -2.5014 0.9707
4.2021 -5.5920 -2.5014 0.9707
4.6384 -5.2357 -2.5014 0.9707
4.8455 -5.0447 -2.5014 0.9707
5.2357 -4.6384 -2.5014 0.9707
5.4182 -4.4238 -2.5014 0.9707
5.5919 -4.2021 -2.5014 0.9707
5.7566 -3.9735 -2.5014 0.9707
5.9119 -3.7385 -2.5014 0.9707
6.1936 -3.2506 -2.5014 0.9707
6.5403 -2.4804 -2.5014 0.9707
6.9042 -1.1221 -2.5014 0.9707
6.9438 -0.8431 -2.5014 0.9707
6.9721 -0.5629 -2.5014 0.9707
6.9891 0.2816 -2.5014 0.9707
6.9721 0.5628 -2.5014 0.9707
6.9438 0.8431 -2.5014 0.9707
6.7915 1.6740 -2.5014 0.9707
6.7186 1.9461 -2.5014 0.9707
6.6348 2.2150 -2.5014 0.9707
6.4351 2.7417 -2.5014 0.9707
5.7958 3.3462 -2.3933 0.9720
5.0925 4.1579 -2.3510 0.9725
4.7439 4.5565 -2.3522 0.9724
4.5577 4.7450 -2.3528 0.9724
4.3640 4.9259 -2.3534 0.9724
3.7399 5.4182 -2.3543 0.9724
3.2918 5.7015 -2.3543 0.9724
3.0595 5.8294 -2.3543 0.9724
2.5805 6.0567 -2.3543 0.9724
1.3911 3.6680 -1.4029 0.9835
1.0937 3.7758 -1.4058 0.9834
1.0451 6.4306 -2.3298 0.9727
0.7563 6.2287 -2.2438 0.9737
-0.2487 6.1722 -2.2090 0.9741
-0.4885 6.0520 -2.1713 0.9745
-0.9782 6.0193 -2.1808 0.9744
-1.2100 5.9271 -2.1633 0.9746
-1.7610 6.0797 -2.2635 0.9735
-3.9550 5.2632 -2.3543 0.9724
-4.1637 5.0996 -2.3543 0.9724
-4.5606 4.7481 -2.3543 0.9724
-4.7481 4.5606 -2.3543 0.9724
-5.4182 3.7399 -2.3543 0.9724
-5.5642 3.5186 -2.3543 0.9724
-5.8266 3.0580 -2.3532 0.9724
-5.9435 2.8202 -2.3526 0.9724
-6.0507 2.5780 -2.3520 0.9724
-6.1481 2.3317 -2.3514 0.9725
-6.3124 1.8284 -2.3501 0.9725
-6.3791 1.5723 -2.3495 0.9725
-6.8760 1.1175 -2.4912 0.9708
-3.5589 -0.1434 -1.3649 0.9849
-3.5687 -0.2881 -1.3720 0.9848
-6.4428 -1.0471 -2.5014 0.9724
-6.3954 -1.3056 -2.5014 0.9724
-6.3377 -1.5621 -2.5014 0.9724
-6.2696 -1.8160 -2.5014 0.9724
-6.1032 -2.3146 -2.5014 0.9724
-5.8971 -2.7982 -2.5014 0.9724
-5.6528 -3.2637 -2.5014 0.9724
-5.5169 -3.4886 -2.5014 0.9724
-5.2182 -3.9212 -2.5014 0.9724
-4.8858 -4.3284 -2.5014 0.9724
-4.7075 -4.5217 -2.5014 0.9724
-4.5216 -4.7075 -2.5014 0.9724
-4.3284 -4.8858 -2.5014 0.9724
-4.1282 -5.0561 -2.5014 0.9724
-3.9212 -5.2182 -2.5014 0.9724
-3.7079 -5.3719 -2.5014 0.9724
-3.4886 -5.5169 -2.5014 0.9724
-3.2637 -5.6528 -2.5014 0.9724
-2.7982 -5.8971 -2.5014 0.9724
-2.5585 -6.0050 -2.5014 0.9724
-2.0670 -6.1914 -2.5014 0.9724
-1.3056 -6.3954 -2.5014 0.9724
-1.0471 -6.4428 -2.5014 0.9724
-0.0000 -6.5274 -2.5014 0.9724
1.3056 -6.3954 -2.5014 0.9724
1.8160 -6.2696 -2.5014 0.9724
2.0670 -6.1914 -2.5014 0.9724
2.3146 -6.1032 -2.5014 0.9724
2.7982 -5.8971 -2.5014 0.9724
3.2637 -5.6529 -2.5014 0.9724
3.4886 -5.5169 -2.5014 0.9724
3.9212 -5.2182 -2.5014 0.9724
4.1282 -5.0561 -2.5014 0.9724
4.3284 -4.8858 -2.5014 0.9724
4.7075 -4.5217 -2.5014 0.9724
4.8858 -4.3284 -2.5014 0.9724
5.2182 -3.9213 -2.5014 0.9724
5.3719 -3.7080 -2.5014 0.9724
5.7797 -3.0334 -2.5014 0.9724
6.0050 -2.5585 -2.5014 0.9724
6.1914 -2.0670 -2.5014 0.9724
6.2696 -1.8160 -2.5014 0.9724
6.3377 -1.5621 -2.5014 0.9724
6.3954 -1.3056 -2.5014 0.9724
6.4428 -1.0471 -2.5014 0.9724
6.4798 -0.7868 -2.5014 0.9724
6.4798 0.7868 -2.5014 0.9724
6.4428 1.0471 -2.5014 0.9724
6.3954 1.3056 -2.5014 0.9724
6.3377 1.5621 -2.5014 0.9724
6.2696 1.8160 -2.5014 0.9724
6.1914 2.0670 -2.5014 0.9724
5.7797 3.0334 -2.5014 0.9724
5.1807 3.2761 -2.3490 0.9741
5.0452 3.4825 -2.3493 0.9741
4.9022 3.6837 -2.3499 0.9741
4.7510 3.8791 -2.3505 0.9741
4.5921 4.0683 -2.3510 0.9741
4.4256 4.2509 -2.3516 0.9741
4.2519 4.4267 -2.3522 0.9740
3.4897 5.0557 -2.3542 0.9740
3.0718 5.3205 -2.3543 0.9740
2.8551 5.4399 -2.3543 0.9740
2.4081 5.6520 -2.3543 0.9740
1.3907 3.6669 -1.5029 0.9833
1.2144 3.6374 -1.4695 0.9837
1.0933 3.7747 -1.5060 0.9833
0.7405 6.0988 -2.3543 0.9740
0.4944 6.1237 -2.3543 0.9740
-0.2474 6.1386 -2.3543 0.9740
-0.4944 6.1237 -2.3543 0.9740
-1.2289 6.0194 -2.3543 0.9740
-1.9455 5.8274 -2.3543 0.9740
-2.1785 5.7443 -2.3543 0.9740
-2.6337 5.5504 -2.3543 0.9740
-2.8551 5.4399 -2.3543 0.9740
-3.6907 4.9114 -2.3543 0.9740
-4.2558 4.4308 -2.3543 0.9740
-4.4308 4.2558 -2.3543 0.9740
-4.7588 3.8855 -2.3543 0.9740
-5.1907 3.2824 -2.3535 0.9740
-4.2067 2.4287 -1.8615 0.9794
-5.4356 2.8528 -2.3525 0.9740
-5.5448 2.6310 -2.3519 0.9741
-5.6449 2.4051 -2.3514 0.9741
-5.8893 1.7058 -2.3496 0.9741
-6.1236 1.2502 -2.3951 0.9736
-6.4428 1.0471 -2.5014 0.9724
-3.5589 0.1434 -1.3649 0.9849
-2.8096 -0.2268 -1.1537 0.9879
-2.9323 -0.3561 -1.2089 0.9873
-3.0246 -0.4916 -1.2541 0.9868
-3.0070 -0.6139 -1.2561 0.9868
-5.9342 -1.4627 -2.5014 0.9739
-5.8705 -1.7004 -2.5014 0.9739
-5.7972 -1.9354 -2.5014 0.9739
-5.6227 -2.3956 -2.5014 0.9739
-5.5217 -2.6201 -2.5014 0.9739
-5.4117 -2.8403 -2.5014 0.9739
-5.2930 -3.0559 -2.5014 0.9739
-5.1656 -3.2665 -2.5014 0.9739
-4.5747 -4.0529 -2.5014 0.9739
-4.4078 -4.2338 -2.5014 0.9739
-4.2338 -4.4078 -2.5014 0.9739
-3.8654 -4.7342 -2.5014 0.9739
-3.6716 -4.8860 -2.5014 0.9739
-3.4719 -5.0299 -2.5014 0.9739
-3.2665 -5.1656 -2.5014 0.9739
-3.0559 -5.2930 -2.5014 0.9739
-2.8403 -5.4117 -2.5014 0.9739
-1.7004 -5.8705 -2.5014 0.9739
-1.2225 -5.9883 -2.5014 0.9739
-0.9804 -6.0326 -2.5014 0.9739
-0.7367 -6.0672 -2.5014 0.9739
-0.4918 -6.0920 -2.5014 0.9739
-0.2461 -6.1068 -2.5014 0.9739
-0.0000 -6.1118 -2.5014 0.9739
0.2461 -6.1068 -2.5014 0.9739
0.4918 -6.0920 -2.5014 0.9739
0.7367 -6.0672 -2.5014 0.9739
1.7004 -5.8705 -2.5014 0.9739
1.9354 -5.7972 -2.5014 0.9739
2.1673 -5.7146 -2.5014 0.9739
2.6201 -5.5217 -2.5014 0.9739
2.8403 -5.4117 -2.5014 0.9739
3.4719 -5.0299 -2.5014 0.9739
4.0529 -4.5747 -2.5014 0.9739
4.4078 -4.2338 -2.5014 0.9739
4.7342 -3.8654 -2.5014 0.9739
4.8860 -3.6716 -2.5014 0.9739
5.1656 -3.2665 -2.5014 0.9739
5.2929 -3.0559 -2.5014 0.9739
5.4117 -2.8403 -2.5014 0.9739
5.5217 -2.6201 -2.5014 0.9739
5.6227 -2.3956 -2.5014 0.9739
5.7146 -2.1673 -2.5014 0.9739
5.7972 -1.9354 -2.5014 0.9739
5.8705 -1.7004 -2.5014 0.9739
5.9883 -1.2225 -2.5014 0.9739
6.0672 -0.7367 -2.5014 0.9739
6.0920 -0.4918 -2.5014 0.9739
6.1068 -0.2461 -2.5014 0.9739
6.1118 -0.0000 -2.5014 0.9739
6.1068 0.2461 -2.5014 0.9739
6.0920 0.4918 -2.5014 0.9739
6.0672 0.7367 -2.5014 0.9739
6.0326 0.9804 -2.5014 0.9739
5.9883 1.2225 -2.5014 0.9739
5.9342 1.4626 -2.5014 0.9739
5.8705 1.7004 -2.5014 0.9739
5.6227 2.3956 -2.5014 0.9739
5.4117 2.8403 -2.5014 0.9739
5.0435 3.1893 -2.4423 0.9745
4.4476 3.6314 -2.3500 0.9755
4.1429 3.9793 -2.3510 0.9755
3.9802 4.1438 -2.3516 0.9755
3.8109 4.3016 -2.3521 0.9755
3.4538 4.5962 -2.3530 0.9755
3.2665 4.7324 -2.3534 0.9755
2.8762 4.9817 -2.3543 0.9754
2.6733 5.0935 -2.3543 0.9754
2.4660 5.1970 -2.3543 0.9754
1.3903 3.6658 -1.6046 0.9832
0.9228 5.6779 -2.3543 0.9754
0.6934 5.7105 -2.3543 0.9754
0.2316 5.7478 -2.3543 0.9754
0.0000 5.7524 -2.3543 0.9754
-0.9228 5.6779 -2.3543 0.9754
-1.1506 5.6362 -2.3543 0.9754
-1.8216 5.4564 -2.3543 0.9754
-2.8762 4.9818 -2.3543 0.9754
-3.0745 4.8619 -2.3543 0.9754
-3.6381 4.4559 -2.3543 0.9754
-3.8146 4.3058 -2.3543 0.9754
-3.9849 4.1487 -2.3543 0.9754
-4.1487 3.9849 -2.3543 0.9754
-4.3058 3.8146 -2.3543 0.9754
-4.5975 3.4548 -2.3537 0.9755
-4.7320 3.2663 -2.3533 0.9755
-4.8588 3.0725 -2.3528 0.9755
-4.1693 2.4071 -1.9704 0.9794
-5.0882 2.6705 -2.3518 0.9755
-5.1905 2.4629 -2.3513 0.9755
-5.3694 2.0363 -2.3503 0.9755
-5.4458 1.8181 -2.3497 0.9755
-5.5133 1.5969 -2.3492 0.9755
-3.0070 0.6139 -1.2561 0.9868
-3.0246 0.4915 -1.2541 0.9868
-2.9323 0.3561 -1.2089 0.9873
-2.3650 0.0000 -1.0307 0.9897
-2.3670 -0.0954 -1.0324 0.9897
-2.3794 -0.2889 -1.0446 0.9896
-5.5728 -1.3736 -2.5014 0.9753
-5.5129 -1.5968 -2.5014 0.9753
-5.4442 -1.8175 -2.5014 0.9753
-5.2803 -2.2497 -2.5014 0.9753
-5.1854 -2.4605 -2.5014 0.9753
-5.0821 -2.6673 -2.5014 0.9753
-4.9706 -2.8698 -2.5014 0.9753
-4.5884 -3.4480 -2.5014 0.9753
-4.4459 -3.6300 -2.5014 0.9753
-4.2961 -3.8060 -2.5014 0.9753
-4.1394 -3.9759 -2.5014 0.9753
-3.6300 -4.4459 -2.5014 0.9753
-3.0676 -4.8510 -2.5014 0.9753
-2.8698 -4.9706 -2.5014 0.9753
-2.6673 -5.0821 -2.5014 0.9753
-2.4605 -5.1854 -2.5014 0.9753
-2.2497 -5.2803 -2.5014 0.9753
-1.5969 -5.5129 -2.5014 0.9753
-1.1481 -5.6236 -2.5014 0.9753
-0.9207 -5.6652 -2.5014 0.9753
-0.4619 -5.7209 -2.5014 0.9753
0.2311 -5.7349 -2.5014 0.9753
0.6918 -5.6977 -2.5014 0.9753
1.1481 -5.6236 -2.5014 0.9753
1.5969 -5.5129 -2.5014 0.9753
1.8175 -5.4442 -2.5014 0.9753
2.0353 -5.3666 -2.5014 0.9753
2.2497 -5.2803 -2.5014 0.9753
2.6673 -5.0821 -2.5014 0.9753
3.0676 -4.8510 -2.5014 0.9753
3.4480 -4.5884 -2.5014 0.9753
3.9759 -4.1394 -2.5014 0.9753
4.1394 -3.9759 -2.5014 0.9753
4.2961 -3.8060 -2.5014 0.9753
4.4459 -3.6300 -2.5014 0.9753
4.7236 -3.2604 -2.5014 0.9753
4.9706 -2.8698 -2.5014 0.9753
5.0821 -2.6673 -2.5014 0.9753
5.1854 -2.4605 -2.5014 0.9753
5.3666 -2.0353 -2.5014 0.9753
5.5129 -1.5968 -2.5014 0.9753
5.6652 -0.9207 -2.5014 0.9753
5.7395 -0.0000 -2.5014 0.9753
5.7209 0.4618 -2.5014 0.9753
5.0821 2.6673 -2.5014 0.9753
4.8510 3.0676 -2.5014 0.9753
4.3089 3.2379 -2.3490 0.9768
4.1760 3.4096 -2.3495 0.9768
4.0362 3.5757 -2.3500 0.9767
3.8897 3.7361 -2.3505 0.9767
3.4131 4.1802 -2.3519 0.9767
3.2426 4.3151 -2.3524 0.9767
2.7002 4.6769 -2.3536 0.9767
2.5101 4.7826 -2.3540 0.9767
2.3158 4.8805 -2.3543 0.9767
2.1174 4.9698 -2.3543 0.9767
1.3898 3.6647 -1.7081 0.9830
1.2136 3.6352 -1.6703 0.9834
1.0927 3.7723 -1.7116 0.9830
1.2928 5.2451 -2.3543 0.9767
1.0806 5.2929 -2.3543 0.9767
0.6512 5.3627 -2.3543 0.9767
0.4347 5.3846 -2.3543 0.9767
0.2175 5.3977 -2.3543 0.9767
0.0000 5.4021 -2.3543 0.9767
-0.2175 5.3977 -2.3543 0.9767
-0.4347 5.3846 -2.3543 0.9767
-1.0805 5.2929 -2.3543 0.9767
-1.5030 5.1888 -2.3543 0.9767
-1.9156 5.0510 -2.3543 0.9767
-3.0687 4.4458 -2.3543 0.9767
-3.2453 4.3187 -2.3543 0.9767
-3.7422 3.8960 -2.3543 0.9767
-4.0426 3.5815 -2.3538 0.9767
