ply
format ascii 1.0
element vertex 1568
property float32 x
property float32 y
property float32 z
property float32 I
end_header
-18.5210 -20.9058 2.3644 0.8939
-16.5675 -20.2914 2.2176 0.9002
-23.0664 -36.4765 3.6534 0.8409
-12.3956 -29.0934 2.6771 0.8808
-16.8135 -44.3335 4.0138 0.8267
-7.7984 -26.9232 2.3728 0.8936
-5.2662 -21.3660 1.8628 0.9155
-5.5465 -27.1685 2.3473 0.8947
-3.5505 -21.8472 1.8737 0.9150
-0.8549 -21.2129 1.7972 0.9183
1.9316 -23.9271 2.0321 0.9081
7.9796 -39.0868 3.3771 0.8520
4.3166 -17.5132 1.5269 0.9302
9.4436 -32.6031 2.8734 0.8726
6.7148 -15.7602 1.4502 0.9335
7.4322 -15.6631 1.4676 0.9328
8.9878 -17.1247 1.6372 0.9253
9.8756 -15.6169 1.5642 0.9285
10.6478 -15.4260 1.5867 0.9275
15.8878 -21.1428 2.2388 0.8993
17.1167 -16.4408 2.0091 0.9091
22.8161 -15.7488 2.3469 0.8947
25.0478 8.3622 2.2354 0.8994
18.2383 8.6542 1.7089 0.9222
16.5779 9.5712 1.6205 0.9260
11.8617 8.1875 1.2201 0.9438
10.5024 8.5749 1.1478 0.9470
10.0242 9.6284 1.1766 0.9457
10.1037 11.4047 1.2898 0.9407
10.1037 12.3748 1.3524 0.9379
6.6264 10.4789 1.0495 0.9514
12.2620 21.2384 2.0760 0.9062
3.8615 9.0634 0.8340 0.9612
2.7537 8.2485 0.7361 0.9657
2.3891 8.2481 0.7269 0.9661
2.0125 8.1650 0.7119 0.9668
0.7770 9.6248 0.8174 0.9620
-1.5642 9.6248 0.8255 0.9616
-1.9764 9.6811 0.8364 0.9611
-2.8042 9.6811 0.8532 0.9603
-4.7812 8.2812 0.8095 0.9623
-5.2327 8.2749 0.8288 0.9615
-24.0738 25.0634 2.9419 0.8698
-25.1897 24.1950 2.9567 0.8692
-24.1020 18.1115 2.5522 0.8860
-22.8998 15.8066 2.3555 0.8943
-23.2100 14.6771 2.3247 0.8956
-23.5590 13.6018 2.3029 0.8965
-23.9447 12.5671 2.2892 0.8971
-31.4170 14.9075 2.9438 0.8697
-32.2510 13.7409 2.9676 0.8687
-35.7743 13.5674 3.2389 0.8576
-44.2720 14.7802 3.9511 0.8291
-32.8012 8.0848 2.8598 0.8732
-34.0841 5.5392 2.9232 0.8706
-42.6923 -24.6484 3.0569 0.8207
-23.3760 -17.5659 1.8132 0.8894
-20.4580 -18.1243 1.6948 0.8962
-18.3417 -20.7034 1.7152 0.8951
-18.9570 -25.2272 1.9568 0.8812
-19.1606 -30.3001 2.2231 0.8662
-15.3177 -26.5309 1.8997 0.8845
-14.8430 -28.2810 1.9806 0.8799
-18.3122 -42.9802 2.8970 0.8292
-16.4447 -43.3609 2.8757 0.8304
-10.8217 -37.3607 2.4120 0.8557
-5.1337 -20.8281 1.3302 0.9176
-4.3258 -21.1891 1.3410 0.9170
-1.5279 -18.9268 1.1775 0.9267
-0.9970 -24.7401 1.5354 0.9055
0.9846 -24.4315 1.5162 0.9067
1.9161 -23.7345 1.4766 0.9090
2.8522 -23.4903 1.4673 0.9095
4.1636 -25.6196 1.6095 0.9012
7.7981 -38.1979 2.4175 0.8554
11.0162 -44.6944 2.8545 0.8315
5.1218 -17.6826 1.1416 0.9289
7.0246 -18.5223 1.2284 0.9237
7.3808 -17.3234 1.1677 0.9273
8.0833 -17.0352 1.1692 0.9272
9.6646 -16.7396 1.1986 0.9255
10.5514 -16.6857 1.2242 0.9239
11.4177 -16.5413 1.2464 0.9226
22.8161 -15.7488 1.7192 0.8948
25.3403 9.6103 1.6806 0.8971
19.2026 8.1815 1.2943 0.9198
17.9677 9.4302 1.2583 0.9219
16.6705 9.6248 1.1937 0.9258
11.9407 8.2421 0.8997 0.9435
10.2694 9.0979 0.8508 0.9465
10.2089 11.5234 0.9547 0.9402
10.0519 12.3114 0.9856 0.9383
10.1037 13.4456 1.0429 0.9348
6.0906 10.5492 0.7554 0.9524
5.2875 11.1433 0.7648 0.9518
3.8615 9.0634 0.6109 0.9613
3.1625 8.3387 0.5530 0.9649
2.7626 8.2749 0.5410 0.9656
2.3968 8.2749 0.5342 0.9661
2.0125 8.1650 0.5215 0.9669
1.4225 8.7534 0.5499 0.9651
0.7770 9.6248 0.5988 0.9620
0.3879 9.6248 0.5973 0.9621
-0.3901 9.6811 0.6008 0.9619
-0.7816 9.6811 0.6023 0.9618
-1.1640 9.5860 0.5988 0.9620
-2.8042 9.6811 0.6250 0.9604
-3.2132 9.6248 0.6292 0.9601
-4.2202 8.8939 0.6104 0.9613
-5.2327 8.2749 0.6071 0.9615
-5.7047 8.2647 0.6227 0.9606
-25.0721 28.3005 2.3446 0.8594
-32.5794 26.6002 2.6080 0.8449
-31.5246 23.6892 2.4453 0.8538
-25.1517 17.3610 1.8951 0.8847
-44.0517 14.7066 2.8799 0.8302
-32.8285 8.0915 2.0966 0.8733
-43.4238 5.2726 2.7125 0.8392
-42.9057 -22.5187 1.9107 0.8237
-21.2070 -18.7877 1.1172 0.8928
-20.5406 -19.7295 1.1230 0.8922
-21.4632 -22.3454 1.2217 0.8834
-21.1867 -23.9148 1.2598 0.8799
-16.7349 -20.4965 1.0434 0.8995
-16.2234 -21.5893 1.0649 0.8975
-23.3286 -40.4062 1.8397 0.8296
-14.3908 -27.4194 1.2210 0.8834
-18.0098 -42.2704 1.8117 0.8320
-15.9039 -41.9351 1.7685 0.8357
-7.8273 -27.0230 1.1093 0.8935
-5.2700 -25.8144 1.0389 0.8999
-3.5254 -21.6923 0.8666 0.9158
-2.5557 -21.0480 0.8360 0.9186
-1.7296 -21.4250 0.8476 0.9176
-0.8991 -22.3104 0.8804 0.9145
0.0000 -24.2681 0.9569 0.9074
0.9454 -23.4587 0.9258 0.9103
1.8914 -23.4286 0.9268 0.9102
2.8524 -23.4914 0.9331 0.9096
4.2398 -26.0888 1.0422 0.8996
5.4875 -26.8797 1.0818 0.8960
5.0843 -20.6278 0.8377 0.9185
7.0296 -16.4989 0.7072 0.9307
7.7688 -16.3724 0.7146 0.9300
10.2655 -16.2335 0.7573 0.9260
14.3226 -20.7498 0.9942 0.9040
17.5302 -19.7874 1.0424 0.8996
17.1148 -16.4390 0.9357 0.9094
19.4038 8.2672 0.8317 0.9190
15.1531 9.5822 0.7069 0.9307
11.9407 8.2421 0.5721 0.9436
11.0176 8.2792 0.5434 0.9463
10.6166 8.6681 0.5404 0.9466
10.1037 9.7048 0.5524 0.9455
10.1037 10.5191 0.5751 0.9433
10.2089 11.5234 0.6070 0.9402
10.1037 13.4456 0.6632 0.9349
10.2089 14.7901 0.7086 0.9306
6.9033 10.9167 0.5093 0.9496
5.7989 10.0440 0.4573 0.9546
12.5211 26.3877 1.1517 0.8897
3.1625 8.3387 0.3517 0.9649
2.7626 8.2749 0.3440 0.9657
2.3968 8.2749 0.3397 0.9661
2.0125 8.1650 0.3316 0.9669
1.7086 8.3693 0.3368 0.9664
1.4225 8.7534 0.3497 0.9651
1.1025 9.0802 0.3607 0.9640
0.7770 9.6248 0.3807 0.9621
-0.0000 9.5865 0.3780 0.9624
-0.3901 9.6811 0.3820 0.9620
-0.7816 9.6811 0.3830 0.9619
-1.1640 9.5860 0.3808 0.9621
-2.3874 9.6861 0.3934 0.9609
-2.8042 9.6811 0.3974 0.9605
-4.2005 8.8523 0.3864 0.9615
-4.4212 8.4238 0.3751 0.9626
-4.7812 8.2812 0.3771 0.9624
-5.6935 8.2485 0.3952 0.9607
-31.5440 35.6058 1.8757 0.8266
-23.4208 24.3837 1.3332 0.8734
-25.8109 24.7917 1.4112 0.8665
-32.4860 26.5239 1.6537 0.8455
-23.1597 17.4033 1.1423 0.8905
-23.6193 16.3033 1.1317 0.8915
-23.5208 14.8737 1.0973 0.8946
-25.5427 14.7471 1.1630 0.8886
-24.7663 12.9984 1.1029 0.8941
-31.3189 14.8610 1.3669 0.8704
-27.7566 11.8260 1.1897 0.8862
-35.6375 13.5155 1.5029 0.8585
-47.7739 13.8379 1.9612 0.8195
-32.1891 7.9339 1.3072 0.8757
-34.4282 5.5951 1.3753 0.8697
-44.1384 -20.9439 0.8253 0.8225
-41.5459 -26.2721 0.8303 0.8215
-21.9201 -17.8972 0.4780 0.8930
-20.2135 -19.4154 0.4734 0.8939
-21.7320 -22.6254 0.5299 0.8821
-17.3814 -19.6195 0.4428 0.9004
-16.4350 -20.1292 0.4390 0.9013
-15.7829 -21.0032 0.4438 0.9002
-22.9489 -39.7486 0.7753 0.8323
-9.6334 -25.4013 0.4589 0.8970
-7.6043 -26.2530 0.4617 0.8964
-5.5015 -26.9480 0.4646 0.8958
-4.3673 -26.8729 0.4599 0.8968
-3.1297 -25.7755 0.4386 0.9013
-1.6709 -20.6973 0.3508 0.9203
-0.8067 -20.0187 0.3384 0.9230
0.9821 -24.3703 0.4120 0.9070
4.0046 -24.6412 0.4217 0.9050
4.9296 -24.1469 0.4163 0.9061
6.7248 -17.7317 0.3203 0.9269
6.6059 -15.5046 0.2847 0.9348
7.3026 -15.3898 0.2877 0.9341
10.3384 -14.9777 0.3074 0.9298
15.1555 -20.1683 0.4261 0.9040
22.8161 -15.7488 0.4683 0.8950
17.9677 9.4302 0.3428 0.9220
16.7682 9.6811 0.3271 0.9255
15.1530 9.5822 0.3028 0.9308
11.9407 8.2421 0.2451 0.9436
11.0176 8.2792 0.2328 0.9464
10.6166 8.6681 0.2315 0.9466
10.2694 9.0979 0.2318 0.9466
10.1037 9.7048 0.2366 0.9455
10.1037 10.5191 0.2464 0.9433
10.2089 14.7901 0.3036 0.9306
4.8378 10.1955 0.1906 0.9559
2.3968 8.2749 0.1455 0.9661
2.0125 8.1650 0.1420 0.9669
1.7086 8.3693 0.1443 0.9664
1.4225 8.7534 0.1498 0.9651
1.1025 9.0802 0.1545 0.9641
0.3879 9.6248 0.1627 0.9622
-0.0000 9.5864 0.1619 0.9624
-0.7816 9.6811 0.1641 0.9619
-1.1640 9.5860 0.1631 0.9621
-2.3874 9.6860 0.1685 0.9609
-2.8042 9.6811 0.1703 0.9605
-3.2132 9.6248 0.1714 0.9602
-4.4212 8.4238 0.1607 0.9627
-4.7812 8.2812 0.1615 0.9625
-31.7541 35.8430 0.8089 0.8257
-32.9392 34.2934 0.8032 0.8268
-24.1946 23.2393 0.5667 0.8744
-28.5061 25.2542 0.6433 0.8587
-32.5759 26.5974 0.7105 0.8451
-12.1740 7.6984 0.2433 0.9440
-32.7774 17.2029 0.6253 0.8624
-32.2484 13.7397 0.5921 0.8692
-35.8032 13.5783 0.6468 0.8580
-42.8353 14.3006 0.7628 0.8347
-43.2318 12.5223 0.7603 0.8352
-32.3470 7.9728 0.5628 0.8752
-33.1946 6.7767 0.5723 0.8732
-42.1904 6.8566 0.7220 0.8428
-41.7009 -19.7873 -0.2599 0.8314
-41.4321 -21.7452 -0.2635 0.8293
-37.4041 -23.6530 -0.2492 0.8378
-23.1313 -17.3820 -0.1629 0.8907
-20.8758 -18.4943 -0.1570 0.8944
-16.9094 -16.2417 -0.1320 0.9105
-20.0528 -20.8772 -0.1630 0.8907
-16.7892 -20.5630 -0.1495 0.8993
-16.3004 -21.6918 -0.1528 0.8971
-11.1226 -16.1139 -0.1102 0.9247
-23.4195 -37.0349 -0.2467 0.8392
-7.7064 -23.0836 -0.1370 0.9072
-5.3533 -26.2222 -0.1507 0.8985
-4.4507 -27.3859 -0.1562 0.8950
-2.0236 -25.0669 -0.1416 0.9043
0.0000 -23.7908 -0.1339 0.9092
6.5370 -40.2239 -0.2294 0.8496
7.5477 -36.9710 -0.2124 0.8599
5.1683 -20.9683 -0.1216 0.9172
7.8610 -27.1391 -0.1591 0.8931
6.5622 -17.3030 -0.1042 0.9286
7.1052 -16.6766 -0.1021 0.9301
8.0510 -16.9671 -0.1057 0.9276
8.7120 -16.5992 -0.1055 0.9278
16.2788 -21.6631 -0.1526 0.8973
24.2435 -25.2402 -0.1970 0.8694
17.1111 -16.4354 -0.1336 0.9095
22.8161 -15.7488 -0.1561 0.8950
18.4013 8.7315 -0.1147 0.9218
17.9677 9.4302 -0.1143 0.9220
16.7682 9.6811 -0.1090 0.9255
15.1530 9.5822 -0.1009 0.9308
11.0176 8.2792 -0.0776 0.9464
10.6166 8.6681 -0.0772 0.9467
9.9643 9.5708 -0.0778 0.9462
9.2714 9.6526 -0.0754 0.9479
8.5515 9.6526 -0.0726 0.9497
7.8811 9.6526 -0.0702 0.9514
7.2534 9.6526 -0.0680 0.9529
5.0661 9.6526 -0.0614 0.9573
2.7626 8.2749 -0.0491 0.9657
2.3968 8.2749 -0.0485 0.9661
2.0125 8.1650 -0.0473 0.9669
0.7770 9.6248 -0.0544 0.9621
0.3879 9.6248 -0.0542 0.9622
-0.7816 9.6811 -0.0547 0.9619
-1.1639 9.5860 -0.0544 0.9621
-3.8995 9.1523 -0.0560 0.9610
-4.2202 8.8939 -0.0554 0.9614
-4.7812 8.2812 -0.0538 0.9625
-5.2327 8.2749 -0.0551 0.9616
-5.7047 8.2647 -0.0565 0.9606
-32.5759 26.5974 -0.2368 0.8452
-31.5445 23.7041 -0.2222 0.8540
-12.1740 7.6984 -0.0811 0.9440
-31.1678 9.0279 -0.1827 0.8783
-31.1678 7.6822 -0.1807 0.8795
-31.0860 6.3463 -0.1786 0.8808
-37.0032 6.0136 -0.2110 0.8607
-44.8129 -16.9953 -1.3495 0.8255
-39.5618 -16.8557 -1.2109 0.8419
-31.4710 -16.5172 -1.0008 0.8674
-28.5848 -16.5034 -0.9294 0.8763
-26.1524 -19.6523 -0.9211 0.8773
-21.3263 -17.4123 -0.7752 0.8957
-20.4004 -18.0732 -0.7674 0.8967
-16.8456 -16.1804 -0.6577 0.9108
-21.2780 -22.1528 -0.8649 0.8843
-19.9344 -22.5013 -0.8465 0.8867
-17.9481 -23.8846 -0.8413 0.8873
-11.0875 -16.0631 -0.5496 0.9249
-18.6144 -35.4669 -1.1279 0.8519
-11.5176 -24.2728 -0.7565 0.8981
-9.5819 -22.4896 -0.6883 0.9068
-8.5351 -22.5053 -0.6777 0.9082
-7.5688 -22.6714 -0.6730 0.9088
-6.8108 -23.5134 -0.6893 0.9067
-6.4029 -25.9776 -0.7534 0.8985
-5.5234 -27.0555 -0.7775 0.8954
-4.8762 -30.0046 -0.8559 0.8855
-3.2939 -27.1279 -0.7695 0.8964
-2.0290 -25.1335 -0.7100 0.9040
-1.0171 -25.2384 -0.7112 0.9039
0.0000 -25.0592 -0.7056 0.9046
1.2739 -15.7807 -0.4458 0.9386
6.4200 -39.5041 -1.1269 0.8520
7.7098 -23.0935 -0.6855 0.9072
10.0606 -26.5275 -0.7989 0.8927
11.3441 -26.6255 -0.8149 0.8906
7.5807 -15.9760 -0.4979 0.9317
7.9747 -15.1945 -0.4832 0.9336
24.2424 -38.3362 -1.2772 0.8340
24.1986 -25.1934 -0.9835 0.8695
24.1929 -21.4330 -0.9101 0.8787
24.1818 -19.7438 -0.8790 0.8826
17.0242 8.9350 -0.5414 0.9259
13.7418 8.6898 -0.4578 0.9370
11.6709 8.0559 -0.3993 0.9448
10.9284 8.2121 -0.3849 0.9468
10.4948 8.5687 -0.3815 0.9472
9.9643 9.5708 -0.3890 0.9462
7.8811 9.6526 -0.3509 0.9514
7.2534 9.6526 -0.3400 0.9528
5.5729 9.6526 -0.3138 0.9564
5.0661 9.6526 -0.3070 0.9573
3.7365 8.7700 -0.2684 0.9626
3.1625 8.3387 -0.2511 0.9649
2.3968 8.2749 -0.2426 0.9661
1.1025 9.0802 -0.2576 0.9641
0.3879 9.6248 -0.2712 0.9622
-1.9764 9.6811 -0.2782 0.9612
-2.3873 9.6857 -0.2809 0.9609
-3.2132 9.6248 -0.2857 0.9602
-3.6502 9.6248 -0.2898 0.9596
-4.1336 8.7114 -0.2715 0.9622
-4.4212 8.4238 -0.2679 0.9626
-4.7812 8.2812 -0.2693 0.9625
-5.1404 8.1289 -0.2708 0.9622
-5.6135 8.1326 -0.2783 0.9612
-31.7541 35.8430 -1.3484 0.8256
-32.0371 33.3542 -1.3022 0.8310
-31.5804 27.9778 -1.1880 0.8447
-31.5445 23.7041 -1.1111 0.8539
-31.7164 21.8923 -1.0852 0.8571
-12.1740 7.6984 -0.4056 0.9440
-25.5227 14.7355 -0.8298 0.8888
-31.0860 11.7894 -0.9361 0.8754
-31.1678 7.6822 -0.9039 0.8795
-31.0860 6.3463 -0.8934 0.8808
-49.2955 0.0000 -2.5000 0.8208
-49.1356 -3.9666 -2.5000 0.8208
-45.6562 -13.2245 -2.4106 0.8266
-43.3165 -16.4278 -2.3494 0.8307
-35.1500 -16.6789 -1.9731 0.8557
-31.7834 -16.6812 -1.8204 0.8661
-28.5698 -16.4948 -1.6731 0.8762
-26.0438 -16.4691 -1.5627 0.8839
-21.9117 -16.4656 -1.3900 0.8960
-20.0154 -16.3420 -1.3104 0.9017
-18.3908 -16.2928 -1.2461 0.9063
-16.8318 -16.1672 -1.1836 0.9108
-21.2708 -28.3064 -1.7957 0.8678
-23.4090 -37.0183 -2.2212 0.8391
-13.0913 -24.9435 -1.4286 0.8933
-11.2259 -23.6582 -1.3280 0.9004
-6.6628 -23.0026 -1.2145 0.9085
-3.6840 -45.6339 -2.3218 0.8325
1.0733 -26.6319 -1.3517 0.8987
5.5199 -45.4604 -2.3224 0.8324
9.1631 -44.8838 -2.3232 0.8324
7.2572 -29.4435 -1.5379 0.8856
7.9537 -27.4590 -1.4498 0.8918
8.8468 -26.4993 -1.4168 0.8941
10.1377 -26.7309 -1.4499 0.8918
21.3949 -40.7646 -2.3348 0.8316
23.1035 -40.0164 -2.3434 0.8310
10.7301 -15.5452 -0.9579 0.9271
11.6652 -15.5236 -0.9848 0.9252
12.7176 -15.5763 -1.0198 0.9226
13.7777 -15.5518 -1.0537 0.9202
14.9126 -15.5257 -1.0918 0.9174
17.4587 -15.4671 -1.1829 0.9108
39.4092 -29.6140 -2.5000 0.8208
22.8161 -15.7488 -1.4060 0.8949
41.6643 -26.3463 -2.5000 0.8208
42.6354 -24.6156 -2.4967 0.8210
42.6494 -20.2373 -2.3941 0.8277
42.6638 -18.1773 -2.3519 0.8305
48.9361 -5.9419 -2.5000 0.8208
49.2555 -1.9849 -2.5000 0.8208
49.2955 0.0000 -2.5000 0.8208
49.2555 1.9849 -2.5000 0.8208
46.1403 3.7249 -2.3476 0.8308
45.6910 7.4256 -2.3476 0.8308
44.5326 12.8990 -2.3513 0.8305
43.3098 16.4253 -2.3491 0.8307
19.2026 8.1815 -1.0586 0.9198
13.8835 8.0156 -0.8130 0.9378
8.9168 9.2834 -0.6528 0.9498
7.8811 9.6526 -0.6320 0.9513
7.2534 9.6526 -0.6123 0.9528
6.1039 9.6526 -0.5792 0.9553
5.5729 9.6526 -0.5653 0.9563
3.7365 8.7700 -0.4835 0.9625
2.3360 8.0648 -0.4258 0.9669
2.0009 8.1179 -0.4240 0.9671
1.6878 8.2674 -0.4279 0.9668
1.3807 8.4960 -0.4365 0.9661
1.0898 8.9755 -0.4585 0.9644
0.7769 9.6243 -0.4897 0.9621
0.3878 9.6234 -0.4884 0.9622
-0.7816 9.6811 -0.4926 0.9618
-1.9764 9.6811 -0.5011 0.9612
-2.9221 8.7526 -0.4680 0.9637
-3.8994 9.1523 -0.5045 0.9609
-4.7812 8.2812 -0.4849 0.9624
-5.6135 8.1326 -0.5012 0.9612
-6.3928 8.5073 -0.5397 0.9583
-28.8944 35.3893 -2.3170 0.8328
-30.3304 34.2359 -2.3196 0.8326
-30.5691 31.8258 -2.2380 0.8380
-31.5445 23.7041 -2.0011 0.8538
-31.7909 21.9437 -1.9590 0.8567
-25.5160 14.7317 -1.4942 0.8887
-32.7770 17.2027 -1.8773 0.8622
-32.2482 13.7397 -1.7777 0.8690
-31.0860 11.7894 -1.6861 0.8753
-31.1678 9.0279 -1.6456 0.8781
-46.1494 3.7256 -2.3480 0.8307
-34.0682 -1.3729 -2.5000 0.8722
-33.9853 -2.7436 -2.5000 0.8722
-33.6544 -5.4694 -2.5000 0.8722
-33.4069 -6.8200 -2.5000 0.8722
-33.1051 -8.1597 -2.5000 0.8722
-32.7497 -9.4861 -2.5000 0.8722
-32.3412 -10.7971 -2.5000 0.8722
-30.9992 -13.2075 -2.4706 0.8736
-28.9269 -13.7259 -2.3476 0.8795
-27.7391 -16.0152 -2.3485 0.8794
-27.0818 -17.1255 -2.3494 0.8794
-26.3747 -18.2052 -2.3498 0.8794
-21.7859 -16.3710 -1.9981 0.8965
-16.8318 -16.1672 -1.7112 0.9106
-15.5874 -16.2282 -1.6499 0.9137
-14.3518 -16.1998 -1.5869 0.9169
-12.2315 -16.2772 -1.4929 0.9216
-10.1834 -16.1038 -1.3970 0.9264
-8.4307 -16.0634 -1.3302 0.9298
-7.6132 -16.0446 -1.3021 0.9313
-6.8282 -16.0265 -1.2773 0.9325
-5.3390 -15.9922 -1.2362 0.9346
-3.9338 -15.9598 -1.2052 0.9362
-2.5887 -15.9288 -1.1833 0.9373
-1.9323 -15.9137 -1.1754 0.9377
-1.2835 -15.8988 -1.1695 0.9380
0.0000 -15.8692 -1.1636 0.9383
0.6389 -15.8545 -1.1634 0.9383
1.2715 -15.7502 -1.1586 0.9386
2.5694 -15.8100 -1.1744 0.9378
3.8893 -15.7796 -1.1916 0.9369
4.5661 -15.7640 -1.2034 0.9363
5.2575 -15.7481 -1.2173 0.9356
5.9663 -15.7318 -1.2337 0.9347
8.2293 -15.6796 -1.2984 0.9314
15.9688 -27.6588 -2.3417 0.8798
10.7823 -15.6208 -1.3917 0.9267
11.8173 -15.7260 -1.4423 0.9241
12.7176 -15.5763 -1.4744 0.9225
14.9126 -15.5257 -1.5785 0.9173
17.4587 -15.4671 -1.7102 0.9107
18.9030 -15.4338 -1.7893 0.9068
28.8177 -18.2232 -2.5000 0.8722
31.3676 -13.3645 -2.5000 0.8722
32.3413 -10.7971 -2.5000 0.8722
32.7498 -9.4861 -2.5000 0.8722
33.4069 -6.8201 -2.5000 0.8722
33.9854 -2.7436 -2.5000 0.8722
34.0683 -1.3729 -2.5000 0.8722
34.0959 0.0000 -2.5000 0.8722
34.0683 1.3729 -2.5000 0.8722
33.8473 4.1098 -2.5000 0.8722
33.4070 6.8201 -2.5000 0.8722
33.1053 8.1598 -2.5000 0.8722
31.8804 12.0906 -2.5000 0.8722
19.3591 8.2481 -1.5429 0.9191
15.2977 8.0288 -1.2668 0.9331
11.8617 8.1875 -1.0568 0.9438
11.0176 8.2792 -1.0105 0.9462
10.5427 8.6079 -0.9979 0.9469
9.5695 8.4778 -0.9374 0.9500
8.8317 8.4830 -0.8979 0.9521
8.2199 8.5578 -0.8700 0.9535
8.1223 9.1682 -0.8981 0.9521
7.8811 9.6526 -0.9137 0.9512
7.2534 9.6526 -0.8853 0.9527
4.6170 8.7971 -0.7285 0.9609
4.2569 8.9712 -0.7281 0.9610
3.1625 8.3387 -0.6539 0.9649
0.7769 9.6243 -0.7080 0.9620
-0.3901 9.6811 -0.7104 0.9619
-1.1640 9.5860 -0.7080 0.9620
-2.8042 9.6811 -0.7390 0.9604
-2.9220 8.7525 -0.6766 0.9637
-3.1710 8.3612 -0.6557 0.9648
-4.2202 8.8938 -0.7218 0.9613
-5.7047 8.2647 -0.7363 0.9605
-6.6212 8.8112 -0.8081 0.9568
-21.2309 26.0032 -2.4614 0.8740
-24.2105 23.2545 -2.4614 0.8740
-25.9359 17.9023 -2.3107 0.8813
-25.5094 14.7279 -2.1598 0.8886
-29.8554 11.3227 -2.3412 0.8798
-30.3104 10.1191 -2.3430 0.8797
-31.0747 7.6592 -2.3467 0.8795
-31.0860 6.3463 -2.3263 0.8805
-31.7862 3.8595 -2.3477 0.8795
-26.0343 0.0000 -2.4994 0.9007
-25.2835 -6.2318 -2.5000 0.9006
-24.7000 -8.2461 -2.5000 0.9006
-24.3480 -9.2339 -2.5000 0.9006
-23.5260 -11.1632 -2.5000 0.9006
-23.0574 -12.1014 -2.5000 0.9006
-22.5515 -13.0201 -2.5000 0.9006
-19.5487 -14.6899 -2.3476 0.9064
-16.8318 -16.1672 -2.2406 0.9105
-16.9623 -17.6596 -2.3508 0.9063
-14.3518 -16.1998 -2.0778 0.9167
-13.2052 -16.1734 -2.0045 0.9195
-11.0977 -16.0778 -1.8755 0.9245
-12.2250 -21.1742 -2.3473 0.9064
-8.4307 -16.0634 -1.7417 0.9297
-6.8282 -16.0265 -1.6725 0.9324
-7.4948 -22.4497 -2.2722 0.9093
-4.6516 -16.0592 -1.6051 0.9350
-5.8453 -23.7152 -2.3449 0.9065
-4.8852 -23.9294 -2.3447 0.9065
-2.9436 -24.2424 -2.3445 0.9065
-1.9650 -24.3407 -2.3444 0.9065
-0.9833 -24.3999 -2.3444 0.9065
0.9833 -24.4008 -2.3445 0.9065
2.5694 -15.8100 -1.5378 0.9377
4.5661 -15.7640 -1.5756 0.9362
5.9663 -15.7318 -1.6153 0.9346
12.2307 -21.1842 -2.3484 0.9064
9.8910 -15.6414 -1.7767 0.9283
11.7220 -15.5992 -1.8733 0.9246
16.2430 -18.3345 -2.3516 0.9063
16.9719 -17.6695 -2.3521 0.9062
16.9851 -16.3144 -2.2610 0.9097
18.3035 -16.2152 -2.3476 0.9064
19.5486 -14.6898 -2.3476 0.9064
20.1242 -13.8907 -2.3476 0.9064
20.8821 -13.2050 -2.3720 0.9055
23.5260 -11.1632 -2.5000 0.9006
24.3480 -9.2339 -2.5000 0.9006
24.7001 -8.2460 -2.5000 0.9006
25.2835 -6.2318 -2.5000 0.9006
25.5139 -5.2087 -2.5000 0.9006
25.7030 -4.1771 -2.5000 0.9006
26.0402 0.0000 -2.5000 0.9006
26.0190 1.0485 -2.5000 0.9006
25.9557 2.0954 -2.5000 0.9006
25.8503 3.1388 -2.5000 0.9006
24.1361 3.9225 -2.3476 0.9064
22.9443 8.7016 -2.3559 0.9061
17.0216 7.2522 -1.7763 0.9283
15.2964 7.2582 -1.6255 0.9342
13.7811 7.9565 -1.5277 0.9381
11.9407 8.2421 -1.3929 0.9434
11.0176 8.2792 -1.3231 0.9461
10.6165 8.6681 -1.3158 0.9464
8.1232 8.4572 -1.1258 0.9540
7.2534 9.6526 -1.1592 0.9526
4.7598 8.2442 -0.9139 0.9625
4.3308 8.2517 -0.8947 0.9632
3.1625 8.3387 -0.8562 0.9648
2.0125 8.1650 -0.8073 0.9668
1.7086 8.3693 -0.8201 0.9663
1.3903 8.5549 -0.8321 0.9658
1.0898 8.9755 -0.8680 0.9643
0.3878 9.6235 -0.9247 0.9620
-0.0000 9.5863 -0.9203 0.9622
-0.3901 9.6811 -0.9302 0.9618
-0.7816 9.6811 -0.9325 0.9617
-1.1639 9.5860 -0.9271 0.9619
-2.3862 9.6811 -0.9573 0.9607
-3.0505 8.0435 -0.8259 0.9660
-3.9352 9.2363 -0.9639 0.9605
-4.4212 8.4238 -0.9133 0.9625
-5.6542 8.1915 -0.9556 0.9608
-16.2148 19.8595 -2.4614 0.9021
-17.0013 19.1905 -2.4614 0.9021
-19.1904 17.0013 -2.4614 0.9021
-20.4963 15.4019 -2.4614 0.9021
-23.5866 10.0493 -2.4614 0.9021
-25.2115 5.1470 -2.4703 0.9018
-25.8232 3.1355 -2.4974 0.9007
-25.9356 2.0937 -2.4980 0.9007
-26.0060 1.0480 -2.4987 0.9007
-20.9779 -1.6935 -2.5000 0.9187
-20.4346 -5.0367 -2.5000 0.9187
-20.2152 -5.8554 -2.5000 0.9187
-19.9630 -6.6646 -2.5000 0.9187
-19.3620 -8.2494 -2.5000 0.9187
-18.6354 -9.7806 -2.5000 0.9187
-14.9224 -13.2201 -2.3681 0.9228
-13.6904 -14.2532 -2.3476 0.9235
-12.4991 -15.3086 -2.3476 0.9235
-11.8746 -15.8022 -2.3480 0.9235
-11.0678 -16.0344 -2.3143 0.9245
-6.8282 -16.0265 -2.0693 0.9322
-6.0714 -16.0090 -2.0338 0.9334
-5.3390 -15.9922 -2.0027 0.9343
-3.2550 -15.9442 -1.9330 0.9366
-1.9396 -15.9735 -1.9114 0.9372
-0.6450 -16.0046 -1.9027 0.9375
0.6420 -15.9316 -1.8940 0.9378
1.2715 -15.7502 -1.8770 0.9383
3.2246 -15.7949 -1.9149 0.9371
3.8893 -15.7796 -1.9305 0.9366
4.5661 -15.7640 -1.9495 0.9360
5.2575 -15.7481 -1.9721 0.9353
5.9663 -15.7318 -1.9986 0.9345
7.7590 -18.2109 -2.3514 0.9234
9.1949 -17.5195 -2.3503 0.9234
9.8836 -17.1189 -2.3481 0.9235
11.2267 -16.2648 -2.3476 0.9235
13.1054 -14.7929 -2.3476 0.9235
13.6904 -14.2532 -2.3476 0.9235
16.8252 -12.6433 -2.5000 0.9187
18.2265 -10.5231 -2.5000 0.9187
18.6354 -9.7806 -2.5000 0.9187
19.0141 -9.0223 -2.5000 0.9187
20.2152 -5.8554 -2.5000 0.9187
20.4346 -5.0367 -2.5000 0.9187
20.7736 -3.3760 -2.5000 0.9187
20.8927 -2.5368 -2.5000 0.9187
21.0461 0.0000 -2.5000 0.9187
20.9779 1.6935 -2.5000 0.9187
20.8927 2.5368 -2.5000 0.9187
19.5072 3.1703 -2.3476 0.9235
19.1889 4.7296 -2.3476 0.9235
18.7461 6.2584 -2.3476 0.9235
17.0213 7.2521 -2.1978 0.9282
15.2958 7.2580 -2.0111 0.9341
13.7820 7.2333 -1.8489 0.9392
13.7811 7.9565 -1.8902 0.9379
13.7801 8.7140 -1.9367 0.9364
10.6165 8.6681 -1.6281 0.9463
9.5341 8.4465 -1.5130 0.9500
7.5771 7.8886 -1.2993 0.9569
7.8811 9.6526 -1.4802 0.9510
5.1935 8.2128 -1.1543 0.9616
4.3104 8.2128 -1.1018 0.9633
4.2027 8.8570 -1.1645 0.9613
3.1625 8.3387 -1.0594 0.9647
2.7336 8.1882 -1.0254 0.9658
2.0249 8.2155 -1.0051 0.9665
1.7086 8.3693 -1.0147 0.9662
-0.0000 9.5863 -1.1387 0.9621
-1.3042 8.0251 -0.9658 0.9678
-1.6370 8.0184 -0.9721 0.9676
-2.2991 9.3277 -1.1412 0.9620
-2.6744 9.2331 -1.1418 0.9620
-2.9610 8.8693 -1.1107 0.9630
-3.0241 7.9739 -1.0130 0.9662
-3.8994 9.1523 -1.1817 0.9607
-4.4464 8.4718 -1.1365 0.9622
-4.7812 8.2812 -1.1359 0.9622
-5.1428 8.1327 -1.1430 0.9620
-12.3017 15.0669 -2.3105 0.9246
-12.8900 14.5498 -2.3090 0.9247
-16.0508 13.1051 -2.4614 0.9199
-16.5655 12.4481 -2.4614 0.9199
-17.0533 11.7710 -2.4614 0.9199
-17.5134 11.0748 -2.4614 0.9199
-17.9452 10.3606 -2.4614 0.9199
-18.3478 9.6297 -2.4614 0.9199
-20.0108 5.7962 -2.4747 0.9195
-20.7587 3.3736 -2.4982 0.9188
-20.8822 2.5356 -2.4987 0.9188
-20.9719 1.6930 -2.4993 0.9187
-17.6298 -0.7105 -2.5000 0.9312
-17.5869 -1.4198 -2.5000 0.9312
-17.5155 -2.1268 -2.5000 0.9312
-17.4156 -2.8303 -2.5000 0.9312
-17.1314 -4.2225 -2.5000 0.9312
-16.9475 -4.9089 -2.5000 0.9312
-16.2322 -6.9159 -2.5000 0.9312
-15.9406 -7.5639 -2.5000 0.9312
-15.2803 -8.8221 -2.5000 0.9312
-14.5208 -10.0230 -2.5000 0.9312
-13.6672 -11.1589 -2.5000 0.9312
-13.2068 -11.7002 -2.5000 0.9312
-12.2225 -12.7250 -2.5000 0.9312
-8.2843 -14.3488 -2.3476 0.9353
-7.1028 -14.9688 -2.3476 0.9353
-6.4943 -15.2427 -2.3476 0.9353
-5.8752 -15.4918 -2.3476 0.9353
-1.9975 -16.4515 -2.3481 0.9352
-0.6673 -16.5591 -2.3481 0.9352
0.6673 -16.5588 -2.3481 0.9352
1.2715 -15.7502 -2.2389 0.9382
2.6581 -16.3562 -2.3479 0.9352
3.9653 -16.0877 -2.3477 0.9353
5.8753 -15.4918 -2.3476 0.9353
7.1028 -14.9688 -2.3476 0.9353
7.6998 -14.6707 -2.3476 0.9353
9.9534 -13.2456 -2.3476 0.9353
11.6816 -13.1858 -2.4960 0.9313
12.2225 -12.7250 -2.5000 0.9312
12.7250 -12.2225 -2.5000 0.9312
13.2068 -11.7002 -2.5000 0.9312
14.1055 -10.5996 -2.5000 0.9312
15.2802 -8.8221 -2.5000 0.9312
15.6231 -8.1996 -2.5000 0.9312
15.9406 -7.5639 -2.5000 0.9312
16.2322 -6.9159 -2.5000 0.9312
16.4975 -6.2567 -2.5000 0.9312
16.7361 -5.5873 -2.5000 0.9312
16.9475 -4.9089 -2.5000 0.9312
17.4156 -2.8303 -2.5000 0.9312
17.5155 -2.1268 -2.5000 0.9312
17.6298 -0.7104 -2.5000 0.9312
17.6441 0.0000 -2.5000 0.9312
17.6298 0.7105 -2.5000 0.9312
17.5869 1.4198 -2.5000 0.9312
16.2337 3.3141 -2.3476 0.9353
15.9144 4.6097 -2.3476 0.9353
15.7159 5.2467 -2.3476 0.9353
14.9362 7.0873 -2.3425 0.9354
13.7808 7.9563 -2.2547 0.9377
13.7799 8.7139 -2.3101 0.9363
11.0176 8.2792 -1.9527 0.9458
9.5341 8.4465 -1.8048 0.9498
8.7937 8.4465 -1.7276 0.9519
7.5823 7.8940 -1.5509 0.9567
7.3392 8.2843 -1.5682 0.9563
7.5092 9.1971 -1.6823 0.9532
7.2534 9.6526 -1.7108 0.9524
5.1935 8.2128 -1.3768 0.9615
4.3104 8.2128 -1.3142 0.9632
4.2027 8.8570 -1.3891 0.9612
2.7151 8.1328 -1.2149 0.9660
2.0125 8.1650 -1.1915 0.9666
0.7769 9.6243 -1.3681 0.9617
-0.0000 8.9267 -1.2648 0.9646
-0.7177 8.8899 -1.2637 0.9646
-1.2758 7.8504 -1.1269 0.9684
-2.5372 8.7594 -1.2921 0.9638
-2.9238 8.7578 -1.3082 0.9634
-4.7812 8.2812 -1.3549 0.9621
-5.7047 8.2647 -1.4229 0.9602
-10.3303 12.6523 -2.3143 0.9361
-10.8304 12.2250 -2.3141 0.9361
-11.3075 11.7723 -2.3128 0.9362
-11.7659 11.3013 -2.3116 0.9362
-12.6240 10.3072 -2.3092 0.9363
-13.8877 10.4360 -2.4614 0.9322
-14.2967 9.8683 -2.4614 0.9322
-14.6825 9.2846 -2.4614 0.9322
-15.3819 8.0731 -2.4614 0.9322
-16.3271 6.1920 -2.4741 0.9319
-16.8418 4.8783 -2.4844 0.9316
-17.5132 2.1265 -2.4997 0.9312
-17.5869 1.4198 -2.5000 0.9312
-15.1631 -0.6110 -2.5000 0.9403
-15.1262 -1.2211 -2.5000 0.9403
-14.8687 -3.0355 -2.5000 0.9403
-14.3944 -4.8056 -2.5000 0.9403
-13.4372 -7.0523 -2.5000 0.9403
-12.8261 -8.1107 -2.5000 0.9403
-12.4891 -8.6206 -2.5000 0.9403
-11.3590 -10.0632 -2.5000 0.9403
-10.5124 -10.9445 -2.5000 0.9403
-10.0632 -11.3589 -2.5000 0.9403
-7.5877 -13.1423 -2.5000 0.9403
-6.9282 -13.2006 -2.4560 0.9414
-6.2678 -13.2091 -2.4086 0.9425
-5.6311 -13.2166 -2.3667 0.9434
-4.5126 -13.5169 -2.3476 0.9439
-3.9647 -13.6877 -2.3476 0.9439
-3.4103 -13.8362 -2.3476 0.9439
-2.2859 -14.0658 -2.3476 0.9439
-1.7177 -14.1464 -2.3476 0.9439
-1.1467 -14.2041 -2.3476 0.9439
0.0000 -14.2503 -2.3476 0.9439
0.5738 -14.2387 -2.3476 0.9439
1.1467 -14.2041 -2.3476 0.9439
1.7177 -14.1464 -2.3476 0.9439
2.8504 -13.9623 -2.3476 0.9439
3.4103 -13.8362 -2.3476 0.9439
5.0532 -13.3243 -2.3476 0.9439
6.2655 -13.2042 -2.4077 0.9425
6.9254 -13.1952 -2.4550 0.9414
7.5877 -13.1423 -2.5000 0.9403
8.1107 -12.8261 -2.5000 0.9403
9.5976 -11.7549 -2.5000 0.9403
10.5124 -10.9445 -2.5000 0.9403
11.3589 -10.0632 -2.5000 0.9403
12.1319 -9.1165 -2.5000 0.9403
12.8261 -8.1107 -2.5000 0.9403
13.4371 -7.0524 -2.5000 0.9403
13.9611 -5.9482 -2.5000 0.9403
14.1892 -5.3812 -2.5000 0.9403
14.3944 -4.8056 -2.5000 0.9403
14.5762 -4.2221 -2.5000 0.9403
14.7344 -3.6317 -2.5000 0.9403
14.9789 -2.4343 -2.5000 0.9403
15.0648 -1.8292 -2.5000 0.9403
15.1631 -0.6110 -2.5000 0.9403
15.1754 0.0000 -2.5000 0.9403
15.0648 1.8292 -2.5000 0.9403
14.9789 2.4343 -2.5000 0.9403
13.6877 3.9647 -2.3476 0.9439
13.5169 4.5126 -2.3476 0.9439
13.1100 5.5856 -2.3476 0.9439
12.6180 6.6225 -2.3476 0.9439
12.2998 7.1013 -2.3397 0.9441
11.9897 7.5818 -2.3370 0.9441
11.6800 8.0621 -2.3380 0.9441
9.5534 8.4636 -2.1026 0.9496
9.6217 9.2417 -2.1978 0.9474
7.5944 7.9066 -1.8061 0.9565
7.1108 8.7092 -1.8522 0.9554
5.6689 8.2128 -1.6440 0.9604
5.1935 8.2128 -1.6008 0.9614
4.3104 8.2128 -1.5280 0.9631
2.7626 8.2749 -1.4372 0.9653
2.3968 8.2749 -1.4192 0.9657
1.7086 8.3693 -1.4072 0.9660
0.7769 9.6243 -1.5907 0.9616
0.3101 7.6956 -1.2688 0.9693
-0.0000 8.5793 -1.4134 0.9658
-0.3458 8.5808 -1.4147 0.9658
-0.6928 8.5822 -1.4184 0.9657
-1.0422 8.5836 -1.4244 0.9656
-1.2485 7.6820 -1.2821 0.9689
-1.5363 7.5255 -1.2653 0.9693
-2.4855 8.5811 -1.4717 0.9644
-3.8994 9.1523 -1.6389 0.9605
-4.2202 8.8938 -1.6217 0.9609
-4.4212 8.4238 -1.5672 0.9622
-5.2327 8.2749 -1.6129 0.9611
-5.7047 8.2647 -1.6544 0.9601
-8.8849 10.8820 -2.3143 0.9446
-9.7317 10.1318 -2.3143 0.9446
-11.2230 8.4336 -2.3127 0.9447
-11.8561 7.4974 -2.3109 0.9447
-12.1410 7.0096 -2.3095 0.9448
-13.8225 5.8892 -2.4752 0.9409
-14.1022 5.3483 -2.4847 0.9407
-14.7304 3.6307 -2.4993 0.9403
-14.8662 3.0350 -2.4996 0.9403
-15.1262 1.2211 -2.5000 0.9403
-15.1631 0.6111 -2.5000 0.9403
-13.3005 0.0000 -2.5000 0.9473
-13.2574 -1.0702 -2.5000 0.9473
-13.2036 -1.6032 -2.5000 0.9473
-12.9141 -3.1830 -2.5000 0.9473
-12.6161 -4.2118 -2.5000 0.9473
-12.0164 -5.7018 -2.5000 0.9473
-11.7771 -6.1811 -2.5000 0.9473
-11.5186 -6.6503 -2.5000 0.9473
-11.2415 -7.1087 -2.5000 0.9473
-10.9461 -7.5556 -2.5000 0.9473
-10.3027 -8.4119 -2.5000 0.9473
-9.5924 -9.2136 -2.5000 0.9473
-9.2136 -9.5924 -2.5000 0.9473
-8.8199 -9.9556 -2.5000 0.9473
-7.5556 -10.9461 -2.5000 0.9473
-7.1087 -11.2415 -2.5000 0.9473
-5.7019 -12.0164 -2.5000 0.9473
-5.2130 -12.2362 -2.5000 0.9473
-2.6605 -13.0318 -2.5000 0.9473
-1.6017 -13.1908 -2.4976 0.9474
-1.0650 -13.1924 -2.4877 0.9476
-0.5317 -13.1933 -2.4818 0.9477
0.0000 -13.1934 -2.4798 0.9477
0.5317 -13.1928 -2.4818 0.9477
1.0649 -13.1916 -2.4876 0.9476
2.1335 -13.1283 -2.5000 0.9473
3.1830 -12.9141 -2.5000 0.9473
3.7005 -12.7754 -2.5000 0.9473
4.7164 -12.4362 -2.5000 0.9473
5.7018 -12.0164 -2.5000 0.9473
6.6503 -11.5186 -2.5000 0.9473
7.1087 -11.2415 -2.5000 0.9473
8.4119 -10.3027 -2.5000 0.9473
8.8200 -9.9556 -2.5000 0.9473
9.2136 -9.5924 -2.5000 0.9473
9.5923 -9.2136 -2.5000 0.9473
9.9557 -8.8199 -2.5000 0.9473
10.3027 -8.4119 -2.5000 0.9473
10.6330 -7.9902 -2.5000 0.9473
10.9462 -7.5556 -2.5000 0.9473
11.2415 -7.1087 -2.5000 0.9473
11.7771 -6.1811 -2.5000 0.9473
12.0164 -5.7018 -2.5000 0.9473
12.2362 -5.2134 -2.5000 0.9473
12.4362 -4.7164 -2.5000 0.9473
12.6161 -4.2118 -2.5000 0.9473
12.7754 -3.7004 -2.5000 0.9473
12.9141 -3.1830 -2.5000 0.9473
13.0318 -2.6604 -2.5000 0.9473
13.1283 -2.1336 -2.5000 0.9473
13.2897 -0.5356 -2.5000 0.9473
13.2898 0.5356 -2.5000 0.9473
13.1283 2.1336 -2.5000 0.9473
13.0318 2.6605 -2.5000 0.9473
12.1268 2.9890 -2.3476 0.9504
11.6781 4.4289 -2.3476 0.9504
11.4903 4.8956 -2.3476 0.9504
10.8164 6.2449 -2.3476 0.9504
10.5562 6.6753 -2.3476 0.9504
10.2514 7.0761 -2.3413 0.9506
9.3017 8.2406 -2.3358 0.9507
7.6072 7.9199 -2.0641 0.9563
6.6441 8.1376 -1.9746 0.9581
5.6689 8.2128 -1.8757 0.9602
5.1935 8.2128 -1.8264 0.9612
4.7417 8.2128 -1.7825 0.9621
4.3104 8.2128 -1.7434 0.9630
3.8615 9.0633 -1.8517 0.9607
2.3968 8.2749 -1.6193 0.9655
2.0125 8.1650 -1.5806 0.9664
1.7086 8.3693 -1.6055 0.9658
1.4226 8.7534 -1.6669 0.9645
0.7769 9.6243 -1.8149 0.9615
-0.0000 8.3954 -1.5780 0.9664
-0.6780 8.3982 -1.5837 0.9663
-1.0199 8.3996 -1.5904 0.9661
-2.4323 8.3973 -1.6432 0.9650
-2.9597 7.8040 -1.5688 0.9666
-3.0829 7.2358 -1.4783 0.9685
-4.7812 8.2812 -1.7973 0.9618
-5.2327 8.2749 -1.8402 0.9609
-5.6935 8.2485 -1.8839 0.9600
-7.4024 9.8508 -2.3161 0.9511
-7.7912 9.5425 -2.3155 0.9511
-8.1672 9.2189 -2.3150 0.9511
-9.5376 7.7872 -2.3143 0.9511
-10.1258 6.9893 -2.3126 0.9512
-10.4449 6.6050 -2.3228 0.9509
-11.4713 4.8875 -2.3437 0.9505
-12.3998 4.7026 -2.4927 0.9475
-12.6006 4.2067 -2.4969 0.9474
-12.7729 3.6997 -2.4995 0.9473
-13.0318 2.6605 -2.5000 0.9473
-13.2036 1.6032 -2.5000 0.9473
-13.2574 1.0703 -2.5000 0.9473
-13.2898 0.5356 -2.5000 0.9473
-11.7886 -0.9517 -2.5000 0.9528
-11.5879 -2.3657 -2.5000 0.9528
-11.4833 -2.8304 -2.5000 0.9528
-11.2183 -3.7452 -2.5000 0.9528
-10.8806 -4.6358 -2.5000 0.9528
-10.4723 -5.4963 -2.5000 0.9528
-10.2425 -5.9135 -2.5000 0.9528
-9.9960 -6.3211 -2.5000 0.9528
-9.4550 -7.1050 -2.5000 0.9528
-8.8526 -7.8427 -2.5000 0.9528
-8.1928 -8.5296 -2.5000 0.9528
-7.4799 -9.1612 -2.5000 0.9528
-7.1050 -9.4550 -2.5000 0.9528
-5.4963 -10.4723 -2.5000 0.9528
-3.2904 -11.3600 -2.5000 0.9528
-2.3657 -11.5879 -2.5000 0.9528
-0.4762 -11.8174 -2.5000 0.9528
0.4762 -11.8174 -2.5000 0.9528
1.8972 -11.6738 -2.5000 0.9528
2.3657 -11.5880 -2.5000 0.9528
2.8304 -11.4833 -2.5000 0.9528
3.2905 -11.3600 -2.5000 0.9528
3.7452 -11.2183 -2.5000 0.9528
5.0704 -10.6850 -2.5000 0.9528
5.4964 -10.4722 -2.5000 0.9528
6.3211 -9.9960 -2.5000 0.9528
7.1051 -9.4550 -2.5000 0.9528
7.4799 -9.1612 -2.5000 0.9528
7.8428 -8.8526 -2.5000 0.9528
8.1928 -8.5296 -2.5000 0.9528
9.4550 -7.1050 -2.5000 0.9528
9.7334 -6.7185 -2.5000 0.9528
9.9960 -6.3211 -2.5000 0.9528
10.2425 -5.9135 -2.5000 0.9528
11.0584 -4.1939 -2.5000 0.9528
11.5880 -2.3657 -2.5000 0.9528
11.6738 -1.8972 -2.5000 0.9528
11.7407 -1.4256 -2.5000 0.9528
11.8174 -0.4762 -2.5000 0.9528
11.8174 0.4762 -2.5000 0.9528
11.5880 2.3657 -2.5000 0.9528
11.0239 2.7172 -2.4000 0.9546
8.8786 6.6718 -2.3476 0.9556
8.5842 7.0088 -2.3425 0.9557
7.9580 7.6438 -2.3324 0.9559
7.3206 8.2632 -2.3335 0.9559
6.1972 8.2470 -2.1806 0.9587
5.6911 8.2451 -2.1177 0.9599
5.7190 9.0439 -2.2619 0.9572
2.7626 8.2749 -1.8440 0.9650
2.0125 8.1650 -1.7776 0.9662
1.4138 8.6998 -1.8631 0.9646
0.7770 9.6245 -2.0410 0.9613
0.2887 7.1652 -1.5158 0.9711
-0.0000 8.2042 -1.7342 0.9670
-0.3307 8.2055 -1.7359 0.9670
-0.6625 8.2069 -1.7404 0.9669
-1.4344 7.0258 -1.5158 0.9711
-2.0230 8.2077 -1.7869 0.9660
-2.7208 8.1497 -1.8162 0.9655
-2.9598 7.8043 -1.7643 0.9665
-3.0091 7.0626 -1.6228 0.9691
-4.2202 8.8938 -2.0809 0.9606
-4.4212 8.4238 -2.0110 0.9619
-5.7047 8.2647 -2.1228 0.9598
-6.3928 8.5073 -2.2494 0.9574
-6.9315 8.4895 -2.3167 0.9562
-7.8993 7.5874 -2.3152 0.9562
-8.1976 7.2625 -2.3150 0.9562
-10.0337 4.7611 -2.3476 0.9556
-10.3843 3.9382 -2.3476 0.9556
-10.5344 3.5169 -2.3476 0.9556
-11.4833 2.8304 -2.5000 0.9528
-11.5880 2.3657 -2.5000 0.9528
-11.6738 1.8972 -2.5000 0.9528
-11.7886 0.9517 -2.5000 0.9528
-11.8174 0.4762 -2.5000 0.9528
-10.6372 0.0000 -2.5000 0.9572
-10.6027 -0.8559 -2.5000 0.9572
-10.4995 -1.7063 -2.5000 0.9572
-10.4222 -2.1277 -2.5000 0.9572
-10.3281 -2.5457 -2.5000 0.9572
-10.2172 -2.9594 -2.5000 0.9572
-9.9459 -3.7720 -2.5000 0.9572
-8.9904 -5.6852 -2.5000 0.9572
-8.2396 -6.7274 -2.5000 0.9572
-7.3687 -7.6716 -2.5000 0.9572
-6.7275 -8.2396 -2.5000 0.9572
-6.3902 -8.5038 -2.5000 0.9572
-5.3186 -9.2121 -2.5000 0.9572
-4.9434 -9.4188 -2.5000 0.9572
-4.5601 -9.6102 -2.5000 0.9572
-4.1694 -9.7860 -2.5000 0.9572
-3.7720 -9.9459 -2.5000 0.9572
-2.9595 -10.2172 -2.5000 0.9572
-2.5457 -10.3281 -2.5000 0.9572
-2.1277 -10.4222 -2.5000 0.9572
-1.7063 -10.4994 -2.5000 0.9572
-1.2822 -10.5596 -2.5000 0.9572
-0.8560 -10.6027 -2.5000 0.9572
-0.4283 -10.6285 -2.5000 0.9572
0.0000 -10.6372 -2.5000 0.9572
0.4284 -10.6286 -2.5000 0.9572
2.1278 -10.4222 -2.5000 0.9572
2.5456 -10.3281 -2.5000 0.9572
2.9595 -10.2172 -2.5000 0.9572
3.3686 -10.0897 -2.5000 0.9572
3.7721 -9.9459 -2.5000 0.9572
4.1694 -9.7860 -2.5000 0.9572
5.3186 -9.2121 -2.5000 0.9572
5.6852 -8.9904 -2.5000 0.9572
6.3902 -8.5038 -2.5000 0.9572
6.7274 -8.2396 -2.5000 0.9572
7.0538 -7.9621 -2.5000 0.9572
7.3686 -7.6716 -2.5000 0.9572
7.9620 -7.0538 -2.5000 0.9572
8.2396 -6.7274 -2.5000 0.9572
8.5038 -6.3902 -2.5000 0.9572
8.7542 -6.0426 -2.5000 0.9572
8.9904 -5.6852 -2.5000 0.9572
9.4187 -4.9433 -2.5000 0.9572
9.7860 -4.1694 -2.5000 0.9572
10.2172 -2.9595 -2.5000 0.9572
10.4222 -2.1277 -2.5000 0.9572
10.4995 -1.7063 -2.5000 0.9572
10.5596 -1.2822 -2.5000 0.9572
10.6027 -0.8559 -2.5000 0.9572
10.6286 0.4283 -2.5000 0.9572
9.5944 2.7791 -2.3476 0.9598
9.4747 3.1631 -2.3476 0.9598
9.3396 3.5421 -2.3476 0.9598
9.1894 3.9153 -2.3476 0.9598
8.8446 4.6420 -2.3476 0.9598
8.6505 4.9944 -2.3476 0.9598
8.4424 5.3387 -2.3476 0.9598
7.4767 6.6238 -2.3476 0.9598
7.2040 6.9194 -2.3476 0.9598
6.2716 7.6813 -2.3306 0.9601
5.9581 7.9289 -2.3310 0.9601
4.3396 8.2684 -2.1947 0.9624
4.2538 8.9647 -2.3321 0.9600
3.7365 8.7700 -2.2404 0.9616
3.1625 8.3387 -2.0960 0.9640
2.7626 8.2749 -2.0503 0.9648
-0.3232 8.0194 -1.8863 0.9676
-0.6475 8.0207 -1.8912 0.9675
-1.2340 7.5928 -1.8079 0.9689
-1.9772 8.0219 -1.9417 0.9666
-2.6275 7.8703 -1.9501 0.9665
-2.9599 7.8045 -1.9617 0.9663
-4.1336 8.7114 -2.2662 0.9612
-4.4212 8.4238 -2.2359 0.9617
-4.7812 8.2812 -2.2474 0.9615
-5.1404 8.1289 -2.2604 0.9613
-5.6028 8.1171 -2.3180 0.9603
-5.9231 7.8823 -2.3173 0.9603
-6.5368 7.3785 -2.3168 0.9603
-7.2039 6.9194 -2.3476 0.9598
-7.4767 6.6238 -2.3476 0.9598
-7.7373 6.3173 -2.3476 0.9598
-7.9854 6.0007 -2.3476 0.9598
-8.6505 4.9944 -2.3476 0.9598
-8.8446 4.6420 -2.3476 0.9598
-9.0243 4.2821 -2.3476 0.9598
-9.1894 3.9153 -2.3476 0.9598
-10.3281 2.5457 -2.5000 0.9572
-10.4994 1.7063 -2.5000 0.9572
-10.5596 1.2822 -2.5000 0.9572
-10.6286 0.4283 -2.5000 0.9572
-9.6477 -0.3888 -2.5000 0.9609
-9.6242 -0.7769 -2.5000 0.9609
-9.5851 -1.1638 -2.5000 0.9609
-9.5305 -1.5488 -2.5000 0.9609
-9.4604 -1.9314 -2.5000 0.9609
-9.3749 -2.3107 -2.5000 0.9609
-8.7233 -4.1392 -2.5000 0.9609
-8.5496 -4.4871 -2.5000 0.9609
-8.3619 -4.8278 -2.5000 0.9609
-8.1607 -5.1605 -2.5000 0.9609
-7.7190 -5.8005 -2.5000 0.9609
-7.4792 -6.1066 -2.5000 0.9609
-7.2272 -6.4028 -2.5000 0.9609
-6.6886 -6.9636 -2.5000 0.9609
-6.4028 -7.2272 -2.5000 0.9609
-6.1066 -7.4792 -2.5000 0.9609
-5.4850 -7.9463 -2.5000 0.9609
-4.8278 -8.3619 -2.5000 0.9609
-4.4871 -8.5495 -2.5000 0.9609
-3.0576 -9.1586 -2.5000 0.9609
-1.9314 -9.4604 -2.5000 0.9609
-1.1638 -9.5851 -2.5000 0.9609
-0.7770 -9.6242 -2.5000 0.9609
0.0000 -9.6555 -2.5000 0.9609
0.7770 -9.6242 -2.5000 0.9609
1.1639 -9.5851 -2.5000 0.9609
1.5488 -9.5305 -2.5000 0.9609
2.3107 -9.3749 -2.5000 0.9609
3.0576 -9.1586 -2.5000 0.9609
3.4239 -9.0280 -2.5000 0.9609
4.1392 -8.7233 -2.5000 0.9609
4.8277 -8.3619 -2.5000 0.9609
6.1066 -7.4792 -2.5000 0.9609
6.4028 -7.2272 -2.5000 0.9609
7.2272 -6.4028 -2.5000 0.9609
7.4792 -6.1066 -2.5000 0.9609
7.7190 -5.8005 -2.5000 0.9609
8.1607 -5.1605 -2.5000 0.9609
8.7233 -4.1392 -2.5000 0.9609
8.8829 -3.7846 -2.5000 0.9609
9.1586 -3.0576 -2.5000 0.9609
9.2743 -2.6863 -2.5000 0.9609
9.3749 -2.3107 -2.5000 0.9609
9.4604 -1.9313 -2.5000 0.9609
9.6242 -0.7769 -2.5000 0.9609
9.6555 0.0000 -2.5000 0.9609
9.5851 1.1638 -2.5000 0.9609
9.4604 1.9314 -2.5000 0.9609
9.3749 2.3107 -2.5000 0.9609
9.2743 2.6863 -2.5000 0.9609
8.6003 2.8712 -2.3476 0.9632
8.4777 3.2152 -2.3476 0.9632
8.0283 4.2136 -2.3476 0.9632
7.6633 4.8460 -2.3476 0.9632
7.2485 5.4469 -2.3476 0.9632
7.0233 5.7343 -2.3476 0.9632
6.0125 6.7867 -2.3476 0.9632
5.4055 7.1932 -2.3297 0.9635
5.1104 7.4038 -2.3293 0.9635
4.8074 7.6023 -2.3289 0.9635
4.4972 7.7895 -2.3288 0.9635
4.1802 7.9648 -2.3290 0.9635
3.8563 8.1270 -2.3291 0.9635
2.7151 8.1328 -2.2200 0.9652
2.3496 8.1116 -2.1866 0.9657
1.7086 8.3693 -2.2117 0.9653
1.0838 8.9261 -2.3281 0.9635
0.7234 8.9605 -2.3276 0.9635
0.3619 8.9804 -2.3271 0.9635
-0.0000 7.8372 -2.0292 0.9681
-0.3159 7.8385 -2.0312 0.9681
-0.6329 7.8398 -2.0365 0.9680
-1.2341 7.5935 -1.9919 0.9687
-1.4440 7.0730 -1.8691 0.9706
-1.9323 7.8396 -2.0905 0.9672
-2.2463 7.7551 -2.0905 0.9672
-3.8413 8.0954 -2.3200 0.9637
-4.1626 7.9312 -2.3192 0.9637
-4.4780 7.7561 -2.3189 0.9637
-5.0864 7.3689 -2.3183 0.9637
-5.4000 7.1861 -2.3274 0.9635
-5.7345 7.0231 -2.3475 0.9632
-6.5391 6.2809 -2.3476 0.9632
-7.0233 5.7343 -2.3476 0.9632
-7.8522 4.5335 -2.3476 0.9632
-9.2743 2.6863 -2.5000 0.9609
-9.3749 2.3107 -2.5000 0.9609
-9.6242 0.7770 -2.5000 0.9609
-9.6477 0.3888 -2.5000 0.9609
-8.8310 0.0000 -2.5000 0.9640
-8.8023 -0.7106 -2.5000 0.9640
-8.7166 -1.4166 -2.5000 0.9640
-8.5744 -2.1134 -2.5000 0.9640
-8.2571 -3.1315 -2.5000 0.9640
-8.1243 -3.4614 -2.5000 0.9640
-7.0599 -5.3051 -2.5000 0.9640
-6.6101 -5.8560 -2.5000 0.9640
-6.1174 -6.3689 -2.5000 0.9640
-5.8560 -6.6101 -2.5000 0.9640
-5.3052 -7.0599 -2.5000 0.9640
-5.0166 -7.2677 -2.5000 0.9640
-4.7199 -7.4638 -2.5000 0.9640
-4.4155 -7.6478 -2.5000 0.9640
-4.1040 -7.8194 -2.5000 0.9640
-3.4614 -8.1243 -2.5000 0.9640
-3.1315 -8.2571 -2.5000 0.9640
-2.4569 -8.4823 -2.5000 0.9640
-2.1134 -8.5743 -2.5000 0.9640
-1.4166 -8.7166 -2.5000 0.9640
-1.0645 -8.7666 -2.5000 0.9640
-0.3556 -8.8238 -2.5000 0.9640
0.3556 -8.8238 -2.5000 0.9640
0.7106 -8.8023 -2.5000 0.9640
1.7664 -8.6525 -2.5000 0.9640
3.4614 -8.1243 -2.5000 0.9640
3.7858 -7.9783 -2.5000 0.9640
4.1039 -7.8194 -2.5000 0.9640
4.4155 -7.6478 -2.5000 0.9640
4.7199 -7.4638 -2.5000 0.9640
5.0166 -7.2677 -2.5000 0.9640
5.5851 -6.8405 -2.5000 0.9640
6.1174 -6.3689 -2.5000 0.9640
6.6101 -5.8560 -2.5000 0.9640
7.2677 -5.0165 -2.5000 0.9640
7.6478 -4.4155 -2.5000 0.9640
7.8194 -4.1040 -2.5000 0.9640
7.9783 -3.7858 -2.5000 0.9640
8.2571 -3.1315 -2.5000 0.9640
8.6525 -1.7664 -2.5000 0.9640
8.7666 -1.0645 -2.5000 0.9640
8.8238 -0.3556 -2.5000 0.9640
8.8238 0.3556 -2.5000 0.9640
8.8023 0.7106 -2.5000 0.9640
8.6526 1.7664 -2.5000 0.9640
8.5744 2.1134 -2.5000 0.9640
8.4823 2.4569 -2.5000 0.9640
8.1220 2.7116 -2.4241 0.9650
7.7537 2.9406 -2.3476 0.9661
7.6290 3.2504 -2.3476 0.9661
7.4920 3.5550 -2.3476 0.9661
7.3428 3.8538 -2.3476 0.9661
7.1816 4.1463 -2.3476 0.9661
6.8247 4.7108 -2.3476 0.9661
6.4235 5.2446 -2.3476 0.9661
6.2071 5.4990 -2.3476 0.9661
5.7445 5.9807 -2.3476 0.9661
5.2446 6.4235 -2.3476 0.9661
4.9817 6.6295 -2.3476 0.9661
4.7108 6.8247 -2.3476 0.9661
4.4276 7.0017 -2.3452 0.9661
4.1225 7.1404 -2.3341 0.9663
3.5247 7.4281 -2.3276 0.9664
2.9146 7.6852 -2.3268 0.9664
2.6026 7.7957 -2.3266 0.9664
2.2865 7.8939 -2.3266 0.9664
1.6437 8.0514 -2.3263 0.9664
1.3180 8.1103 -2.3261 0.9664
0.6610 8.1882 -2.3256 0.9664
-0.0000 7.6511 -2.1660 0.9687
-0.6179 7.6536 -2.1737 0.9686
-0.9295 7.6549 -2.1830 0.9685
-1.2342 7.5943 -2.1781 0.9685
-1.8847 7.6466 -2.2295 0.9678
-2.4979 7.4822 -2.2331 0.9677
-3.5132 7.4040 -2.3200 0.9665
-4.1231 7.1415 -2.3345 0.9663
-4.7107 6.8247 -2.3476 0.9661
-4.9817 6.6295 -2.3476 0.9661
-5.2446 6.4235 -2.3476 0.9661
-5.9807 5.7445 -2.3476 0.9661
-6.6295 4.9817 -2.3476 0.9661
-7.1816 4.1463 -2.3476 0.9661
-7.4920 3.5550 -2.3476 0.9661
-8.1054 2.7060 -2.4191 0.9651
-8.5744 2.1134 -2.5000 0.9640
-8.6525 1.7664 -2.5000 0.9640
-8.7166 1.4166 -2.5000 0.9640
-8.8023 0.7106 -2.5000 0.9640
-8.8238 0.3556 -2.5000 0.9640
-8.1279 0.0000 -2.5000 0.9666
-8.1214 -0.3273 -2.5000 0.9666
-8.1016 -0.6540 -2.5000 0.9666
-8.0227 -1.3038 -2.5000 0.9666
-7.9637 -1.6258 -2.5000 0.9666
-7.8918 -1.9452 -2.5000 0.9666
-7.3432 -3.4844 -2.5000 0.9666
-7.1970 -3.7772 -2.5000 0.9666
-6.8697 -4.3441 -2.5000 0.9666
-6.6892 -4.6172 -2.5000 0.9666
-6.0839 -5.3898 -2.5000 0.9666
-5.6304 -5.8619 -2.5000 0.9666
-5.3898 -6.0839 -2.5000 0.9666
-4.8828 -6.4978 -2.5000 0.9666
-4.0640 -7.0390 -2.5000 0.9666
-3.4844 -7.3432 -2.5000 0.9666
-2.8822 -7.5998 -2.5000 0.9666
-1.3038 -8.0227 -2.5000 0.9666
-0.9797 -8.0687 -2.5000 0.9666
-0.6540 -8.1016 -2.5000 0.9666
-0.3273 -8.1214 -2.5000 0.9666
0.3273 -8.1214 -2.5000 0.9666
1.3038 -8.0227 -2.5000 0.9666
1.6258 -7.9637 -2.5000 0.9666
2.2613 -7.8071 -2.5000 0.9666
2.8822 -7.5998 -2.5000 0.9666
3.1859 -7.4776 -2.5000 0.9666
3.7772 -7.1969 -2.5000 0.9666
4.0640 -7.0390 -2.5000 0.9666
5.8619 -5.6304 -2.5000 0.9666
6.0838 -5.3898 -2.5000 0.9666
6.2960 -5.1405 -2.5000 0.9666
6.8696 -4.3441 -2.5000 0.9666
7.1969 -3.7772 -2.5000 0.9666
7.4775 -3.1859 -2.5000 0.9666
7.5998 -2.8822 -2.5000 0.9666
7.7097 -2.5738 -2.5000 0.9666
7.8071 -2.2613 -2.5000 0.9666
7.8918 -1.9451 -2.5000 0.9666
7.9637 -1.6258 -2.5000 0.9666
8.0687 -0.9797 -2.5000 0.9666
8.1016 -0.6540 -2.5000 0.9666
8.1214 -0.3273 -2.5000 0.9666
8.0227 1.3038 -2.5000 0.9666
7.9637 1.6258 -2.5000 0.9666
7.8071 2.2614 -2.5000 0.9666
7.7097 2.5739 -2.5000 0.9666
7.0217 2.9917 -2.3476 0.9686
6.8956 3.2720 -2.3476 0.9686
6.4509 4.0793 -2.3476 0.9686
6.2814 4.3358 -2.3476 0.9686
5.5046 5.2872 -2.3476 0.9686
5.2872 5.5046 -2.3476 0.9686
4.5851 6.1017 -2.3476 0.9686
4.3357 6.2814 -2.3476 0.9686
4.0793 6.4509 -2.3476 0.9686
3.5470 6.7582 -2.3476 0.9686
2.9879 7.0130 -2.3447 0.9686
2.1041 7.2640 -2.3261 0.9688
1.5123 7.4076 -2.3254 0.9689
1.2126 7.4614 -2.3251 0.9689
0.3042 7.5499 -2.3241 0.9689
-0.6041 7.4830 -2.3091 0.9691
-0.9088 7.4843 -2.3189 0.9689
-1.4473 7.0892 -2.2255 0.9702
-2.1000 7.2499 -2.3216 0.9689
-2.3956 7.1757 -2.3268 0.9688
-2.9906 7.0193 -2.3468 0.9686
-3.8162 6.6099 -2.3476 0.9686
-4.5852 6.1017 -2.3476 0.9686
-5.0613 5.7130 -2.3476 0.9686
-5.2872 5.5046 -2.3476 0.9686
-6.2814 4.3357 -2.3476 0.9686
-6.6099 3.8162 -2.3476 0.9686
-7.1725 2.7202 -2.3594 0.9684
-7.7097 2.5739 -2.5000 0.9666
-8.1016 0.6540 -2.5000 0.9666
-7.5148 -0.3028 -2.5000 0.9688
-7.4965 -0.6052 -2.5000 0.9688
-7.4660 -0.9065 -2.5000 0.9688
-7.4235 -1.2064 -2.5000 0.9688
-7.3689 -1.5044 -2.5000 0.9688
-7.3023 -1.7999 -2.5000 0.9688
-7.0322 -2.6669 -2.5000 0.9688
-6.6594 -3.4951 -2.5000 0.9688
-6.3566 -4.0197 -2.5000 0.9688
-6.0125 -4.5181 -2.5000 0.9688
-5.6295 -4.9873 -2.5000 0.9688
-5.4240 -5.2099 -2.5000 0.9688
-4.5181 -6.0125 -2.5000 0.9688
-4.2723 -6.1896 -2.5000 0.9688
-2.6669 -7.0321 -2.5000 0.9688
-2.0924 -7.2239 -2.5000 0.9688
-1.2064 -7.4235 -2.5000 0.9688
-0.6052 -7.4965 -2.5000 0.9688
-0.3028 -7.5148 -2.5000 0.9688
0.0000 -7.5209 -2.5000 0.9688
0.6052 -7.4965 -2.5000 0.9688
1.2064 -7.4235 -2.5000 0.9688
1.5044 -7.3689 -2.5000 0.9688
1.7999 -7.3023 -2.5000 0.9688
2.0925 -7.2239 -2.5000 0.9688
2.3816 -7.1338 -2.5000 0.9688
3.2241 -6.7947 -2.5000 0.9688
3.4951 -6.6594 -2.5000 0.9688
3.7604 -6.5133 -2.5000 0.9688
4.2723 -6.1896 -2.5000 0.9688
4.5181 -6.0125 -2.5000 0.9688
4.9873 -5.6295 -2.5000 0.9688
5.2099 -5.4241 -2.5000 0.9688
5.6295 -4.9873 -2.5000 0.9688
6.0125 -4.5181 -2.5000 0.9688
6.5133 -3.7604 -2.5000 0.9688
7.0321 -2.6669 -2.5000 0.9688
7.2239 -2.0924 -2.5000 0.9688
7.3023 -1.7999 -2.5000 0.9688
7.3689 -1.5044 -2.5000 0.9688
7.4235 -1.2064 -2.5000 0.9688
7.4660 -0.9065 -2.5000 0.9688
7.4965 -0.6052 -2.5000 0.9688
7.4660 0.9066 -2.5000 0.9688
7.4235 1.2064 -2.5000 0.9688
7.3023 1.7999 -2.5000 0.9688
7.2239 2.0925 -2.5000 0.9688
6.3805 3.0276 -2.3476 0.9707
5.6460 4.2427 -2.3476 0.9707
5.4706 4.4666 -2.3476 0.9707
5.2863 4.6832 -2.3476 0.9707
5.0934 4.8923 -2.3476 0.9707
4.8923 5.0934 -2.3476 0.9707
4.6833 5.2863 -2.3476 0.9707
4.2427 5.6460 -2.3476 0.9707
3.5312 6.1162 -2.3476 0.9707
3.2821 6.2535 -2.3476 0.9707
3.0276 6.3805 -2.3476 0.9707
2.7682 6.4973 -2.3476 0.9707
2.2364 6.6990 -2.3476 0.9707
1.9649 6.7836 -2.3476 0.9707
1.6901 6.8572 -2.3476 0.9707
0.8508 7.0070 -2.3463 0.9707
0.5675 7.0291 -2.3441 0.9707
0.2838 7.0424 -2.3428 0.9707
0.0000 7.0470 -2.3425 0.9707
-0.2838 7.0430 -2.3430 0.9707
-0.5675 7.0303 -2.3445 0.9707
-0.8510 7.0088 -2.3469 0.9707
-1.4127 6.9197 -2.3476 0.9707
-2.5044 6.6035 -2.3476 0.9707
-2.7682 6.4973 -2.3476 0.9707
-3.0276 6.3805 -2.3476 0.9707
-3.5312 6.1162 -2.3476 0.9707
-4.0119 5.8123 -2.3476 0.9707
-4.2427 5.6460 -2.3476 0.9707
-4.4666 5.4706 -2.3476 0.9707
-4.6832 5.2863 -2.3476 0.9707
-5.4706 4.4666 -2.3476 0.9707
-5.6460 4.2427 -2.3476 0.9707
-5.8122 4.0119 -2.3476 0.9707
-6.1162 3.5312 -2.3476 0.9707
-6.2535 3.2821 -2.3476 0.9707
-6.4973 2.7682 -2.3476 0.9707
-7.0322 2.6669 -2.5000 0.9688
-7.5148 0.3028 -2.5000 0.9688
-6.9909 0.0000 -2.5000 0.9707
-6.9682 -0.5625 -2.5000 0.9707
-6.9399 -0.8427 -2.5000 0.9707
-6.9003 -1.1214 -2.5000 0.9707
-6.8496 -1.3983 -2.5000 0.9707
-6.7878 -1.6730 -2.5000 0.9707
-6.7149 -1.9450 -2.5000 0.9707
-6.4315 -2.7402 -2.5000 0.9707
-6.1901 -3.2488 -2.5000 0.9707
-5.9086 -3.7364 -2.5000 0.9707
-5.7534 -3.9713 -2.5000 0.9707
-5.5888 -4.1997 -2.5000 0.9707
-5.2327 -4.6358 -2.5000 0.9707
-4.6358 -5.2327 -2.5000 0.9707
-4.4214 -5.4152 -2.5000 0.9707
-4.1997 -5.5888 -2.5000 0.9707
-3.4954 -6.0543 -2.5000 0.9707
-2.9969 -6.3159 -2.5000 0.9707
-2.7402 -6.4315 -2.5000 0.9707
-1.3984 -6.8496 -2.5000 0.9707
-1.1214 -6.9003 -2.5000 0.9707
-0.8427 -6.9399 -2.5000 0.9707
-0.2815 -6.9852 -2.5000 0.9707
0.0000 -6.9909 -2.5000 0.9707
0.2815 -6.9852 -2.5000 0.9707
1.3983 -6.8496 -2.5000 0.9707
2.2138 -6.6311 -2.5000 0.9707
2.4790 -6.5366 -2.5000 0.9707
2.9969 -6.3159 -2.5000 0.9707
3.4954 -6.0543 -2.5000 0.9707
3.7364 -5.9086 -2.5000 0.9707
3.9713 -5.7534 -2.5000 0.9707
4.4213 -5.4152 -2.5000 0.9707
4.8427 -5.0418 -2.5000 0.9707
5.4152 -4.4213 -2.5000 0.9707
5.5888 -4.1997 -2.5000 0.9707
5.9086 -3.7364 -2.5000 0.9707
6.0543 -3.4954 -2.5000 0.9707
6.1901 -3.2488 -2.5000 0.9707
6.3159 -2.9969 -2.5000 0.9707
6.5366 -2.4790 -2.5000 0.9707
6.6311 -2.2138 -2.5000 0.9707
6.7877 -1.6730 -2.5000 0.9707
6.8496 -1.3983 -2.5000 0.9707
6.9399 -0.8426 -2.5000 0.9707
6.9682 0.5625 -2.5000 0.9707
6.9003 1.1214 -2.5000 0.9707
6.8496 1.3984 -2.5000 0.9707
6.7877 1.6730 -2.5000 0.9707
6.7148 1.9450 -2.5000 0.9707
6.6311 2.2138 -2.5000 0.9707
6.3443 2.7031 -2.4661 0.9711
5.5484 3.5086 -2.3476 0.9725
5.2481 3.9437 -2.3476 0.9725
5.0850 4.1518 -2.3476 0.9725
4.7345 4.5475 -2.3476 0.9725
4.5475 4.7345 -2.3476 0.9725
4.3532 4.9137 -2.3476 0.9725
4.1518 5.0851 -2.3476 0.9725
3.9437 5.2481 -2.3476 0.9725
3.7292 5.4027 -2.3476 0.9725
3.2824 5.6852 -2.3476 0.9725
2.8142 5.9309 -2.3476 0.9725
2.5731 6.0394 -2.3476 0.9725
2.0788 6.2269 -2.3476 0.9725
1.0530 6.4797 -2.3476 0.9725
0.7913 6.5168 -2.3476 0.9725
