ply
format ascii 1.0
element vertex 1575
property float32 x
property float32 y
property float32 z
property float32 I
end_header
13.7416 23.8012 -2.0151 0.8956
9.0723 31.3214 -2.3909 0.8774
6.5364 32.0175 -2.3960 0.8772
3.9473 32.5091 -2.4011 0.8769
2.6379 32.6769 -2.4037 0.8768
1.3215 32.7919 -2.4063 0.8767
-2.6493 32.8178 -2.4141 0.8763
-6.7131 27.2362 -2.0568 0.8936
-6.6947 15.7130 -1.2523 0.9338
-14.2449 30.0204 -2.4364 0.8752
-15.4431 29.4243 -2.4365 0.8752
-16.5987 28.7498 -2.4341 0.8753
-22.8262 23.7645 -2.4161 0.8762
-23.7292 22.7922 -2.4125 0.8764
-26.8999 18.5676 -2.3966 0.8771
-27.5770 17.4386 -2.3924 0.8773
-28.2058 16.2846 -2.3880 0.8775
-28.7855 15.1078 -2.3836 0.8778
-29.3154 13.9103 -2.3792 0.8780
-29.7948 12.6944 -2.3746 0.8782
-20.6889 5.0994 -1.5624 0.9181
-31.6182 5.1385 -2.3487 0.8794
-31.7917 3.8602 -2.3482 0.8795
-33.1957 2.6798 -2.4419 0.8750
-34.0683 1.3729 -2.5000 0.8722
-25.7030 -4.1771 -2.5000 0.9006
-25.5139 -5.2087 -2.5000 0.9006
-25.2835 -6.2318 -2.5000 0.9006
-25.0121 -7.2448 -2.5000 0.9006
-24.7000 -8.2461 -2.5000 0.9006
-23.5260 -11.1632 -2.5000 0.9006
-23.0574 -12.1015 -2.5000 0.9006
-22.5514 -13.0201 -2.5000 0.9006
-21.8802 -13.8362 -2.4854 0.9012
-20.5096 -15.4119 -2.4630 0.9020
-19.8691 -16.2225 -2.4626 0.9021
-17.0013 -19.1904 -2.4614 0.9021
-15.4020 -20.4962 -2.4614 0.9021
-12.3330 -19.5030 -2.2153 0.9114
-11.2389 -19.4662 -2.1580 0.9136
-11.9147 -22.7015 -2.4614 0.9021
-9.4394 -22.1551 -2.3120 0.9078
-2.7663 -17.0215 -1.6556 0.9330
-2.1189 -17.4502 -1.6876 0.9318
0.6904 -17.1331 -1.6462 0.9334
2.1041 -17.3286 -1.6759 0.9323
2.7922 -17.1812 -1.6711 0.9324
4.2310 -17.1656 -1.6973 0.9314
5.7740 -17.2953 -1.7505 0.9293
11.7284 -20.3142 -2.2520 0.9100
13.5673 -19.6557 -2.2929 0.9085
15.4817 -18.9617 -2.3501 0.9063
16.2354 -18.3260 -2.3505 0.9063
17.6353 -16.9390 -2.3476 0.9064
18.3031 -16.2152 -2.3476 0.9064
18.9412 -15.4650 -2.3476 0.9064
19.5485 -14.6898 -2.3476 0.9064
20.1242 -13.8907 -2.3476 0.9064
22.5514 -13.0201 -2.5000 0.9006
23.0574 -12.1014 -2.5000 0.9006
23.9564 -10.2068 -2.5000 0.9006
25.0120 -7.2448 -2.5000 0.9006
25.2834 -6.2318 -2.5000 0.9006
25.7029 -4.1771 -2.5000 0.9006
25.8503 -3.1388 -2.5000 0.9006
26.0190 -1.0485 -2.5000 0.9006
26.0401 0.0000 -2.5000 0.9006
26.0190 1.0485 -2.5000 0.9006
25.9557 2.0954 -2.5000 0.9006
20.3430 5.0141 -2.0115 0.9193
17.3134 5.0150 -1.7305 0.9301
22.9896 8.7188 -2.3605 0.9059
22.6279 9.6408 -2.3614 0.9059
21.7961 11.4395 -2.3632 0.9058
20.8238 13.1682 -2.3654 0.9057
20.2868 14.0030 -2.3665 0.9057
19.1146 15.6066 -2.3691 0.9056
18.4811 16.3729 -2.3704 0.9055
9.6770 15.3029 -1.7383 0.9298
11.5438 21.9950 -2.3848 0.9050
9.7514 22.8874 -2.3884 0.9049
8.8288 23.2796 -2.3903 0.9048
6.9379 23.9525 -2.3941 0.9047
5.9726 24.2319 -2.3960 0.9046
4.0099 24.6741 -2.3999 0.9044
-1.0107 25.0803 -2.4098 0.9041
-2.0214 25.0398 -2.4118 0.9040
-3.0305 24.9584 -2.4137 0.9039
-4.0363 24.8362 -2.4157 0.9038
-7.0059 24.1873 -2.4176 0.9038
-5.8653 15.4654 -1.5879 0.9357
-6.6932 15.7094 -1.6394 0.9337
-11.6682 22.2319 -2.4105 0.9040
-12.5444 21.7275 -2.4087 0.9041
-14.2282 20.6131 -2.4046 0.9043
-15.8110 19.3649 -2.4001 0.9044
-16.5611 18.6936 -2.3977 0.9045
-17.2821 17.9925 -2.3951 0.9046
-17.9725 17.2628 -2.3925 0.9047
-20.4065 14.0856 -2.3805 0.9052
-21.4157 12.3643 -2.3741 0.9054
-21.8655 11.4759 -2.3708 0.9055
-22.2781 10.5711 -2.3674 0.9057
-15.0578 5.0271 -1.5241 0.9382
-20.6889 5.0994 -2.0457 0.9179
-22.4012 4.5733 -2.1950 0.9122
-21.0462 0.0000 -2.5000 0.9187
-20.9779 -1.6935 -2.5000 0.9187
-20.6208 -4.2098 -2.5000 0.9187
-19.9630 -6.6646 -2.5000 0.9187
-19.6785 -7.4631 -2.5000 0.9187
-19.3620 -8.2494 -2.5000 0.9187
-19.0142 -9.0223 -2.5000 0.9187
-17.7880 -11.2484 -2.5000 0.9187
-16.8252 -12.6433 -2.5000 0.9187
-16.2987 -13.3072 -2.4994 0.9187
-15.6894 -13.8997 -2.4899 0.9190
-14.4123 -15.0046 -2.4713 0.9196
-13.7634 -15.5356 -2.4654 0.9198
-13.1263 -16.0768 -2.4654 0.9198
-12.4490 -16.5665 -2.4616 0.9199
-9.7192 -16.8341 -2.3090 0.9247
-8.3331 -17.5615 -2.3090 0.9247
-7.6368 -17.9241 -2.3143 0.9245
-6.4445 -16.9926 -2.1588 0.9294
-4.2314 -17.1672 -2.1003 0.9313
-3.4986 -17.1372 -2.0777 0.9320
-2.7731 -17.0637 -2.0535 0.9327
-1.3686 -16.9532 -2.0204 0.9338
-0.0000 -17.3987 -2.0667 0.9323
1.4026 -17.3742 -2.0705 0.9322
4.2625 -17.2933 -2.1157 0.9308
5.7690 -17.2804 -2.1640 0.9292
6.6375 -17.5016 -2.2234 0.9274
9.8816 -17.1154 -2.3476 0.9235
10.5627 -16.7036 -2.3476 0.9235
11.8725 -15.7995 -2.3476 0.9235
13.1054 -14.7929 -2.3476 0.9235
13.6904 -14.2532 -2.3476 0.9235
14.2532 -13.6904 -2.3476 0.9235
14.9094 -13.2086 -2.3661 0.9229
16.8251 -12.6433 -2.5000 0.9187
17.3206 -11.9556 -2.5000 0.9187
18.2265 -10.5231 -2.5000 0.9187
18.6354 -9.7806 -2.5000 0.9187
19.9630 -6.6646 -2.5000 0.9187
20.4346 -5.0367 -2.5000 0.9187
20.6208 -4.2098 -2.5000 0.9187
20.7736 -3.3760 -2.5000 0.9187
20.8927 -2.5368 -2.5000 0.9187
21.0461 0.0000 -2.5000 0.9187
20.9779 1.6935 -2.5000 0.9187
20.8927 2.5368 -2.5000 0.9187
19.5072 3.1703 -2.3476 0.9235
19.1889 4.7296 -2.3476 0.9235
17.6169 9.2461 -2.3634 0.9230
17.2492 9.9588 -2.3659 0.9229
15.9728 12.0029 -2.3733 0.9227
15.4919 12.6488 -2.3757 0.9226
14.9772 13.2687 -2.3768 0.9226
14.4377 13.8677 -2.3780 0.9225
13.8745 14.4450 -2.3792 0.9225
12.6804 15.5308 -2.3816 0.9224
12.0514 16.0375 -2.3830 0.9224
10.0478 17.4033 -2.3871 0.9222
9.3445 17.8044 -2.3885 0.9222
7.1435 18.8360 -2.3930 0.9221
6.3834 19.1206 -2.3945 0.9220
5.6119 19.3746 -2.3960 0.9220
4.8304 19.5976 -2.3976 0.9219
4.0400 19.7892 -2.3992 0.9219
3.2420 19.9490 -2.4007 0.9218
1.6278 20.1637 -2.4030 0.9217
-0.0000 20.2313 -2.4032 0.9217
-0.8146 20.2144 -2.4031 0.9217
-1.6278 20.1637 -2.4030 0.9217
-2.4381 20.0793 -2.4027 0.9218
-4.0442 19.8100 -2.4017 0.9218
-4.8373 19.6256 -2.4010 0.9218
-5.6218 19.4086 -2.4002 0.9218
-8.6468 18.2228 -2.3959 0.9220
-9.3683 17.8498 -2.3946 0.9220
-10.0733 17.4475 -2.3931 0.9221
-12.7053 15.5612 -2.3863 0.9223
-13.8931 14.4642 -2.3823 0.9224
-15.4913 12.6482 -2.3756 0.9226
-16.4247 11.3371 -2.3707 0.9228
-16.8497 10.6551 -2.3681 0.9228
-17.2460 9.9570 -2.3655 0.9229
-17.6131 9.2440 -2.3628 0.9230
-18.2574 7.7787 -2.3574 0.9232
-13.1600 4.9910 -1.6719 0.9449
-15.0578 5.0271 -1.8857 0.9381
-19.1894 4.7298 -2.3476 0.9235
-19.5073 3.1703 -2.3476 0.9235
-20.8927 2.5368 -2.5000 0.9187
-20.9779 1.6935 -2.5000 0.9187
-21.0291 0.8474 -2.5000 0.9187
-17.4157 -2.8303 -2.5000 0.9312
-15.6231 -8.1996 -2.5000 0.9312
-15.2803 -8.8221 -2.5000 0.9312
-14.9127 -9.4302 -2.5000 0.9312
-13.6672 -11.1589 -2.5000 0.9312
-12.7250 -12.2225 -2.5000 0.9312
-11.7002 -13.2068 -2.5000 0.9312
-11.1483 -13.6542 -2.4976 0.9313
-10.5671 -14.0623 -2.4923 0.9314
-9.2438 -14.6178 -2.4506 0.9325
-7.6998 -14.6707 -2.3476 0.9353
-6.4943 -15.2427 -2.3476 0.9353
-5.8753 -15.4918 -2.3476 0.9353
-5.2468 -15.7158 -2.3476 0.9353
-3.9651 -16.0871 -2.3476 0.9353
-1.9971 -16.4477 -2.3476 0.9353
-1.3332 -16.5148 -2.3476 0.9353
1.3332 -16.5148 -2.3476 0.9353
1.9971 -16.4477 -2.3476 0.9353
2.6578 -16.3540 -2.3476 0.9353
3.3141 -16.2337 -2.3476 0.9353
3.9651 -16.0871 -2.3476 0.9353
4.6096 -15.9144 -2.3476 0.9353
5.8752 -15.4918 -2.3476 0.9353
7.6997 -14.6707 -2.3476 0.9353
8.8553 -14.0035 -2.3476 0.9353
9.9534 -13.2456 -2.3476 0.9353
10.7793 -13.2022 -2.4149 0.9335
13.6672 -11.1589 -2.5000 0.9312
14.1055 -10.5996 -2.5000 0.9312
14.9126 -9.4302 -2.5000 0.9312
15.2802 -8.8221 -2.5000 0.9312
15.6231 -8.1996 -2.5000 0.9312
16.7361 -5.5873 -2.5000 0.9312
16.9475 -4.9089 -2.5000 0.9312
17.4156 -2.8303 -2.5000 0.9312
17.5155 -2.1268 -2.5000 0.9312
17.5869 -1.4197 -2.5000 0.9312
17.6441 0.0000 -2.5000 0.9312
17.6298 0.7105 -2.5000 0.9312
16.0871 3.9651 -2.3476 0.9353
15.9144 4.6097 -2.3476 0.9353
13.1605 4.9912 -1.9943 0.9447
11.7037 4.9865 -1.8025 0.9499
10.4758 4.9709 -1.6429 0.9542
9.4874 4.9794 -1.5182 0.9576
8.6411 4.9890 -1.4138 0.9605
14.0904 8.9102 -2.3621 0.9349
13.3507 10.0324 -2.3662 0.9348
12.9465 10.5706 -2.3682 0.9347
12.5204 11.0921 -2.3701 0.9347
11.6048 12.0819 -2.3736 0.9346
11.1168 12.5483 -2.3753 0.9345
9.5418 13.8237 -2.3800 0.9344
8.4079 14.5630 -2.3826 0.9343
7.2159 15.2073 -2.3850 0.9343
5.9738 15.7516 -2.3870 0.9342
5.3366 15.9851 -2.3878 0.9342
4.6901 16.1921 -2.3886 0.9342
4.0354 16.3723 -2.3892 0.9341
3.3737 16.5254 -2.3898 0.9341
2.7060 16.6510 -2.3902 0.9341
2.0336 16.7490 -2.3906 0.9341
-0.0000 16.8752 -2.3910 0.9341
-0.6795 16.8612 -2.3910 0.9341
-1.3578 16.8191 -2.3908 0.9341
-2.0337 16.7490 -2.3906 0.9341
-4.0355 16.3724 -2.3892 0.9341
-4.6902 16.1923 -2.3886 0.9342
-5.3367 15.9853 -2.3878 0.9342
-6.6007 15.4924 -2.3860 0.9342
-7.2161 15.2075 -2.3850 0.9343
-7.8189 14.8976 -2.3839 0.9343
-8.9828 14.2052 -2.3814 0.9344
-9.5420 13.8239 -2.3800 0.9344
-11.1171 12.5486 -2.3754 0.9345
-12.0732 11.5965 -2.3719 0.9346
-12.5205 11.0922 -2.3701 0.9347
-12.9462 10.5703 -2.3681 0.9347
-13.7310 9.4778 -2.3640 0.9348
-14.0887 8.9092 -2.3619 0.9349
-8.5626 4.9436 -1.4008 0.9608
-9.4407 4.9549 -1.5107 0.9578
-10.4447 4.9561 -1.6381 0.9544
-15.2772 6.5090 -2.3529 0.9351
-13.1920 5.0031 -1.9991 0.9446
-15.9401 4.6171 -2.3514 0.9352
-16.6194 2.7009 -2.3857 0.9342
-17.6299 0.7105 -2.5000 0.9312
-15.1754 0.0000 -2.5000 0.9403
-15.1631 -0.6111 -2.5000 0.9403
-15.1262 -1.2211 -2.5000 0.9403
-15.0648 -1.8292 -2.5000 0.9403
-14.9789 -2.4343 -2.5000 0.9403
-14.8687 -3.0355 -2.5000 0.9403
-14.1893 -5.3813 -2.5000 0.9403
-13.9611 -5.9482 -2.5000 0.9403
-13.1423 -7.5877 -2.5000 0.9403
-12.8261 -8.1107 -2.5000 0.9403
-10.9446 -10.5124 -2.5000 0.9403
-9.5976 -11.7549 -2.5000 0.9403
-8.6206 -12.4891 -2.5000 0.9403
-8.1108 -12.8261 -2.5000 0.9403
-7.5877 -13.1423 -2.5000 0.9403
-6.2738 -13.2218 -2.4109 0.9424
-4.5126 -13.5169 -2.3476 0.9439
-3.9647 -13.6877 -2.3476 0.9439
-2.8505 -13.9623 -2.3476 0.9439
-0.5738 -14.2387 -2.3476 0.9439
-0.0000 -14.2503 -2.3476 0.9439
0.5738 -14.2387 -2.3476 0.9439
1.1467 -14.2041 -2.3476 0.9439
1.7177 -14.1464 -2.3476 0.9439
2.2859 -14.0657 -2.3476 0.9439
2.8504 -13.9623 -2.3476 0.9439
3.4103 -13.8362 -2.3476 0.9439
4.5126 -13.5169 -2.3476 0.9439
5.0532 -13.3243 -2.3476 0.9439
5.6302 -13.2146 -2.3663 0.9434
6.2665 -13.2064 -2.4081 0.9425
6.9264 -13.1972 -2.4553 0.9414
8.1107 -12.8261 -2.5000 0.9403
8.6206 -12.4891 -2.5000 0.9403
9.1165 -12.1319 -2.5000 0.9403
10.0631 -11.3589 -2.5000 0.9403
10.5123 -10.9445 -2.5000 0.9403
10.9445 -10.5124 -2.5000 0.9403
11.7549 -9.5976 -2.5000 0.9403
12.1319 -9.1165 -2.5000 0.9403
12.4891 -8.6206 -2.5000 0.9403
12.8261 -8.1107 -2.5000 0.9403
13.1423 -7.5877 -2.5000 0.9403
13.7102 -6.5056 -2.5000 0.9403
14.1892 -5.3813 -2.5000 0.9403
14.3944 -4.8055 -2.5000 0.9403
14.7344 -3.6317 -2.5000 0.9403
14.9789 -2.4343 -2.5000 0.9403
15.0647 -1.8292 -2.5000 0.9403
15.1262 -1.2211 -2.5000 0.9403
15.1754 0.0000 -2.5000 0.9403
15.0648 1.8292 -2.5000 0.9403
13.5169 4.5126 -2.3476 0.9439
10.5006 4.9827 -1.9148 0.9540
8.6237 4.9789 -1.6404 0.9604
7.8660 4.9742 -1.5332 0.9630
7.2033 4.9721 -1.4419 0.9651
11.4577 8.6099 -2.3611 0.9436
11.1096 9.0707 -2.3627 0.9435
10.7427 9.5172 -2.3644 0.9435
9.9549 10.3642 -2.3674 0.9434
9.5354 10.7632 -2.3689 0.9434
9.0995 11.1450 -2.3703 0.9433
8.6482 11.5087 -2.3716 0.9433
6.7030 12.7716 -2.3762 0.9432
6.1858 13.0364 -2.3771 0.9432
5.6580 13.2798 -2.3780 0.9432
4.5740 13.7008 -2.3795 0.9431
4.0197 13.8776 -2.3802 0.9431
3.4585 14.0315 -2.3807 0.9431
2.8912 14.1622 -2.3812 0.9431
-0.0000 14.4610 -2.3823 0.9431
-1.7428 14.3532 -2.3819 0.9431
-2.3191 14.2696 -2.3816 0.9431
-2.8913 14.1624 -2.3812 0.9431
-4.0198 13.8778 -2.3802 0.9431
-5.1205 13.5016 -2.3788 0.9431
-5.6581 13.2800 -2.3780 0.9432
-6.1859 13.0366 -2.3771 0.9432
-7.7022 12.1800 -2.3740 0.9433
-8.1823 11.8541 -2.3729 0.9433
-9.0997 11.1452 -2.3703 0.9433
-10.7428 9.5173 -2.3644 0.9435
-11.1094 9.0706 -2.3627 0.9435
-11.4572 8.6096 -2.3610 0.9436
-8.5626 4.9436 -1.6287 0.9607
-9.4407 4.9549 -1.7564 0.9577
-10.4701 4.9681 -1.9092 0.9541
-12.2608 5.2239 -2.1955 0.9474
-13.1600 4.9910 -2.3186 0.9445
-13.6877 3.9647 -2.3476 0.9439
-14.9789 2.4343 -2.5000 0.9403
-15.0648 1.8292 -2.5000 0.9403
-15.1262 1.2211 -2.5000 0.9403
-13.2898 -0.5355 -2.5000 0.9473
-13.2574 -1.0702 -2.5000 0.9473
-12.7754 -3.7004 -2.5000 0.9473
-12.6161 -4.2118 -2.5000 0.9473
-12.2363 -5.2134 -2.5000 0.9473
-11.7771 -6.1811 -2.5000 0.9473
-11.5186 -6.6503 -2.5000 0.9473
-11.2415 -7.1087 -2.5000 0.9473
-10.9462 -7.5556 -2.5000 0.9473
-10.6331 -7.9902 -2.5000 0.9473
-10.3027 -8.4119 -2.5000 0.9473
-9.5924 -9.2136 -2.5000 0.9473
-9.2136 -9.5924 -2.5000 0.9473
-8.4119 -10.3027 -2.5000 0.9473
-6.6503 -11.5186 -2.5000 0.9473
-5.2134 -12.2362 -2.5000 0.9473
-4.2119 -12.6161 -2.5000 0.9473
-3.7005 -12.7754 -2.5000 0.9473
-2.6605 -13.0318 -2.5000 0.9473
-1.0653 -13.1963 -2.4885 0.9475
1.0652 -13.1949 -2.4882 0.9475
2.1336 -13.1283 -2.5000 0.9473
3.1830 -12.9141 -2.5000 0.9473
3.7004 -12.7754 -2.5000 0.9473
4.7164 -12.4362 -2.5000 0.9473
5.2138 -12.2362 -2.5000 0.9473
6.1811 -11.7771 -2.5000 0.9473
6.6503 -11.5186 -2.5000 0.9473
7.1087 -11.2415 -2.5000 0.9473
7.5556 -10.9461 -2.5000 0.9473
7.9902 -10.6330 -2.5000 0.9473
8.8199 -9.9556 -2.5000 0.9473
9.5924 -9.2136 -2.5000 0.9473
9.9556 -8.8199 -2.5000 0.9473
10.6330 -7.9902 -2.5000 0.9473
12.4362 -4.7164 -2.5000 0.9473
12.7754 -3.7004 -2.5000 0.9473
12.9140 -3.1830 -2.5000 0.9473
13.0318 -2.6605 -2.5000 0.9473
13.1283 -2.1336 -2.5000 0.9473
13.2036 -1.6032 -2.5000 0.9473
13.2898 -0.5356 -2.5000 0.9473
13.3005 -0.0000 -2.5000 0.9473
13.1283 2.1336 -2.5000 0.9473
11.9966 3.4749 -2.3476 0.9504
11.8469 3.9551 -2.3476 0.9504
11.4903 4.8956 -2.3476 0.9504
9.4874 4.9794 -2.0139 0.9573
8.6235 4.9789 -1.8716 0.9603
9.7201 7.9362 -2.3586 0.9502
9.3983 8.3262 -2.3600 0.9502
8.7077 9.0657 -2.3627 0.9501
7.9583 9.7472 -2.3652 0.9501
6.7347 10.6501 -2.3685 0.9500
6.3030 10.9171 -2.3694 0.9500
4.9463 11.6096 -2.3719 0.9499
3.9984 11.9767 -2.3733 0.9499
2.5271 12.3789 -2.3747 0.9499
2.0269 12.4724 -2.3751 0.9499
1.0169 12.5975 -2.3755 0.9499
-0.5089 12.6288 -2.3757 0.9499
-1.5233 12.5453 -2.3754 0.9499
-2.0270 12.4725 -2.3751 0.9499
-3.5138 12.1309 -2.3739 0.9499
-3.9984 11.9767 -2.3733 0.9499
-4.4763 11.8029 -2.3727 0.9499
-4.9464 11.6097 -2.3720 0.9499
-6.3031 10.9173 -2.3695 0.9500
-6.7348 10.6503 -2.3685 0.9500
-7.5632 10.0648 -2.3664 0.9500
-8.7079 9.0659 -2.3628 0.9501
-6.0378 4.9298 -1.4651 0.9688
-7.1516 4.9364 -1.6333 0.9653
-8.5625 4.9436 -1.8584 0.9606
-10.4701 4.9681 -2.1783 0.9539
-11.4905 4.8956 -2.3476 0.9504
-11.6781 4.4289 -2.3476 0.9504
-11.8470 3.9551 -2.3476 0.9504
-12.1268 2.9890 -2.3476 0.9504
-13.1283 2.1336 -2.5000 0.9473
-13.2036 1.6032 -2.5000 0.9473
-11.8174 -0.4762 -2.5000 0.9528
-11.7886 -0.9517 -2.5000 0.9528
-11.7408 -1.4256 -2.5000 0.9528
-11.6738 -1.8972 -2.5000 0.9528
-11.5880 -2.3657 -2.5000 0.9528
-11.4833 -2.8304 -2.5000 0.9528
-10.8806 -4.6358 -2.5000 0.9528
-10.6851 -5.0701 -2.5000 0.9528
-10.2425 -5.9135 -2.5000 0.9528
-9.9961 -6.3211 -2.5000 0.9528
-9.4550 -7.1050 -2.5000 0.9528
-9.1613 -7.4799 -2.5000 0.9528
-8.8526 -7.8427 -2.5000 0.9528
-8.1929 -8.5296 -2.5000 0.9528
-7.4799 -9.1612 -2.5000 0.9528
-6.7185 -9.7334 -2.5000 0.9528
-6.3212 -9.9960 -2.5000 0.9528
-5.9135 -10.2424 -2.5000 0.9528
-4.6358 -10.8806 -2.5000 0.9528
-4.1939 -11.0584 -2.5000 0.9528
-3.7453 -11.2183 -2.5000 0.9528
-2.8304 -11.4833 -2.5000 0.9528
-2.3657 -11.5879 -2.5000 0.9528
-1.8972 -11.6738 -2.5000 0.9528
-1.4256 -11.7407 -2.5000 0.9528
-0.4762 -11.8174 -2.5000 0.9528
-0.0000 -11.8270 -2.5000 0.9528
0.9517 -11.7886 -2.5000 0.9528
2.3657 -11.5880 -2.5000 0.9528
2.8304 -11.4833 -2.5000 0.9528
3.2905 -11.3600 -2.5000 0.9528
3.7452 -11.2183 -2.5000 0.9528
4.1939 -11.0584 -2.5000 0.9528
5.9135 -10.2425 -2.5000 0.9528
8.1928 -8.5296 -2.5000 0.9528
8.8526 -7.8427 -2.5000 0.9528
9.4550 -7.1050 -2.5000 0.9528
9.7334 -6.7185 -2.5000 0.9528
9.9960 -6.3211 -2.5000 0.9528
10.4722 -5.4963 -2.5000 0.9528
11.2183 -3.7452 -2.5000 0.9528
11.3600 -3.2905 -2.5000 0.9528
11.4833 -2.8304 -2.5000 0.9528
11.6738 -1.8972 -2.5000 0.9528
11.7407 -1.4256 -2.5000 0.9528
11.8174 -0.4762 -2.5000 0.9528
11.8269 0.0000 -2.5000 0.9528
11.8174 0.4762 -2.5000 0.9528
11.7886 0.9517 -2.5000 0.9528
11.0203 2.7163 -2.3992 0.9547
10.5344 3.5169 -2.3476 0.9556
10.3843 3.9382 -2.3476 0.9556
9.4874 4.9794 -2.2649 0.9571
8.6234 4.9788 -2.1048 0.9601
7.8660 4.9742 -1.9673 0.9627
6.6247 4.9782 -1.7516 0.9667
5.1697 4.9656 -1.5152 0.9711
7.7309 8.0487 -2.3590 0.9554
7.0647 8.6528 -2.3612 0.9554
6.7135 8.9341 -2.3622 0.9553
6.3509 9.2009 -2.3632 0.9553
5.9776 9.4528 -2.3641 0.9553
5.2012 9.9101 -2.3658 0.9553
3.1179 10.7643 -2.3689 0.9552
1.7985 11.0668 -2.3700 0.9552
0.9023 11.1775 -2.3704 0.9552
-0.0000 11.2145 -2.3705 0.9552
-0.4516 11.2053 -2.3705 0.9552
-1.3516 11.1314 -2.3702 0.9552
-1.7986 11.0668 -2.3700 0.9552
-2.2425 10.9841 -2.3697 0.9552
-2.6825 10.8832 -2.3693 0.9552
-3.1180 10.7644 -2.3689 0.9552
-3.5481 10.6279 -2.3684 0.9552
-5.2013 9.9102 -2.3658 0.9553
-6.3510 9.2010 -2.3632 0.9553
-6.7137 8.9342 -2.3623 0.9553
-7.0649 8.6529 -2.3613 0.9554
-4.3721 4.9351 -1.3937 0.9734
-5.5662 4.9313 -1.5719 0.9701
-6.5581 4.9281 -1.7340 0.9670
-7.1517 4.9365 -1.8369 0.9651
-9.4014 5.9451 -2.3513 0.9555
-8.5625 4.9436 -2.0899 0.9604
-9.4407 4.9549 -2.2537 0.9573
-10.0337 4.7610 -2.3476 0.9556
-10.2173 4.3532 -2.3476 0.9556
-11.5880 2.3657 -2.5000 0.9528
-11.6738 1.8972 -2.5000 0.9528
-11.8174 0.4762 -2.5000 0.9528
-10.6027 -0.8559 -2.5000 0.9572
-10.5597 -1.2822 -2.5000 0.9572
-10.4223 -2.1277 -2.5000 0.9572
-10.2172 -2.9594 -2.5000 0.9572
-10.0898 -3.3685 -2.5000 0.9572
-9.9460 -3.7720 -2.5000 0.9572
-9.6102 -4.5601 -2.5000 0.9572
-9.4188 -4.9433 -2.5000 0.9572
-8.7543 -6.0426 -2.5000 0.9572
-7.6716 -7.3686 -2.5000 0.9572
-7.3687 -7.6716 -2.5000 0.9572
-7.0538 -7.9620 -2.5000 0.9572
-6.7275 -8.2396 -2.5000 0.9572
-6.3902 -8.5038 -2.5000 0.9572
-6.0426 -8.7542 -2.5000 0.9572
-5.6852 -8.9904 -2.5000 0.9572
-4.9434 -9.4187 -2.5000 0.9572
-4.5601 -9.6102 -2.5000 0.9572
-3.3685 -10.0898 -2.5000 0.9572
-2.9595 -10.2172 -2.5000 0.9572
-2.1277 -10.4222 -2.5000 0.9572
-1.7063 -10.4994 -2.5000 0.9572
-1.2822 -10.5596 -2.5000 0.9572
-0.4283 -10.6286 -2.5000 0.9572
0.8559 -10.6027 -2.5000 0.9572
1.2822 -10.5596 -2.5000 0.9572
1.7063 -10.4994 -2.5000 0.9572
2.1277 -10.4222 -2.5000 0.9572
2.9594 -10.2172 -2.5000 0.9572
3.7720 -9.9459 -2.5000 0.9572
4.1694 -9.7860 -2.5000 0.9572
4.5601 -9.6102 -2.5000 0.9572
4.9433 -9.4188 -2.5000 0.9572
5.3186 -9.2121 -2.5000 0.9572
6.3902 -8.5038 -2.5000 0.9572
7.3686 -7.6716 -2.5000 0.9572
8.2396 -6.7274 -2.5000 0.9572
8.5038 -6.3902 -2.5000 0.9572
8.9904 -5.6852 -2.5000 0.9572
9.6102 -4.5601 -2.5000 0.9572
9.7860 -4.1694 -2.5000 0.9572
9.9459 -3.7720 -2.5000 0.9572
10.4994 -1.7063 -2.5000 0.9572
10.5596 -1.2822 -2.5000 0.9572
10.6027 -0.8559 -2.5000 0.9572
10.6286 -0.4283 -2.5000 0.9572
10.5596 1.2822 -2.5000 0.9572
9.5943 2.7791 -2.3476 0.9598
9.4746 3.1631 -2.3476 0.9598
9.3396 3.5421 -2.3476 0.9598
9.1894 3.9153 -2.3476 0.9598
7.8660 4.9742 -2.1873 0.9625
6.6246 4.9781 -1.9475 0.9665
5.6152 4.9747 -1.7631 0.9696
5.1574 4.9538 -1.6807 0.9710
6.9444 7.2299 -2.3561 0.9596
6.6505 7.5069 -2.3571 0.9596
6.3454 7.7718 -2.3580 0.9596
4.6707 8.8994 -2.3621 0.9595
3.9416 9.2514 -2.3634 0.9595
3.1858 9.5428 -2.3645 0.9595
2.7995 9.6652 -2.3649 0.9595
2.4085 9.7717 -2.3653 0.9595
1.6148 9.9363 -2.3659 0.9595
0.4054 10.0604 -2.3663 0.9595
-0.4054 10.0604 -2.3663 0.9595
-0.8102 10.0355 -2.3663 0.9595
-2.0134 9.8621 -2.3656 0.9595
-2.4085 9.7717 -2.3653 0.9595
-2.7996 9.6652 -2.3649 0.9595
-3.9417 9.2514 -2.3634 0.9595
-4.6708 8.8995 -2.3621 0.9595
-5.3684 8.4894 -2.3607 0.9596
-5.7039 8.2635 -2.3598 0.9596
-4.0302 4.9362 -1.4977 0.9742
-7.1518 4.9366 -2.0424 0.9649
-8.4479 5.3421 -2.3491 0.9598
-8.5418 4.9316 -2.3181 0.9603
-8.8446 4.6420 -2.3476 0.9598
-9.0243 4.2821 -2.3476 0.9598
-9.3397 3.5421 -2.3476 0.9598
-9.4747 3.1631 -2.3476 0.9598
-9.5944 2.7791 -2.3476 0.9598
-10.5596 1.2822 -2.5000 0.9572
-10.6027 0.8559 -2.5000 0.9572
-9.6555 0.0000 -2.5000 0.9609
-9.6477 -0.3888 -2.5000 0.9609
-9.5851 -1.1638 -2.5000 0.9609
-9.5305 -1.5489 -2.5000 0.9609
-9.3750 -2.3107 -2.5000 0.9609
-9.1586 -3.0576 -2.5000 0.9609
-8.7233 -4.1392 -2.5000 0.9609
-8.5495 -4.4871 -2.5000 0.9609
-6.9636 -6.6886 -2.5000 0.9609
-6.6886 -6.9636 -2.5000 0.9609
-6.1066 -7.4792 -2.5000 0.9609
-5.8005 -7.7190 -2.5000 0.9609
-5.4850 -7.9463 -2.5000 0.9609
-5.1606 -8.1607 -2.5000 0.9609
-4.8278 -8.3619 -2.5000 0.9609
-4.4872 -8.5495 -2.5000 0.9609
-4.1393 -8.7233 -2.5000 0.9609
-3.7847 -8.8829 -2.5000 0.9609
-3.4239 -9.0281 -2.5000 0.9609
-2.6864 -9.2743 -2.5000 0.9609
-2.3107 -9.3749 -2.5000 0.9609
-1.5489 -9.5304 -2.5000 0.9609
-0.7770 -9.6242 -2.5000 0.9609
-0.3888 -9.6477 -2.5000 0.9609
0.7769 -9.6242 -2.5000 0.9609
1.1638 -9.5851 -2.5000 0.9609
1.5488 -9.5305 -2.5000 0.9609
2.3107 -9.3749 -2.5000 0.9609
2.6863 -9.2743 -2.5000 0.9609
3.4239 -9.0281 -2.5000 0.9609
4.4871 -8.5495 -2.5000 0.9609
4.8277 -8.3619 -2.5000 0.9609
5.1605 -8.1607 -2.5000 0.9609
5.4849 -7.9463 -2.5000 0.9609
6.1066 -7.4792 -2.5000 0.9609
6.6886 -6.9636 -2.5000 0.9609
6.9636 -6.6886 -2.5000 0.9609
7.2272 -6.4028 -2.5000 0.9609
8.1607 -5.1605 -2.5000 0.9609
8.5495 -4.4871 -2.5000 0.9609
8.7233 -4.1392 -2.5000 0.9609
8.8829 -3.7846 -2.5000 0.9609
9.0280 -3.4239 -2.5000 0.9609
9.1586 -3.0576 -2.5000 0.9609
9.2743 -2.6863 -2.5000 0.9609
9.3749 -2.3107 -2.5000 0.9609
9.5851 -1.1638 -2.5000 0.9609
9.6555 0.0000 -2.5000 0.9609
9.6477 0.3888 -2.5000 0.9609
9.6242 0.7770 -2.5000 0.9609
9.5851 1.1639 -2.5000 0.9609
9.5305 1.5489 -2.5000 0.9609
9.4604 1.9314 -2.5000 0.9609
9.3749 2.3107 -2.5000 0.9609
8.3413 3.5539 -2.3476 0.9632
8.1915 3.8869 -2.3476 0.9632
8.0283 4.2136 -2.3476 0.9632
7.8521 4.5335 -2.3476 0.9632
7.6628 4.8456 -2.3474 0.9632
7.2033 4.9721 -2.2662 0.9645
6.6245 4.9780 -2.1455 0.9663
7.0325 5.7419 -2.3507 0.9632
5.6151 4.9746 -1.9424 0.9695
5.1713 7.4919 -2.3570 0.9631
3.1359 4.9591 -1.5192 0.9760
4.2343 8.0678 -2.3591 0.9631
2.3519 4.9566 -1.4205 0.9776
3.5731 8.3865 -2.3603 0.9630
3.2332 8.5254 -2.3608 0.9630
1.8249 8.9393 -2.3623 0.9630
0.7343 9.0963 -2.3628 0.9630
-0.3675 9.1188 -2.3629 0.9630
-0.7343 9.0963 -2.3629 0.9630
-1.1000 9.0588 -2.3627 0.9630
-2.1832 8.8575 -2.3620 0.9630
-3.2333 8.5254 -2.3608 0.9630
-3.5732 8.3865 -2.3603 0.9630
-2.3448 4.9416 -1.4162 0.9777
-2.8521 4.9399 -1.4769 0.9767
-4.8671 7.6966 -2.3578 0.9631
-5.1714 7.4920 -2.3570 0.9631
-3.7100 4.9372 -1.5990 0.9748
-4.7391 4.9339 -1.7713 0.9721
-5.5662 4.9313 -1.9254 0.9697
-6.0378 4.9298 -2.0182 0.9683
-6.5581 4.9281 -2.1240 0.9667
-7.1520 4.9367 -2.2501 0.9647
-7.8522 4.5335 -2.3476 0.9632
-8.0284 4.2136 -2.3476 0.9632
-8.1915 3.8869 -2.3476 0.9632
-9.2689 2.6848 -2.4985 0.9609
-9.3750 2.3107 -2.5000 0.9609
-9.5305 1.5489 -2.5000 0.9609
-9.5851 1.1639 -2.5000 0.9609
-9.6242 0.7770 -2.5000 0.9609
-8.8238 -0.3556 -2.5000 0.9640
-8.7666 -1.0645 -2.5000 0.9640
-8.6525 -1.7664 -2.5000 0.9640
-8.5744 -2.1134 -2.5000 0.9640
-8.4823 -2.4569 -2.5000 0.9640
-8.1243 -3.4614 -2.5000 0.9640
-7.9784 -3.7858 -2.5000 0.9640
-7.8194 -4.1039 -2.5000 0.9640
-7.4639 -4.7199 -2.5000 0.9640
-6.6101 -5.8560 -2.5000 0.9640
-6.1174 -6.3689 -2.5000 0.9640
-5.5851 -6.8405 -2.5000 0.9640
-3.4615 -8.1243 -2.5000 0.9640
-2.1134 -8.5743 -2.5000 0.9640
-1.7665 -8.6525 -2.5000 0.9640
-1.0645 -8.7666 -2.5000 0.9640
-0.7106 -8.8023 -2.5000 0.9640
-0.0000 -8.8310 -2.5000 0.9640
1.0644 -8.7666 -2.5000 0.9640
1.7664 -8.6525 -2.5000 0.9640
2.1134 -8.5743 -2.5000 0.9640
3.7857 -7.9783 -2.5000 0.9640
4.1039 -7.8194 -2.5000 0.9640
4.7198 -7.4638 -2.5000 0.9640
5.0165 -7.2677 -2.5000 0.9640
5.5851 -6.8405 -2.5000 0.9640
5.8560 -6.6101 -2.5000 0.9640
6.6101 -5.8560 -2.5000 0.9640
6.8405 -5.5851 -2.5000 0.9640
7.0598 -5.3051 -2.5000 0.9640
7.2677 -5.0166 -2.5000 0.9640
7.4638 -4.7199 -2.5000 0.9640
7.9783 -3.7858 -2.5000 0.9640
8.3765 -2.7965 -2.5000 0.9640
8.4823 -2.4569 -2.5000 0.9640
8.5743 -2.1134 -2.5000 0.9640
8.6525 -1.7664 -2.5000 0.9640
8.7166 -1.4166 -2.5000 0.9640
8.8310 0.0000 -2.5000 0.9640
8.8023 0.7106 -2.5000 0.9640
8.7166 1.4166 -2.5000 0.9640
8.6525 1.7664 -2.5000 0.9640
8.5743 2.1134 -2.5000 0.9640
8.4823 2.4569 -2.5000 0.9640
8.1175 2.7100 -2.4227 0.9650
7.6290 3.2504 -2.3476 0.9661
7.4920 3.5550 -2.3476 0.9661
7.3427 3.8538 -2.3476 0.9661
7.1816 4.1463 -2.3476 0.9661
6.8247 4.7108 -2.3476 0.9661
6.4271 5.2476 -2.3489 0.9661
5.6150 4.9746 -2.1237 0.9693
4.9953 6.6475 -2.3540 0.9660
3.1285 4.9474 -1.6571 0.9760
2.8626 4.9582 -1.6208 0.9765
3.8685 7.3709 -2.3566 0.9660
2.9538 7.7885 -2.3581 0.9660
1.6540 4.9544 -1.4786 0.9785
2.3183 8.0036 -2.3589 0.9660
1.9944 8.0915 -2.3592 0.9659
1.0110 4.9523 -1.4309 0.9792
0.3357 8.3300 -2.3601 0.9659
-0.1995 4.9484 -1.4020 0.9796
-0.6708 8.3095 -2.3600 0.9659
-2.3183 8.0036 -2.3589 0.9660
-1.6505 4.9438 -1.4755 0.9786
-1.8747 4.9431 -1.4966 0.9783
-3.2644 7.6618 -2.3577 0.9660
-2.8521 4.9399 -1.6148 0.9766
-3.4005 4.9265 -1.6946 0.9754
-3.7100 4.9372 -1.7483 0.9747
-4.3721 4.9351 -1.8665 0.9730
-4.7391 4.9339 -1.9367 0.9720
-5.5662 4.9313 -2.1052 0.9696
-6.5425 4.9164 -2.3168 0.9666
-6.8247 4.7108 -2.3476 0.9661
-7.0089 4.4321 -2.3476 0.9661
-7.3428 3.8538 -2.3476 0.9661
-7.4920 3.5550 -2.3476 0.9661
-7.7538 2.9406 -2.3476 0.9661
-8.0907 2.7011 -2.4147 0.9652
-8.4823 2.4569 -2.5000 0.9640
-8.5744 2.1134 -2.5000 0.9640
-8.6525 1.7664 -2.5000 0.9640
-8.1214 -0.3273 -2.5000 0.9666
-8.0227 -1.3038 -2.5000 0.9666
-7.8918 -1.9451 -2.5000 0.9666
-7.8071 -2.2613 -2.5000 0.9666
-7.4776 -3.1859 -2.5000 0.9666
-7.3432 -3.4844 -2.5000 0.9666
-7.1970 -3.7772 -2.5000 0.9666
-6.4979 -4.8828 -2.5000 0.9666
-5.6305 -5.8619 -2.5000 0.9666
-5.1405 -6.2960 -2.5000 0.9666
-4.8828 -6.4978 -2.5000 0.9666
-4.3441 -6.8697 -2.5000 0.9666
-4.0640 -7.0390 -2.5000 0.9666
-3.7773 -7.1970 -2.5000 0.9666
-3.1859 -7.4775 -2.5000 0.9666
-2.5739 -7.7097 -2.5000 0.9666
-1.9452 -7.8918 -2.5000 0.9666
-1.6258 -7.9637 -2.5000 0.9666
-0.0000 -8.1280 -2.5000 0.9666
0.6540 -8.1016 -2.5000 0.9666
0.9797 -8.0687 -2.5000 0.9666
1.3038 -8.0227 -2.5000 0.9666
1.6258 -7.9637 -2.5000 0.9666
1.9451 -7.8918 -2.5000 0.9666
2.2613 -7.8070 -2.5000 0.9666
2.5738 -7.7096 -2.5000 0.9666
2.8822 -7.5998 -2.5000 0.9666
4.0640 -7.0390 -2.5000 0.9666
4.6172 -6.6892 -2.5000 0.9666
4.8828 -6.4978 -2.5000 0.9666
5.3898 -6.0838 -2.5000 0.9666
6.4978 -4.8828 -2.5000 0.9666
6.8696 -4.3441 -2.5000 0.9666
7.1969 -3.7772 -2.5000 0.9666
7.5997 -2.8822 -2.5000 0.9666
7.7096 -2.5739 -2.5000 0.9666
7.8917 -1.9451 -2.5000 0.9666
7.9637 -1.6258 -2.5000 0.9666
8.0687 -0.9797 -2.5000 0.9666
8.1016 -0.6540 -2.5000 0.9666
8.1213 0.3273 -2.5000 0.9666
8.0687 0.9797 -2.5000 0.9666
8.0227 1.3038 -2.5000 0.9666
7.8918 1.9452 -2.5000 0.9666
7.8070 2.2614 -2.5000 0.9666
7.0217 2.9917 -2.3476 0.9686
6.8955 3.2720 -2.3476 0.9686
6.7582 3.5470 -2.3476 0.9686
6.6099 3.8162 -2.3476 0.9686
6.2814 4.3358 -2.3476 0.9686
6.1017 4.5852 -2.3476 0.9686
5.6149 4.9745 -2.3073 0.9691
5.2923 5.5099 -2.3498 0.9685
4.8348 5.9216 -2.3513 0.9685
3.5573 6.7780 -2.3544 0.9685
2.7160 7.1616 -2.3558 0.9685
0.6019 4.9571 -1.5359 0.9793
0.6168 7.6401 -2.3576 0.9684
0.1994 4.9497 -1.5236 0.9795
-0.0000 4.9491 -1.5222 0.9795
-0.1995 4.9484 -1.5233 0.9795
-0.9239 7.6087 -2.3575 0.9684
-1.0097 4.9458 -1.5526 0.9791
-1.2189 4.9452 -1.5665 0.9789
-1.6505 4.9438 -1.6031 0.9784
-2.3393 4.9299 -1.6784 0.9774
-2.8521 4.9399 -1.7545 0.9764
-4.0893 6.4667 -2.3533 0.9685
-4.3721 4.9351 -2.0279 0.9728
-5.1434 4.9403 -2.1935 0.9706
-5.5662 4.9313 -2.2873 0.9694
-6.1017 4.5852 -2.3476 0.9686
-6.2814 4.3358 -2.3476 0.9686
-6.6099 3.8162 -2.3476 0.9686
-7.0217 2.9917 -2.3476 0.9686
-7.8071 2.2613 -2.5000 0.9666
-7.8918 1.9452 -2.5000 0.9666
-7.9637 1.6258 -2.5000 0.9666
-8.0687 0.9797 -2.5000 0.9666
-8.1016 0.6540 -2.5000 0.9666
-7.5148 -0.3028 -2.5000 0.9688
-7.4965 -0.6052 -2.5000 0.9688
-7.4235 -1.2064 -2.5000 0.9688
-7.3024 -1.7998 -2.5000 0.9688
-7.2240 -2.0924 -2.5000 0.9688
-7.1339 -2.3816 -2.5000 0.9688
-6.6594 -3.4951 -2.5000 0.9688
-6.1896 -4.2723 -2.5000 0.9688
-6.0125 -4.5181 -2.5000 0.9688
-5.8257 -4.7565 -2.5000 0.9688
-5.6295 -4.9873 -2.5000 0.9688
-5.2099 -5.4241 -2.5000 0.9688
-4.5181 -6.0125 -2.5000 0.9688
-4.2724 -6.1896 -2.5000 0.9688
-4.0197 -6.3566 -2.5000 0.9688
-2.6670 -7.0321 -2.5000 0.9688
-1.7999 -7.3023 -2.5000 0.9688
-1.5044 -7.3689 -2.5000 0.9688
-0.0000 -7.5209 -2.5000 0.9688
0.3026 -7.5148 -2.5000 0.9688
0.6052 -7.4965 -2.5000 0.9688
1.5044 -7.3689 -2.5000 0.9688
2.9479 -6.9191 -2.5000 0.9688
3.2241 -6.7947 -2.5000 0.9688
3.4951 -6.6594 -2.5000 0.9688
4.2723 -6.1896 -2.5000 0.9688
4.5181 -6.0125 -2.5000 0.9688
4.7565 -5.8257 -2.5000 0.9688
4.9872 -5.6295 -2.5000 0.9688
5.2099 -5.4241 -2.5000 0.9688
5.6295 -4.9873 -2.5000 0.9688
5.8257 -4.7565 -2.5000 0.9688
6.7947 -3.2241 -2.5000 0.9688
6.9190 -2.9479 -2.5000 0.9688
7.0321 -2.6669 -2.5000 0.9688
7.1338 -2.3816 -2.5000 0.9688
7.3023 -1.7999 -2.5000 0.9688
7.4235 -1.2064 -2.5000 0.9688
7.4965 -0.6052 -2.5000 0.9688
7.5148 -0.3028 -2.5000 0.9688
7.5208 0.0000 -2.5000 0.9688
7.4965 0.6052 -2.5000 0.9688
7.4660 0.9066 -2.5000 0.9688
7.4235 1.2065 -2.5000 0.9688
7.3689 1.5044 -2.5000 0.9688
7.3023 1.7999 -2.5000 0.9688
7.2239 2.0924 -2.5000 0.9688
7.1338 2.3816 -2.5000 0.9688
7.0321 2.6670 -2.5000 0.9688
6.4972 2.7682 -2.3476 0.9707
6.3805 3.0276 -2.3476 0.9707
6.2534 3.2821 -2.3476 0.9707
5.9691 3.7746 -2.3476 0.9707
5.8122 4.0119 -2.3476 0.9707
5.4705 4.4666 -2.3476 0.9707
4.0177 5.8207 -2.3510 0.9706
3.1359 4.9591 -1.9503 0.9756
2.8626 4.9582 -1.9031 0.9762
3.2891 6.2668 -2.3526 0.9706
2.1114 4.9558 -1.7906 0.9775
2.5111 6.6212 -2.3539 0.9706
1.0086 4.9406 -1.6761 0.9790
0.1990 4.9380 -1.6427 0.9794
-0.0000 4.9374 -1.6412 0.9794
-0.1990 4.9367 -1.6423 0.9794
-0.3985 4.9361 -1.6461 0.9793
-0.5993 4.9354 -1.6526 0.9793
-0.8020 4.9348 -1.6619 0.9791
-1.2160 4.9335 -1.6890 0.9788
-1.6505 4.9438 -1.7325 0.9783
-2.3448 4.9416 -1.8182 0.9772
-3.2891 6.2668 -2.3526 0.9706
-3.7810 5.9792 -2.3516 0.9706
-4.0177 5.8207 -2.3510 0.9706
-3.7100 4.9372 -2.0529 0.9743
-4.0302 4.9362 -2.1182 0.9735
-4.3721 4.9351 -2.1916 0.9726
-5.0935 4.8924 -2.3476 0.9707
-5.2863 4.6833 -2.3476 0.9707
-5.4706 4.4666 -2.3476 0.9707
-5.9691 3.7746 -2.3476 0.9707
-6.1163 3.5312 -2.3476 0.9707
-6.2535 3.2821 -2.3476 0.9707
-6.3806 3.0276 -2.3476 0.9707
-6.4973 2.7682 -2.3476 0.9707
-7.0322 2.6669 -2.5000 0.9688
-7.3024 1.7999 -2.5000 0.9688
-7.4235 1.2064 -2.5000 0.9688
-7.4661 0.9065 -2.5000 0.9688
-6.9852 -0.2815 -2.5000 0.9707
-6.9399 -0.8426 -2.5000 0.9707
-6.9004 -1.1214 -2.5000 0.9707
-6.7149 -1.9450 -2.5000 0.9707
-6.5366 -2.4790 -2.5000 0.9707
-6.3159 -2.9969 -2.5000 0.9707
-5.7534 -3.9713 -2.5000 0.9707
-5.4152 -4.4213 -2.5000 0.9707
-5.2328 -4.6358 -2.5000 0.9707
-4.8428 -5.0418 -2.5000 0.9707
-4.6358 -5.2327 -2.5000 0.9707
-3.9713 -5.7534 -2.5000 0.9707
-3.7364 -5.9086 -2.5000 0.9707
-3.4954 -6.0543 -2.5000 0.9707
-3.2488 -6.1901 -2.5000 0.9707
-2.7402 -6.4314 -2.5000 0.9707
-1.9450 -6.7148 -2.5000 0.9707
-1.6730 -6.7877 -2.5000 0.9707
-1.3984 -6.8496 -2.5000 0.9707
-1.1214 -6.9003 -2.5000 0.9707
-0.8427 -6.9399 -2.5000 0.9707
-0.5626 -6.9682 -2.5000 0.9707
-0.0000 -6.9909 -2.5000 0.9707
0.2815 -6.9852 -2.5000 0.9707
1.1214 -6.9003 -2.5000 0.9707
1.3983 -6.8496 -2.5000 0.9707
1.6730 -6.7877 -2.5000 0.9707
2.2138 -6.6311 -2.5000 0.9707
2.4790 -6.5366 -2.5000 0.9707
3.2488 -6.1901 -2.5000 0.9707
3.9713 -5.7534 -2.5000 0.9707
4.1997 -5.5888 -2.5000 0.9707
4.4213 -5.4152 -2.5000 0.9707
5.2327 -4.6358 -2.5000 0.9707
5.7533 -3.9712 -2.5000 0.9707
5.9086 -3.7364 -2.5000 0.9707
6.0543 -3.4954 -2.5000 0.9707
6.1901 -3.2488 -2.5000 0.9707
6.5366 -2.4790 -2.5000 0.9707
6.6310 -2.2138 -2.5000 0.9707
6.7148 -1.9450 -2.5000 0.9707
6.9399 -0.8427 -2.5000 0.9707
6.9682 -0.5625 -2.5000 0.9707
6.9003 1.1214 -2.5000 0.9707
6.7877 1.6730 -2.5000 0.9707
6.7148 1.9450 -2.5000 0.9707
6.6311 2.2138 -2.5000 0.9707
6.3398 2.7012 -2.4644 0.9711
5.9309 2.8142 -2.3476 0.9725
5.2481 3.9437 -2.3476 0.9725
4.9137 4.3532 -2.3476 0.9725
4.7345 4.5475 -2.3476 0.9725
4.5475 4.7345 -2.3476 0.9725
4.1531 5.0866 -2.3483 0.9725
3.7322 5.4070 -2.3495 0.9725
3.1359 4.9591 -2.0982 0.9754
2.8626 4.9582 -2.0474 0.9760
3.0551 5.8212 -2.3510 0.9725
2.3519 4.9566 -1.9619 0.9770
2.1114 4.9558 -1.9264 0.9774
2.3324 6.1501 -2.3522 0.9724
1.6540 4.9544 -1.8678 0.9781
1.0110 4.9523 -1.8075 0.9788
0.8047 4.9516 -1.7940 0.9789
-0.0000 4.9491 -1.7698 0.9792
-0.5296 6.5604 -2.3537 0.9724
-0.7933 6.5334 -2.3536 0.9724
-1.0097 4.9458 -1.8051 0.9788
-1.6505 4.9438 -1.8638 0.9781
-1.8747 4.9431 -1.8905 0.9778
-2.5778 6.0503 -2.3518 0.9724
-2.3448 4.9416 -1.9559 0.9770
-3.5123 5.5542 -2.3500 0.9725
-3.7322 5.4070 -2.3495 0.9725
-3.7100 4.9372 -2.2085 0.9741
-4.0302 4.9362 -2.2788 0.9733
-4.3534 4.9140 -2.3477 0.9725
-4.5476 4.7345 -2.3476 0.9725
-4.7345 4.5475 -2.3476 0.9725
-4.9138 4.3532 -2.3476 0.9725
-5.2481 3.9437 -2.3476 0.9725
-5.4027 3.7292 -2.3476 0.9725
-5.5484 3.5086 -2.3476 0.9725
-5.6852 3.2824 -2.3476 0.9725
-5.9309 2.8142 -2.3476 0.9725
-6.3235 2.6942 -2.4580 0.9712
-6.7149 1.9450 -2.5000 0.9707
-6.7877 1.6730 -2.5000 0.9707
-6.9399 0.8427 -2.5000 0.9707
-6.9852 0.2815 -2.5000 0.9707
-6.5184 -0.2627 -2.5000 0.9724
-6.1879 -2.0658 -2.5000 0.9724
-6.0997 -2.3133 -2.5000 0.9724
-5.5138 -3.4867 -2.5000 0.9724
-5.3689 -3.7058 -2.5000 0.9724
-5.0533 -4.1258 -2.5000 0.9724
-4.7049 -4.5191 -2.5000 0.9724
-4.3260 -4.8830 -2.5000 0.9724
-3.9191 -5.2153 -2.5000 0.9724
-3.7059 -5.3689 -2.5000 0.9724
-3.4867 -5.5137 -2.5000 0.9724
-3.2619 -5.6496 -2.5000 0.9724
-2.7967 -5.8938 -2.5000 0.9724
-1.8150 -6.2661 -2.5000 0.9724
-1.3049 -6.3918 -2.5000 0.9724
-0.7864 -6.4761 -2.5000 0.9724
-0.5250 -6.5025 -2.5000 0.9724
-0.2627 -6.5184 -2.5000 0.9724
-0.0000 -6.5236 -2.5000 0.9724
0.5249 -6.5025 -2.5000 0.9724
0.7863 -6.4761 -2.5000 0.9724
1.0465 -6.4392 -2.5000 0.9724
3.0317 -5.7764 -2.5000 0.9724
3.7058 -5.3689 -2.5000 0.9724
3.9190 -5.2153 -2.5000 0.9724
4.1258 -5.0533 -2.5000 0.9724
4.5191 -4.7049 -2.5000 0.9724
5.3688 -3.7059 -2.5000 0.9724
5.6496 -3.2618 -2.5000 0.9724
5.7764 -3.0317 -2.5000 0.9724
6.0016 -2.5571 -2.5000 0.9724
6.3341 -1.5612 -2.5000 0.9724
6.3918 -1.3049 -2.5000 0.9724
6.5025 -0.5249 -2.5000 0.9724
6.5236 0.0000 -2.5000 0.9724
6.5183 0.2627 -2.5000 0.9724
6.5025 0.5249 -2.5000 0.9724
6.4392 1.0465 -2.5000 0.9724
6.3341 1.5612 -2.5000 0.9724
6.0997 2.3133 -2.5000 0.9724
6.0016 2.5571 -2.5000 0.9724
5.4243 2.8469 -2.3476 0.9741
5.3052 3.0630 -2.3476 0.9741
5.0416 3.4800 -2.3476 0.9741
4.7452 3.8744 -2.3476 0.9741
4.0623 4.5854 -2.3476 0.9741
3.1359 4.9591 -2.2485 0.9752
2.8626 4.9582 -2.1940 0.9758
2.8492 5.4288 -2.3496 0.9741
2.3519 4.9566 -2.1024 0.9768
1.6540 4.9544 -2.0016 0.9779
0.8047 4.9516 -1.9224 0.9787
0.6016 4.9553 -1.9129 0.9788
-0.1995 4.9484 -1.8978 0.9790
-0.7398 6.0927 -2.3520 0.9741
-1.0097 4.9458 -1.9344 0.9786
-1.8747 4.9431 -2.0259 0.9776
-2.4040 5.6424 -2.3503 0.9741
-3.6802 4.8975 -2.3476 0.9741
-4.2436 4.4181 -2.3476 0.9741
-4.8974 3.6801 -2.3476 0.9741
-5.1776 3.2741 -2.3476 0.9741
-5.4243 2.8469 -2.3476 0.9741
-6.0017 2.5571 -2.5000 0.9724
-6.1879 2.0658 -2.5000 0.9724
-6.2661 1.8150 -2.5000 0.9724
-6.3341 1.5612 -2.5000 0.9724
-6.5025 0.5249 -2.5000 0.9724
-6.5184 0.2627 -2.5000 0.9724
-2.6381 0.0000 -1.0797 0.9887
-2.6418 -0.1065 -1.0821 0.9886
-2.6602 -0.3230 -1.0968 0.9885
-5.9849 -1.2218 -2.5000 0.9739
-5.9308 -1.4618 -2.5000 0.9739
-5.8672 -1.6994 -2.5000 0.9739
-5.7940 -1.9343 -2.5000 0.9739
-5.6196 -2.3942 -2.5000 0.9739
-5.5186 -2.6186 -2.5000 0.9739
-5.4087 -2.8387 -2.5000 0.9739
-5.1627 -3.2647 -2.5000 0.9739
-5.0271 -3.4699 -2.5000 0.9739
-4.8833 -3.6695 -2.5000 0.9739
-4.7315 -3.8632 -2.5000 0.9739
-4.5722 -4.0506 -2.5000 0.9739
-4.4054 -4.2314 -2.5000 0.9739
-4.2314 -4.4053 -2.5000 0.9739
-4.0506 -4.5721 -2.5000 0.9739
-3.8632 -4.7315 -2.5000 0.9739
-3.6696 -4.8833 -2.5000 0.9739
-2.8387 -5.4086 -2.5000 0.9739
-2.6186 -5.5186 -2.5000 0.9739
-2.3943 -5.6195 -2.5000 0.9739
-2.1661 -5.7114 -2.5000 0.9739
-1.9343 -5.7940 -2.5000 0.9739
-1.2218 -5.9849 -2.5000 0.9739
-0.9799 -6.0292 -2.5000 0.9739
-0.0000 -6.1083 -2.5000 0.9739
0.2459 -6.1034 -2.5000 0.9739
0.9798 -6.0292 -2.5000 0.9739
1.2218 -5.9849 -2.5000 0.9739
1.6994 -5.8672 -2.5000 0.9739
1.9343 -5.7940 -2.5000 0.9739
2.6186 -5.5186 -2.5000 0.9739
3.0542 -5.2900 -2.5000 0.9739
3.4699 -5.0271 -2.5000 0.9739
3.6695 -4.8833 -2.5000 0.9739
3.8632 -4.7315 -2.5000 0.9739
4.0506 -4.5721 -2.5000 0.9739
4.4053 -4.2314 -2.5000 0.9739
4.5721 -4.0506 -2.5000 0.9739
4.7315 -3.8632 -2.5000 0.9739
4.8832 -3.6695 -2.5000 0.9739
5.1627 -3.2647 -2.5000 0.9739
5.2899 -3.0542 -2.5000 0.9739
5.4086 -2.8387 -2.5000 0.9739
5.7114 -2.1660 -2.5000 0.9739
5.9308 -1.4618 -2.5000 0.9739
6.0638 -0.7363 -2.5000 0.9739
6.0885 -0.4915 -2.5000 0.9739
6.1083 0.0000 -2.5000 0.9739
6.0885 0.4915 -2.5000 0.9739
6.0638 0.7363 -2.5000 0.9739
6.0292 0.9798 -2.5000 0.9739
5.9849 1.2218 -2.5000 0.9739
5.9308 1.4618 -2.5000 0.9739
5.7940 1.9343 -2.5000 0.9739
5.7114 2.1660 -2.5000 0.9739
5.6195 2.3943 -2.5000 0.9739
4.9675 2.8680 -2.3476 0.9755
4.8480 3.0657 -2.3476 0.9755
4.7206 3.2584 -2.3476 0.9755
4.5856 3.4458 -2.3476 0.9755
4.2934 3.8037 -2.3476 0.9755
3.9734 4.1368 -2.3476 0.9755
3.8036 4.2934 -2.3476 0.9755
2.8558 4.9465 -2.3376 0.9756
2.6664 5.0805 -2.3483 0.9755
2.1114 4.9558 -2.2047 0.9770
1.6540 4.9544 -2.1377 0.9777
0.8047 4.9516 -2.0531 0.9786
0.6016 4.9547 -2.0427 0.9787
0.2312 5.7389 -2.3507 0.9755
-0.6923 5.7013 -2.3505 0.9755
-0.8039 4.9465 -2.0510 0.9786
-2.2497 5.2802 -2.3490 0.9755
-2.6665 5.0805 -2.3483 0.9755
-2.8453 4.9283 -2.3290 0.9757
-3.0655 4.8477 -2.3475 0.9755
-3.2584 4.7206 -2.3476 0.9755
-3.4458 4.5856 -2.3476 0.9755
-3.6277 4.4431 -2.3476 0.9755
-3.8037 4.2934 -2.3476 0.9755
-3.9734 4.1368 -2.3476 0.9755
-4.1368 3.9735 -2.3476 0.9755
-4.2934 3.8037 -2.3476 0.9755
-4.4431 3.6277 -2.3476 0.9755
-4.7206 3.2584 -2.3476 0.9755
-4.8480 3.0657 -2.3476 0.9755
-5.6196 2.3943 -2.5000 0.9739
-5.8672 1.6995 -2.5000 0.9739
-5.9308 1.4618 -2.5000 0.9739
-2.6418 0.1065 -1.0821 0.9886
-2.4020 0.0000 -1.0468 0.9896
-2.4011 -0.0967 -1.0473 0.9896
-2.4095 -0.2925 -1.0578 0.9895
-2.4304 -0.3950 -1.0731 0.9893
-5.6204 -1.1474 -2.5000 0.9753
-5.5696 -1.3728 -2.5000 0.9753
-5.4411 -1.8165 -2.5000 0.9753
-5.3636 -2.0341 -2.5000 0.9753
-5.2773 -2.2484 -2.5000 0.9753
-5.1825 -2.4591 -2.5000 0.9753
-5.0793 -2.6658 -2.5000 0.9753
-4.4434 -3.6279 -2.5000 0.9753
-4.2937 -3.8039 -2.5000 0.9753
-4.1371 -3.9737 -2.5000 0.9753
-3.8039 -4.2937 -2.5000 0.9753
-3.6279 -4.4434 -2.5000 0.9753
-3.0659 -4.8483 -2.5000 0.9753
-2.8682 -4.9678 -2.5000 0.9753
-2.6658 -5.0793 -2.5000 0.9753
-2.4591 -5.1825 -2.5000 0.9753
-2.2485 -5.2773 -2.5000 0.9753
-2.0342 -5.3635 -2.5000 0.9753
-1.3728 -5.5696 -2.5000 0.9753
-0.9202 -5.6620 -2.5000 0.9753
-0.4616 -5.7177 -2.5000 0.9753
-0.0000 -5.7363 -2.5000 0.9753
0.4616 -5.7177 -2.5000 0.9753
0.9201 -5.6620 -2.5000 0.9753
1.5959 -5.5098 -2.5000 0.9753
2.0341 -5.3635 -2.5000 0.9753
3.0658 -4.8483 -2.5000 0.9753
3.6279 -4.4434 -2.5000 0.9753
3.8039 -4.2937 -2.5000 0.9753
4.1370 -3.9737 -2.5000 0.9753
4.5858 -3.4460 -2.5000 0.9753
4.7209 -3.2586 -2.5000 0.9753
4.9678 -2.8682 -2.5000 0.9753
5.0792 -2.6658 -2.5000 0.9753
5.1825 -2.4591 -2.5000 0.9753
5.3635 -2.0341 -2.5000 0.9753
5.5098 -1.5959 -2.5000 0.9753
5.5696 -1.3728 -2.5000 0.9753
5.6204 -1.1474 -2.5000 0.9753
5.6620 -0.9202 -2.5000 0.9753
5.6945 -0.6914 -2.5000 0.9753
5.7177 -0.4616 -2.5000 0.9753
5.7316 -0.2310 -2.5000 0.9753
5.7363 0.0000 -2.5000 0.9753
5.7177 0.4616 -2.5000 0.9753
5.6620 0.9202 -2.5000 0.9753
5.6204 1.1474 -2.5000 0.9753
5.5696 1.3728 -2.5000 0.9753
5.5098 1.5960 -2.5000 0.9753
5.3635 2.0341 -2.5000 0.9753
5.2773 2.2484 -2.5000 0.9753
5.1825 2.4591 -2.5000 0.9753
4.7073 2.7178 -2.3689 0.9766
4.3063 3.2360 -2.3476 0.9768
4.0319 3.5720 -2.3476 0.9768
3.4067 4.1725 -2.3476 0.9768
3.2360 4.3063 -2.3476 0.9768
2.8790 4.5527 -2.3476 0.9768
2.6933 4.6650 -2.3476 0.9768
2.3091 4.8664 -2.3475 0.9768
1.2898 5.2329 -2.3488 0.9768
0.4338 5.3732 -2.3494 0.9768
0.2171 5.3865 -2.3494 0.9768
-0.1994 4.9484 -2.1583 0.9786
-0.4338 5.3732 -2.3494 0.9768
-0.8039 4.9465 -2.1840 0.9784
-1.0097 4.9458 -2.1999 0.9782
-1.2189 4.9452 -2.2197 0.9780
-1.6505 4.9438 -2.2715 0.9775
-1.8747 4.9431 -2.3040 0.9772
-2.3092 4.8664 -2.3475 0.9768
-2.5033 4.7696 -2.3476 0.9768
-2.6933 4.6650 -2.3476 0.9768
-2.8790 4.5527 -2.3476 0.9768
-3.4068 4.1725 -2.3476 0.9768
-3.5720 4.0320 -2.3476 0.9768
-3.7315 3.8849 -2.3476 0.9768
-3.8849 3.7315 -2.3476 0.9768
-4.0320 3.5720 -2.3476 0.9768
-4.6983 2.7126 -2.3644 0.9766
-5.1825 2.4591 -2.5000 0.9753
-5.2773 2.2485 -2.5000 0.9753
-5.3636 2.0341 -2.5000 0.9753
-5.4411 1.8165 -2.5000 0.9753
-5.5696 1.3728 -2.5000 0.9753
-5.6204 1.1474 -2.5000 0.9753
-2.4304 0.3950 -1.0731 0.9893
-2.4011 0.0968 -1.0473 0.9896
-2.2419 0.0000 -1.0377 0.9902
-2.2399 -0.0903 -1.0377 0.9902
-2.2377 -0.1806 -1.0391 0.9902
-2.2449 -0.3648 -1.0528 0.9900
-2.3009 -0.4697 -1.0870 0.9897
-5.2439 -1.2925 -2.5000 0.9765
-5.1877 -1.5026 -2.5000 0.9765
-5.1229 -1.7103 -2.5000 0.9765
-4.9687 -2.1170 -2.5000 0.9765
-4.7823 -2.5099 -2.5000 0.9765
-4.6773 -2.7004 -2.5000 0.9765
-4.5648 -2.8866 -2.5000 0.9765
-4.4449 -3.0680 -2.5000 0.9765
-4.1836 -3.4158 -2.5000 0.9765
-4.0426 -3.5814 -2.5000 0.9765
-3.8951 -3.7413 -2.5000 0.9765
-3.7413 -3.8951 -2.5000 0.9765
-3.4158 -4.1835 -2.5000 0.9765
-3.0681 -4.4448 -2.5000 0.9765
-2.7005 -4.6773 -2.5000 0.9765
-2.5099 -4.7822 -2.5000 0.9765
-2.3153 -4.8794 -2.5000 0.9765
-2.1170 -4.9687 -2.5000 0.9765
-1.7103 -5.1229 -2.5000 0.9765
-1.5026 -5.1876 -2.5000 0.9765
-1.0803 -5.2917 -2.5000 0.9765
-0.4346 -5.3833 -2.5000 0.9765
0.2175 -5.3965 -2.5000 0.9765
0.4346 -5.3833 -2.5000 0.9765
2.1169 -4.9687 -2.5000 0.9765
2.3153 -4.8794 -2.5000 0.9765
2.5099 -4.7822 -2.5000 0.9765
2.8866 -4.5648 -2.5000 0.9765
3.0680 -4.4448 -2.5000 0.9765
3.2445 -4.3177 -2.5000 0.9765
3.4157 -4.1835 -2.5000 0.9765
3.7413 -3.8951 -2.5000 0.9765
4.0426 -3.5814 -2.5000 0.9765
4.4448 -3.0680 -2.5000 0.9765
4.5647 -2.8866 -2.5000 0.9765
4.6773 -2.7004 -2.5000 0.9765
4.9687 -2.1170 -2.5000 0.9765
5.0499 -1.9152 -2.5000 0.9765
5.1876 -1.5026 -2.5000 0.9765
5.2917 -1.0803 -2.5000 0.9765
5.3309 -0.8663 -2.5000 0.9765
5.3615 -0.6510 -2.5000 0.9765
5.3833 -0.4346 -2.5000 0.9765
5.3965 -0.2175 -2.5000 0.9765
5.3615 0.6510 -2.5000 0.9765
5.2439 1.2925 -2.5000 0.9765
5.1229 1.7103 -2.5000 0.9765
5.0499 1.9152 -2.5000 0.9765
4.9687 2.1170 -2.5000 0.9765
4.8794 2.3153 -2.5000 0.9765
4.7822 2.5099 -2.5000 0.9765
4.0545 3.0468 -2.3476 0.9779
3.9285 3.2075 -2.3476 0.9779
3.5132 3.6577 -2.3476 0.9779
3.2075 3.9285 -2.3476 0.9779
3.0467 4.0545 -2.3476 0.9779
2.7106 4.2865 -2.3476 0.9779
2.5358 4.3922 -2.3476 0.9779
2.3569 4.4907 -2.3476 0.9779
2.1742 4.5820 -2.3476 0.9779
1.7984 4.7421 -2.3476 0.9779
1.6060 4.8106 -2.3476 0.9779
1.2138 4.9246 -2.3477 0.9779
1.0086 4.9406 -2.3341 0.9780
0.6009 4.9490 -2.3076 0.9783
0.4082 5.0566 -2.3482 0.9779
0.2043 5.0690 -2.3483 0.9779
-0.1995 4.9484 -2.2924 0.9784
-0.6115 5.0359 -2.3481 0.9779
-0.8020 4.9348 -2.3142 0.9782
-1.2138 4.9246 -2.3477 0.9779
-1.7985 4.7421 -2.3476 0.9779
-1.9879 4.6658 -2.3476 0.9779
-2.5358 4.3922 -2.3476 0.9779
-2.7106 4.2865 -2.3476 0.9779
-2.8810 4.1739 -2.3476 0.9779
-3.2075 3.9285 -2.3476 0.9779
-3.3631 3.7962 -2.3476 0.9779
-3.5133 3.6577 -2.3476 0.9779
-3.6577 3.5133 -2.3476 0.9779
-3.7962 3.3631 -2.3476 0.9779
-3.9285 3.2075 -2.3476 0.9779
-4.1739 2.8810 -2.3476 0.9779
-4.3015 2.7201 -2.3558 0.9778
-4.6581 2.6894 -2.4897 0.9766
-4.7823 2.5099 -2.5000 0.9765
-4.8795 2.3153 -2.5000 0.9765
-4.9687 2.1170 -2.5000 0.9765
-5.2440 1.2925 -2.5000 0.9765
-2.3009 0.4697 -1.0870 0.9897
-2.2449 0.3648 -1.0528 0.9900
-2.2422 0.2723 -1.0455 0.9901
-2.2377 0.1807 -1.0391 0.9902
-2.2399 0.0903 -1.0377 0.9902
-2.0970 -0.0845 -1.0295 0.9907
-2.0958 -0.2545 -1.0356 0.9906
-2.0953 -0.3405 -1.0413 0.9906
-4.9485 -1.2197 -2.5000 0.9775
-4.8954 -1.4179 -2.5000 0.9775
-4.7654 -1.8072 -2.5000 0.9775
-4.6888 -1.9977 -2.5000 0.9775
-4.4138 -2.5483 -2.5000 0.9775
-4.3076 -2.7239 -2.5000 0.9775
-4.1944 -2.8952 -2.5000 0.9775
-3.8149 -3.3796 -2.5000 0.9775
-3.3797 -3.8148 -2.5000 0.9775
-3.0617 -4.0744 -2.5000 0.9775
-2.3685 -4.5128 -2.5000 0.9775
-1.8073 -4.7654 -2.5000 0.9775
-1.4180 -4.8953 -2.5000 0.9775
-0.8176 -5.0306 -2.5000 0.9775
-0.6143 -5.0594 -2.5000 0.9775
-0.2052 -5.0924 -2.5000 0.9775
0.2052 -5.0924 -2.5000 0.9775
0.4101 -5.0800 -2.5000 0.9775
1.2197 -4.9485 -2.5000 0.9775
1.4179 -4.8953 -2.5000 0.9775
2.5483 -4.4137 -2.5000 0.9775
2.8952 -4.1944 -2.5000 0.9775
3.2233 -3.9478 -2.5000 0.9775
3.6756 -3.5305 -2.5000 0.9775
4.0744 -3.0617 -2.5000 0.9775
4.3075 -2.7239 -2.5000 0.9775
4.5128 -2.3685 -2.5000 0.9775
4.6887 -1.9977 -2.5000 0.9775
4.8343 -1.6139 -2.5000 0.9775
5.0965 0.0000 -2.5000 0.9775
5.0924 0.2052 -2.5000 0.9775
5.0800 0.4101 -2.5000 0.9775
5.0594 0.6143 -2.5000 0.9775
5.0305 0.8176 -2.5000 0.9775
4.9936 1.0195 -2.5000 0.9775
4.8953 1.4180 -2.5000 0.9775
4.8343 1.6139 -2.5000 0.9775
4.5128 2.3685 -2.5000 0.9775
4.2660 2.6977 -2.4759 0.9778
3.5823 3.1736 -2.3476 0.9789
3.3153 3.4516 -2.3476 0.9789
2.8751 3.8261 -2.3476 0.9789
2.7187 3.9387 -2.3476 0.9789
2.5579 4.0450 -2.3476 0.9789
1.3315 4.5969 -2.3476 0.9789
0.5768 4.7510 -2.3476 0.9789
0.3851 4.7704 -2.3476 0.9789
0.1927 4.7820 -2.3476 0.9789
-0.0000 4.7859 -2.3476 0.9789
-0.1927 4.7820 -2.3476 0.9789
-1.3315 4.5969 -2.3476 0.9789
-1.5156 4.5396 -2.3476 0.9789
-1.6971 4.4749 -2.3476 0.9789
-2.2241 4.2377 -2.3476 0.9789
-2.5579 4.0450 -2.3476 0.9789
-2.7187 3.9387 -2.3476 0.9789
-3.1737 3.5823 -2.3476 0.9789
-3.4516 3.3153 -2.3476 0.9789
-3.5823 3.1736 -2.3476 0.9789
-3.9464 2.7240 -2.3522 0.9789
-4.4138 2.5483 -2.5000 0.9775
-2.1259 0.4340 -1.0643 0.9904
-2.0958 0.2545 -1.0356 0.9906
-2.0926 0.1689 -1.0298 0.9907
-1.9780 0.0000 -1.0261 0.9911
-1.9739 -0.2397 -1.0315 0.9911
-2.4132 -0.5948 -1.2894 0.9889
-4.5710 -1.5260 -2.5000 0.9785
-4.5058 -1.7088 -2.5000 0.9785
-4.3537 -2.0659 -2.5000 0.9785
-4.2670 -2.2395 -2.5000 0.9785
-4.1734 -2.4095 -2.5000 0.9785
-3.9660 -2.7375 -2.5000 0.9785
-3.7328 -3.0477 -2.5000 0.9785
-3.6071 -3.1956 -2.5000 0.9785
-3.0478 -3.7328 -2.5000 0.9785
-2.7375 -3.9659 -2.5000 0.9785
-2.5756 -4.0730 -2.5000 0.9785
-1.7089 -4.5058 -2.5000 0.9785
-1.5260 -4.5710 -2.5000 0.9785
-1.3407 -4.6287 -2.5000 0.9785
-0.9639 -4.7216 -2.5000 0.9785
-0.5809 -4.7838 -2.5000 0.9785
-0.1941 -4.8151 -2.5000 0.9785
-0.0000 -4.8190 -2.5000 0.9785
0.1940 -4.8151 -2.5000 0.9785
0.9639 -4.7216 -2.5000 0.9785
1.1532 -4.6789 -2.5000 0.9785
1.3407 -4.6287 -2.5000 0.9785
1.5260 -4.5710 -2.5000 0.9785
2.0658 -4.3537 -2.5000 0.9785
2.2395 -4.2670 -2.5000 0.9785
2.4095 -4.1733 -2.5000 0.9785
2.7375 -3.9659 -2.5000 0.9785
2.8949 -3.8525 -2.5000 0.9785
3.0477 -3.7328 -2.5000 0.9785
3.1956 -3.6070 -2.5000 0.9785
3.3382 -3.4754 -2.5000 0.9785
3.4754 -3.3382 -2.5000 0.9785
3.7328 -3.0477 -2.5000 0.9785
3.8525 -2.8950 -2.5000 0.9785
3.9659 -2.7375 -2.5000 0.9785
4.1733 -2.4095 -2.5000 0.9785
4.3537 -2.0658 -2.5000 0.9785
4.4333 -1.8889 -2.5000 0.9785
4.6287 -1.3407 -2.5000 0.9785
4.6789 -1.1533 -2.5000 0.9785
4.7216 -0.9639 -2.5000 0.9785
4.7838 -0.5809 -2.5000 0.9785
4.8151 0.1940 -2.5000 0.9785
4.7838 0.5809 -2.5000 0.9785
4.7566 0.7730 -2.5000 0.9785
4.7216 0.9639 -2.5000 0.9785
4.6789 1.1533 -2.5000 0.9785
4.5710 1.5260 -2.5000 0.9785
4.5058 1.7088 -2.5000 0.9785
4.3537 2.0659 -2.5000 0.9785
4.2670 2.2395 -2.5000 0.9785
4.0729 2.5756 -2.5000 0.9785
3.5053 2.8620 -2.3476 0.9798
3.3872 3.0008 -2.3476 0.9798
2.7185 3.6177 -2.3476 0.9798
2.5706 3.7242 -2.3476 0.9798
2.4186 3.8247 -2.3476 0.9798
2.2626 3.9190 -2.3476 0.9798
2.1030 4.0069 -2.3476 0.9798
1.9399 4.0883 -2.3476 0.9798
1.6046 4.2312 -2.3476 0.9798
1.4330 4.2923 -2.3476 0.9798
1.2590 4.3466 -2.3476 0.9798
1.0829 4.3937 -2.3476 0.9798
0.9052 4.4338 -2.3476 0.9798
0.7259 4.4666 -2.3476 0.9798
0.5454 4.4922 -2.3476 0.9798
0.3641 4.5105 -2.3476 0.9798
-0.3642 4.5105 -2.3476 0.9798
-0.7259 4.4666 -2.3476 0.9798
-1.0830 4.3937 -2.3476 0.9798
-1.4330 4.2923 -2.3476 0.9798
-1.7738 4.1631 -2.3476 0.9798
-2.2626 3.9190 -2.3476 0.9798
-2.5706 3.7242 -2.3476 0.9798
-2.8620 3.5053 -2.3476 0.9798
-3.1348 3.2636 -2.3476 0.9798
