ply
format ascii 1.0
element vertex 1574
property float32 x
property float32 y
property float32 z
property float32 I
end_header
-3.6444 -14.7857 -0.4288 0.9409
-3.0178 -14.7822 -0.4248 0.9414
-1.8826 -11.5838 -0.3305 0.9541
-1.1925 -14.7721 -0.4173 0.9424
-0.5952 -14.7688 -0.4162 0.9426
2.3975 -14.7523 -0.4208 0.9419
3.0110 -14.7489 -0.4239 0.9415
4.2701 -14.7420 -0.4322 0.9404
13.2668 -34.9818 -1.0535 0.8610
14.6312 -27.8774 -0.8865 0.8816
14.6956 -21.2902 -0.7284 0.9017
14.7514 -19.6306 -0.6914 0.9064
13.0174 -14.6936 -0.5527 0.9245
14.1076 -14.6876 -0.5734 0.9217
15.2846 -14.6811 -0.5968 0.9187
16.5635 -14.6740 -0.6231 0.9153
17.9629 -14.6662 -0.6530 0.9114
21.1854 -14.6233 -0.7248 0.9021
25.4667 -16.1042 -0.8484 0.8864
28.9296 -15.1834 -0.9200 0.8774
32.0608 -15.2130 -0.9992 0.8676
37.8802 -14.3661 -1.1408 0.8503
40.4936 -13.5187 -1.2021 0.8430
37.6992 7.6963 -1.0834 0.8573
20.6179 5.9720 -0.6044 0.9177
17.2975 5.7748 -0.5135 0.9296
14.9566 5.6723 -0.4504 0.9380
34.5441 21.8444 -1.1508 0.8491
24.8648 17.1630 -0.8507 0.8861
3.5173 2.6431 -0.1239 0.9825
3.3310 2.7197 -0.1211 0.9829
3.2419 2.8721 -0.1220 0.9828
16.2403 16.9079 -0.6601 0.9105
7.1207 8.0375 -0.3024 0.9579
6.5331 8.6940 -0.3062 0.9574
6.2903 9.9472 -0.3314 0.9540
5.8864 10.1955 -0.3315 0.9540
5.4962 10.4721 -0.3330 0.9538
5.0779 10.7015 -0.3335 0.9537
3.6240 10.8553 -0.3222 0.9552
3.2044 11.0626 -0.3243 0.9550
2.7718 11.2456 -0.3261 0.9547
1.6570 8.1161 -0.2332 0.9674
1.2653 7.7852 -0.2221 0.9689
-0.3172 7.8735 -0.2219 0.9690
-0.9934 8.1816 -0.2321 0.9676
-1.3692 8.4255 -0.2404 0.9664
-5.2589 18.1558 -0.5322 0.9272
-5.7479 15.1559 -0.4564 0.9372
-39.0825 13.0477 -1.1602 0.8480
-48.5643 0.0000 -2.4629 0.8232
-48.4044 -3.9076 -2.4628 0.8232
-47.5325 -9.7038 -2.4603 0.8234
-46.5374 -13.4797 -2.4571 0.8236
-27.6746 -10.4955 -1.5010 0.8882
-44.4362 -18.9325 -2.4496 0.8241
-43.5828 -20.6803 -2.4465 0.8243
-27.8785 -16.0956 -1.6325 0.8790
-27.9486 -17.6736 -1.6770 0.8760
-28.0107 -19.3344 -1.7261 0.8726
-28.1233 -21.1332 -1.7841 0.8686
-28.1858 -23.0130 -1.8454 0.8644
-28.2764 -25.0507 -1.9159 0.8596
-28.4808 -29.6517 -2.0851 0.8482
-28.6118 -32.2960 -2.1882 0.8413
-4.2651 -14.7247 -0.7775 0.9404
-3.0178 -14.7822 -0.7651 0.9414
-1.3935 -11.4761 -0.5863 0.9548
-1.1925 -14.7721 -0.7516 0.9424
0.5949 -14.7623 -0.7493 0.9425
1.1858 -14.6883 -0.7473 0.9427
3.6344 -14.7455 -0.7702 0.9410
4.2701 -14.7420 -0.7784 0.9404
13.2668 -34.9818 -1.8974 0.8608
14.9024 -34.9774 -1.9281 0.8588
14.8155 -31.2230 -1.7527 0.8707
14.7845 -25.6074 -1.4996 0.8883
14.7514 -19.6306 -1.2453 0.9063
14.1076 -14.6876 -1.0328 0.9217
16.5635 -14.6740 -1.1222 0.9152
19.5059 -14.6577 -1.2374 0.9069
25.5766 -16.1736 -1.5347 0.8859
30.2461 -14.3520 -1.6978 0.8745
37.8802 -14.3661 -2.0546 0.8502
40.5350 -13.5326 -2.1672 0.8427
45.1444 -11.1271 -2.3580 0.8301
45.4848 -9.2858 -2.3543 0.8303
45.7457 -7.4344 -2.3504 0.8306
48.9637 -5.9453 -2.5014 0.8207
49.1634 -3.9689 -2.5014 0.8207
49.2833 -1.9860 -2.5014 0.8207
49.3233 0.0000 -2.5014 0.8207
49.2833 1.9860 -2.5014 0.8207
49.1633 3.9689 -2.5014 0.8207
24.2004 3.9330 -1.2434 0.9065
25.9602 6.3985 -1.3560 0.8984
20.5931 5.9648 -1.0873 0.9177
12.5774 5.3587 -0.6933 0.9467
11.2993 5.3616 -0.6343 0.9511
10.3339 5.4236 -0.5919 0.9543
8.9310 5.6476 -0.5359 0.9586
8.0534 5.5589 -0.4963 0.9616
6.0216 5.7838 -0.4234 0.9671
8.6314 9.7428 -0.6601 0.9492
6.3774 8.4867 -0.5384 0.9584
6.1991 8.9808 -0.5534 0.9572
5.9670 9.4360 -0.5662 0.9563
5.2994 10.0970 -0.5783 0.9554
3.5638 9.3970 -0.5097 0.9605
3.8133 13.1651 -0.6951 0.9466
3.3342 13.5273 -0.7066 0.9457
1.2687 7.8063 -0.4011 0.9688
0.6092 7.5456 -0.3839 0.9701
0.3053 7.5745 -0.3844 0.9701
0.0000 7.7232 -0.3917 0.9695
-0.6520 8.0768 -0.4109 0.9681
-4.9995 14.9753 -0.8007 0.9387
-5.1339 13.5370 -0.7342 0.9437
-5.0160 11.7730 -0.6490 0.9500
-5.0076 10.5533 -0.5924 0.9543
-5.2717 10.0444 -0.5753 0.9556
-5.6567 7.5276 -0.4775 0.9630
-5.9662 6.7344 -0.4563 0.9646
-2.1822 2.2720 -0.1597 0.9875
-28.6192 23.3668 -1.8738 0.8625
-28.4196 17.9714 -1.7053 0.8740
-41.3495 23.8732 -2.4214 0.8259
-28.1775 10.6863 -1.5283 0.8863
-40.5368 9.9915 -2.1173 0.8460
-47.3288 9.6623 -2.4498 0.8241
-48.1007 5.8405 -2.4573 0.8236
-27.9140 2.2534 -1.4202 0.8939
-27.8082 -3.3765 -2.0540 0.8937
-27.7869 -4.5158 -2.0641 0.8932
-31.4551 -9.1111 -2.4012 0.8769
-31.0436 -10.3639 -2.3997 0.8770
-27.6746 -10.4955 -2.1702 0.8881
-26.9914 -11.5000 -2.1512 0.8890
-29.4994 -13.9976 -2.3941 0.8773
-26.0378 -19.5661 -2.3881 0.8775
-25.2242 -20.5949 -2.3877 0.8776
-24.8819 -22.0434 -2.4374 0.8752
-18.5147 -29.2786 -2.5400 0.8703
-17.3207 -30.0004 -2.5400 0.8703
-14.8505 -31.2968 -2.5400 0.8703
-13.5783 -31.8694 -2.5400 0.8703
-10.9698 -32.8587 -2.5400 0.8703
-3.6444 -14.7857 -1.1166 0.9408
-3.0178 -14.7822 -1.1062 0.9413
-1.8801 -11.5689 -0.8594 0.9541
-0.5952 -14.7688 -1.0838 0.9424
-0.0000 -14.7656 -1.0826 0.9425
0.5949 -14.7623 -1.0833 0.9425
1.1858 -14.6882 -1.0805 0.9426
1.7917 -14.7557 -1.0899 0.9421
2.3975 -14.7523 -1.0959 0.9418
3.0110 -14.7489 -1.1037 0.9414
4.2701 -14.7420 -1.1253 0.9403
11.5049 -30.3360 -2.3789 0.8780
13.9013 -29.2963 -2.3776 0.8780
14.7845 -25.6074 -2.1681 0.8882
14.7720 -23.3601 -2.0265 0.8951
14.7514 -19.6306 -1.8004 0.9062
14.7427 -18.0565 -1.7092 0.9107
13.0174 -14.6936 -1.4393 0.9243
14.1076 -14.6876 -1.4932 0.9216
15.2846 -14.6811 -1.5539 0.9185
17.9629 -14.6662 -1.7003 0.9112
19.5059 -14.6577 -1.7890 0.9068
21.1855 -14.6233 -1.8875 0.9019
25.4593 -16.0995 -2.2087 0.8862
29.5801 -12.6029 -2.3575 0.8790
30.0283 -11.3882 -2.3548 0.8791
30.4262 -10.1578 -2.3520 0.8793
30.7736 -8.9137 -2.3491 0.8794
33.6734 -5.4725 -2.5014 0.8721
34.0875 1.3737 -2.5014 0.8721
34.0045 2.7451 -2.5014 0.8721
31.8118 3.8627 -2.3496 0.8794
24.1898 3.9312 -1.7969 0.9064
25.8890 6.3810 -1.9551 0.8986
14.3855 5.4557 -1.1281 0.9402
11.2341 5.3306 -0.9117 0.9514
9.2447 5.3375 -0.7827 0.9581
3.5146 2.6411 -0.3223 0.9825
3.3295 2.7185 -0.3152 0.9829
3.2404 2.8708 -0.3174 0.9828
5.6952 5.4702 -0.5790 0.9688
4.9186 5.5519 -0.5439 0.9707
4.5593 5.5841 -0.5286 0.9715
3.9195 5.6783 -0.5059 0.9727
2.1740 5.7322 -0.4495 0.9757
5.5711 16.6874 -1.2899 0.9319
1.2298 6.0236 -0.4508 0.9756
0.9240 7.6097 -0.5621 0.9697
0.2299 5.7034 -0.4185 0.9774
-0.2344 5.8171 -0.4269 0.9769
-0.9925 6.1068 -0.4536 0.9755
-5.0039 17.2755 -1.3187 0.9304
-2.8498 6.0058 -0.4874 0.9737
-3.0895 5.8866 -0.4875 0.9737
-3.1528 5.4608 -0.4623 0.9750
-3.9402 5.7082 -0.5086 0.9726
-4.4201 5.4136 -0.5124 0.9724
-5.0244 5.6713 -0.5555 0.9701
-3.7438 3.5960 -0.3806 0.9794
-26.2356 19.7148 -2.4062 0.8767
-26.7988 18.4979 -2.3876 0.8776
-22.4380 11.7764 -1.8580 0.9034
-22.3957 10.6269 -1.8176 0.9054
-28.0886 8.1360 -2.1442 0.8893
-32.3567 5.2585 -2.4036 0.8768
-27.9140 2.2534 -2.0534 0.8938
-25.5230 -2.0604 -2.4583 0.9022
-25.4884 -3.0948 -2.4650 0.9020
-25.4528 -4.1365 -2.4757 0.9016
-25.4161 -5.1887 -2.4904 0.9010
-25.3389 -7.3395 -2.5327 0.8994
-25.0952 -8.3780 -2.5400 0.8991
-24.7375 -9.3817 -2.5400 0.8991
-23.9024 -11.3418 -2.5400 0.8991
-23.4263 -12.2951 -2.5400 0.8991
-22.3610 -14.1402 -2.5400 0.8991
-21.7735 -15.0292 -2.5400 0.8991
-19.8032 -17.5441 -2.5400 0.8991
-19.0807 -18.3273 -2.5400 0.8991
-18.3273 -19.0807 -2.5400 0.8991
-17.5441 -19.8032 -2.5400 0.8991
-15.0292 -21.7735 -2.5400 0.8991
-14.1403 -22.3610 -2.5400 0.8991
-11.3418 -23.9024 -2.5400 0.8991
-3.6444 -14.7857 -1.4620 0.9406
-3.0178 -14.7822 -1.4484 0.9412
-1.1925 -14.7721 -1.4228 0.9422
-0.5952 -14.7688 -1.4190 0.9423
-0.0000 -14.7656 -1.4176 0.9424
0.5949 -14.7623 -1.4184 0.9424
1.1858 -14.6882 -1.4147 0.9425
2.3975 -14.7523 -1.4349 0.9417
3.0110 -14.7489 -1.4452 0.9413
3.6344 -14.7455 -1.4580 0.9408
4.2701 -14.7420 -1.4735 0.9402
7.8221 -23.4301 -2.3715 0.9055
11.4651 -21.8450 -2.3685 0.9056
13.1791 -20.8411 -2.3673 0.9057
14.0036 -20.2877 -2.3667 0.9057
14.7514 -19.6306 -2.3574 0.9060
14.1076 -14.6876 -1.9552 0.9214
16.5180 -14.6337 -2.1186 0.9151
20.2218 -13.9581 -2.3590 0.9060
20.7512 -13.1223 -2.3571 0.9061
22.1235 -10.4977 -2.3510 0.9063
24.3617 -9.2392 -2.5014 0.9006
24.7139 -8.2507 -2.5014 0.9006
25.5283 -5.2116 -2.5014 0.9006
25.8649 -3.1405 -2.5014 0.9006
25.9703 -2.0965 -2.5014 0.9006
26.0337 -1.0491 -2.5014 0.9006
26.0548 0.0000 -2.5014 0.9006
26.0337 1.0491 -2.5014 0.9006
24.1791 3.9295 -2.3518 0.9063
24.0274 4.9052 -2.3543 0.9062
20.5428 5.9503 -2.0533 0.9176
16.5677 5.5311 -1.6769 0.9322
12.5143 5.3318 -1.3059 0.9468
10.9097 5.1767 -1.1593 0.9526
9.8027 5.1449 -1.0629 0.9565
8.8805 5.6157 -1.0087 0.9587
7.7343 5.3387 -0.9022 0.9629
3.2397 2.8701 -0.4155 0.9828
4.8479 5.4722 -0.7019 0.9710
4.4589 5.4611 -0.6769 0.9721
3.3566 5.3079 -0.6029 0.9751
2.6353 5.5537 -0.5902 0.9756
2.2710 5.3303 -0.5562 0.9770
2.0472 5.3980 -0.5543 0.9771
1.9490 5.8379 -0.5909 0.9756
1.3239 5.3712 -0.5311 0.9780
1.1006 5.3910 -0.5282 0.9781
0.9191 5.6549 -0.5500 0.9772
0.2250 5.5824 -0.5364 0.9778
-0.6566 5.4075 -0.5230 0.9783
-1.4399 5.8417 -0.5776 0.9761
-1.6031 5.5344 -0.5532 0.9771
-2.0110 5.3025 -0.5444 0.9775
-2.6110 5.5025 -0.5847 0.9758
-2.7703 5.2784 -0.5723 0.9763
-3.3820 5.3482 -0.6075 0.9749
-3.8942 5.6417 -0.6581 0.9728
-4.9892 5.6315 -0.7223 0.9702
-3.7438 3.5960 -0.4984 0.9794
-3.6926 3.0149 -0.4577 0.9810
-22.3611 14.1402 -2.5400 0.8991
-23.4263 12.2952 -2.5400 0.8991
-23.9024 11.3421 -2.5400 0.8991
-22.3343 9.5158 -2.3307 0.9071
-25.4122 7.3608 -2.5400 0.8991
-25.6880 6.3316 -2.5400 0.8991
-25.7473 5.2564 -2.5228 0.8998
-25.6855 3.1188 -2.4840 0.9013
-25.6541 2.0710 -2.4709 0.9017
-25.6222 1.0326 -2.4619 0.9021
-20.9508 -4.2771 -2.5400 0.9175
-20.2824 -6.7713 -2.5400 0.9175
-19.9934 -7.5825 -2.5400 0.9175
-19.3184 -9.1667 -2.5400 0.9175
-18.5181 -10.6914 -2.5400 0.9175
-17.0944 -12.8456 -2.5400 0.9175
-16.5633 -13.5235 -2.5400 0.9175
-14.8124 -15.4214 -2.5400 0.9175
-12.1469 -17.5978 -2.5400 0.9175
-11.4284 -18.0726 -2.5400 0.9175
-10.6914 -18.5181 -2.5400 0.9175
-8.6169 -18.1597 -2.3876 0.9222
-6.3670 -19.0716 -2.3884 0.9222
-4.2651 -14.7247 -1.8210 0.9401
-3.6444 -14.7857 -1.8089 0.9405
-3.0178 -14.7822 -1.7921 0.9410
-1.3919 -11.4632 -1.3717 0.9546
-1.1925 -14.7721 -1.7604 0.9420
-0.5952 -14.7688 -1.7558 0.9422
1.1858 -14.6882 -1.7504 0.9424
3.0110 -14.7489 -1.7881 0.9412
3.6344 -14.7455 -1.8040 0.9407
6.3053 -18.8863 -2.3652 0.9229
7.0595 -18.6145 -2.3648 0.9229
9.9464 -17.2277 -2.3630 0.9230
11.2950 -16.3636 -2.3619 0.9230
12.5682 -15.3933 -2.3606 0.9231
13.7578 -14.3234 -2.3591 0.9231
15.3565 -12.5382 -2.3549 0.9232
15.8386 -11.9019 -2.3534 0.9233
16.2941 -11.2470 -2.3518 0.9233
16.7224 -10.5746 -2.3502 0.9234
18.6009 -9.7625 -2.4954 0.9189
19.0249 -9.0274 -2.5014 0.9187
19.3729 -8.2540 -2.5014 0.9187
19.9743 -6.6684 -2.5014 0.9187
20.2266 -5.8587 -2.5014 0.9187
20.7853 -3.3779 -2.5014 0.9187
21.0409 -0.8479 -2.5014 0.9187
21.0580 0.0000 -2.5014 0.9187
21.0409 0.8479 -2.5014 0.9187
19.6308 2.3836 -2.3490 0.9234
19.5358 3.1749 -2.3510 0.9234
19.2440 4.7432 -2.3543 0.9233
19.0374 5.5143 -2.3543 0.9233
17.0249 5.6837 -2.1320 0.9303
14.1403 5.3628 -1.7964 0.9409
11.3146 5.3689 -1.4876 0.9508
9.2228 5.3248 -1.2650 0.9580
8.6885 5.4943 -1.2211 0.9594
7.7060 5.3191 -1.1123 0.9630
3.5119 2.6391 -0.5218 0.9825
3.3280 2.7172 -0.5103 0.9828
5.6409 5.4181 -0.9291 0.9690
4.8350 5.4576 -0.8661 0.9711
4.4833 5.4911 -0.8421 0.9718
3.3705 5.3300 -0.7491 0.9749
3.1177 5.4000 -0.7407 0.9752
2.8160 5.3654 -0.7198 0.9759
2.4994 5.2674 -0.6926 0.9768
2.2613 5.3074 -0.6853 0.9770
1.3059 5.2980 -0.6482 0.9783
1.0738 5.2598 -0.6377 0.9786
0.8796 5.4122 -0.6513 0.9782
0.4374 5.4183 -0.6457 0.9783
0.0000 5.3651 -0.6373 0.9786
-0.2135 5.2988 -0.6299 0.9789
-1.0832 5.3057 -0.6432 0.9784
-1.6004 5.5251 -0.6833 0.9771
-1.7538 5.2533 -0.6579 0.9779
-1.9815 5.2248 -0.6638 0.9777
-2.2846 5.3621 -0.6923 0.9768
-2.7511 5.2418 -0.7032 0.9764
-4.2995 5.2658 -0.8075 0.9730
-4.9679 5.6075 -0.8899 0.9703
-17.0944 12.8456 -2.5400 0.9175
-17.5978 12.1469 -2.5400 0.9175
-18.0726 11.4284 -2.5400 0.9175
-18.9336 9.9371 -2.5400 0.9175
-19.9933 7.5825 -2.5400 0.9175
-20.2824 6.7713 -2.5400 0.9175
-20.7615 5.1173 -2.5400 0.9175
-21.3135 1.7206 -2.5400 0.9175
-21.3655 0.8610 -2.5400 0.9175
-17.9264 0.0000 -2.5400 0.9301
-17.9119 -0.7218 -2.5400 0.9301
-17.6943 -2.8756 -2.5400 0.9301
-16.7615 -6.3568 -2.5400 0.9301
-16.4920 -7.0266 -2.5400 0.9301
-14.7532 -10.1834 -2.5400 0.9301
-14.3312 -10.7692 -2.5400 0.9301
-13.8859 -11.3375 -2.5400 0.9301
-12.9286 -12.4181 -2.5400 0.9301
-11.3375 -13.8859 -2.5400 0.9301
-10.7692 -14.3311 -2.5400 0.9301
-7.8310 -14.9207 -2.3876 0.9342
-7.2250 -15.2264 -2.3880 0.9342
-6.4116 -15.0485 -2.3177 0.9361
-5.9761 -15.7578 -2.3879 0.9342
-5.3365 -15.9849 -2.3878 0.9342
-4.2241 -14.5833 -2.1512 0.9405
-0.0000 -14.7656 -2.0921 0.9421
0.5949 -14.7623 -2.0934 0.9421
1.1858 -14.6882 -2.0879 0.9422
2.3924 -14.7208 -2.1131 0.9415
3.0005 -14.6973 -2.1254 0.9412
3.6204 -14.6887 -2.1435 0.9407
4.2536 -14.6852 -2.1663 0.9401
5.2766 -15.8054 -2.3610 0.9349
5.9080 -15.5781 -2.3607 0.9349
6.5295 -15.3254 -2.3603 0.9349
7.1402 -15.0477 -2.3600 0.9349
8.3247 -14.4187 -2.3590 0.9349
8.8952 -14.0667 -2.3582 0.9350
9.9903 -13.2947 -2.3563 0.9350
11.0179 -12.4366 -2.3542 0.9351
11.5043 -11.9772 -2.3531 0.9351
11.9713 -11.4986 -2.3519 0.9351
12.4182 -11.0016 -2.3507 0.9352
12.8444 -10.4871 -2.3495 0.9352
14.5124 -10.0172 -2.4985 0.9312
15.6319 -8.2043 -2.5014 0.9312
15.9496 -7.5682 -2.5014 0.9312
6.8427 -2.2844 -1.0221 0.9713
6.8586 -1.9866 -1.0117 0.9716
7.0919 -1.7480 -1.0349 0.9709
17.4255 -2.8319 -2.5014 0.9312
17.5254 -2.1279 -2.5014 0.9312
17.6398 -0.7108 -2.5014 0.9312
17.6541 0.0000 -2.5014 0.9312
17.6398 0.7109 -2.5014 0.9312
17.5968 1.4206 -2.5014 0.9312
16.1296 3.9756 -2.3538 0.9351
15.9601 4.6229 -2.3543 0.9351
15.7610 5.2618 -2.3543 0.9351
14.6953 5.5732 -2.2269 0.9385
11.2786 5.3518 -1.7688 0.9508
10.2966 5.4041 -1.6476 0.9541
7.7264 5.3332 -1.3302 0.9628
3.5106 2.6380 -0.6222 0.9824
3.3272 2.7166 -0.6086 0.9828
3.2382 2.8688 -0.6130 0.9827
5.6656 5.4419 -1.1131 0.9688
5.1329 5.3439 -1.0499 0.9705
4.7629 5.3761 -1.0177 0.9714
4.2158 5.6101 -0.9943 0.9720
3.7291 5.4024 -0.9301 0.9738
3.2939 5.2087 -0.8732 0.9754
3.1743 5.4980 -0.8995 0.9747
2.8009 5.3367 -0.8540 0.9759
2.5328 5.3376 -0.8371 0.9764
2.2692 5.3261 -0.8203 0.9769
1.8676 5.5939 -0.8356 0.9765
1.5428 5.3261 -0.7857 0.9778
1.3035 5.2885 -0.7717 0.9782
1.0733 5.2573 -0.7603 0.9786
0.6617 5.4494 -0.7778 0.9781
0.4378 5.4229 -0.7709 0.9783
-0.2148 5.3320 -0.7561 0.9787
-0.4375 5.4200 -0.7705 0.9783
-0.6559 5.4017 -0.7710 0.9783
-0.8596 5.2896 -0.7593 0.9786
-1.0789 5.2847 -0.7642 0.9784
-1.5821 5.4619 -0.8057 0.9773
-1.7104 5.1234 -0.7653 0.9784
-1.9358 5.1043 -0.7735 0.9782
-2.2616 5.3082 -0.8175 0.9770
-2.6054 5.4909 -0.8611 0.9757
-2.7444 5.2290 -0.8367 0.9764
-3.8528 5.5816 -0.9610 0.9730
-4.0353 5.3700 -0.9518 0.9732
-4.2518 5.2075 -0.9526 0.9732
-3.7135 3.5669 -0.7296 0.9794
-3.7423 3.3154 -0.7084 0.9800
-13.8859 11.3375 -2.5400 0.9301
-14.7532 10.1834 -2.5400 0.9301
-15.1512 9.5810 -2.5400 0.9301
-15.5247 8.9632 -2.5400 0.9301
-16.1957 7.6849 -2.5400 0.9301
-17.0039 5.6767 -2.5400 0.9301
-17.5642 3.5858 -2.5400 0.9301
-17.6943 2.8756 -2.5400 0.9301
-17.9119 0.7218 -2.5400 0.9301
-15.4182 0.0000 -2.5400 0.9394
-15.3058 -1.8585 -2.5400 0.9394
-15.1066 -3.0840 -2.5400 0.9394
-14.9702 -3.6898 -2.5400 0.9394
-14.8095 -4.2896 -2.5400 0.9394
-14.1844 -6.0434 -2.5400 0.9394
-13.9296 -6.6097 -2.5400 0.9394
-13.0313 -8.2405 -2.5400 0.9394
-12.3260 -9.2624 -2.5400 0.9394
-11.9430 -9.7512 -2.5400 0.9394
-11.5407 -10.2242 -2.5400 0.9394
-10.6806 -11.1197 -2.5400 0.9394
-10.2242 -11.5407 -2.5400 0.9394
-9.2584 -12.3207 -2.5389 0.9394
-8.7257 -12.6414 -2.5305 0.9396
-7.1586 -12.3991 -2.3586 0.9436
-6.6454 -12.6618 -2.3557 0.9437
-6.1217 -12.9012 -2.3525 0.9438
-5.5898 -13.1198 -2.3493 0.9438
-4.5301 -13.5694 -2.3567 0.9437
-3.9808 -13.7433 -2.3571 0.9436
-3.4248 -13.8947 -2.3575 0.9436
-1.8752 -11.5388 -1.9258 0.9537
-1.3908 -11.4546 -1.9009 0.9543
-1.1520 -14.2698 -2.3584 0.9436
2.2961 -14.1286 -2.3581 0.9436
2.8628 -14.0231 -2.3578 0.9436
3.4247 -13.8945 -2.3575 0.9436
4.5301 -13.5693 -2.3567 0.9437
5.0717 -13.3731 -2.3562 0.9437
5.6048 -13.1550 -2.3557 0.9437
6.6417 -12.6548 -2.3544 0.9437
7.1438 -12.3734 -2.3537 0.9437
8.1110 -11.7508 -2.3522 0.9438
9.8775 -10.2835 -2.3490 0.9438
11.3654 -10.0688 -2.5014 0.9403
11.7616 -9.6030 -2.5014 0.9403
12.1387 -9.1216 -2.5014 0.9403
13.9689 -5.9516 -2.5014 0.9403
6.1625 -2.3371 -1.0858 0.9736
6.1668 -2.0588 -1.0710 0.9740
6.2216 -1.8021 -1.0671 0.9741
15.1716 -0.6114 -2.5014 0.9403
15.1347 1.2218 -2.5014 0.9403
13.7856 2.8144 -2.3179 0.9446
13.7260 3.9758 -2.3542 0.9437
13.5558 4.5256 -2.3543 0.9437
13.3626 5.0677 -2.3543 0.9437
11.2845 5.3546 -2.0577 0.9506
8.7206 5.5146 -1.6998 0.9590
7.7170 5.3267 -1.5447 0.9627
3.5092 2.6370 -0.7231 0.9824
3.2374 2.8681 -0.7125 0.9826
5.5602 5.3407 -1.2701 0.9692
5.1201 5.3305 -1.2176 0.9705
4.1959 5.5836 -1.1506 0.9721
3.3453 5.2901 -1.0311 0.9749
2.8223 5.3774 -1.0005 0.9757
2.5293 5.3304 -0.9720 0.9764
2.2592 5.3025 -0.9495 0.9769
2.0001 5.2738 -0.9292 0.9774
1.5501 5.3513 -0.9178 0.9777
1.0480 5.1333 -0.8631 0.9790
0.8709 5.3586 -0.8944 0.9782
0.4296 5.3213 -0.8795 0.9786
0.2161 5.3627 -0.8842 0.9785
0.0000 5.2851 -0.8707 0.9788
-0.8514 5.2389 -0.8744 0.9787
-1.3927 5.6504 -0.9587 0.9767
-1.7338 5.1932 -0.9019 0.9780
-2.2596 5.3035 -0.9497 0.9769
-2.5751 5.4270 -0.9896 0.9759
-2.9931 5.1843 -0.9862 0.9760
-3.3279 5.2627 -1.0258 0.9751
-3.9594 5.2690 -1.0858 0.9736
-2.1822 2.2720 -0.5190 0.9873
-5.8102 5.1473 -1.2787 0.9690
-12.3260 9.2624 -2.5400 0.9394
-12.6889 8.7585 -2.5400 0.9394
-13.0313 8.2405 -2.5400 0.9394
-13.6522 7.1652 -2.5400 0.9394
-13.9296 6.6097 -2.5400 0.9394
-14.1844 6.0434 -2.5400 0.9394
-14.8095 4.2896 -2.5400 0.9394
-14.9702 3.6898 -2.5400 0.9394
-15.3058 1.8585 -2.5400 0.9394
-15.3682 1.2407 -2.5400 0.9394
-15.4057 0.6208 -2.5400 0.9394
-13.5134 0.0000 -2.5400 0.9465
-13.5024 -0.5441 -2.5400 0.9465
-13.4149 -1.6289 -2.5400 0.9465
-13.3384 -2.1677 -2.5400 0.9465
-13.2403 -2.7030 -2.5400 0.9465
-12.6352 -4.7919 -2.5400 0.9465
-11.9655 -6.2800 -2.5400 0.9465
-10.8032 -8.1180 -2.5400 0.9465
-8.4767 -10.3821 -2.5192 0.9469
-7.5697 -10.9666 -2.5047 0.9472
-7.0904 -11.2125 -2.4935 0.9474
-5.8078 -11.0658 -2.3490 0.9504
-5.3575 -11.2906 -2.3490 0.9504
-4.8985 -11.4972 -2.3490 0.9504
-3.9629 -11.8704 -2.3522 0.9503
-3.4823 -12.0223 -2.3526 0.9503
-2.5043 -12.2667 -2.3532 0.9503
-1.8740 -11.5312 -2.1958 0.9536
-0.5043 -12.5129 -2.3538 0.9503
0.0000 -12.5232 -2.3539 0.9503
0.5042 -12.5129 -2.3539 0.9503
1.0077 -12.4821 -2.3538 0.9503
1.5094 -12.4307 -2.3537 0.9503
2.9958 -12.1546 -2.3530 0.9503
3.9630 -11.8706 -2.3523 0.9503
4.9035 -11.5089 -2.3514 0.9504
6.2505 -10.8262 -2.3497 0.9504
7.1480 -10.3557 -2.3651 0.9501
8.8249 -9.9612 -2.5014 0.9473
9.2188 -9.5978 -2.5014 0.9473
9.5978 -9.2188 -2.5014 0.9473
9.9612 -8.8249 -2.5014 0.9473
10.3085 -8.4166 -2.5014 0.9473
10.9523 -7.5598 -2.5014 0.9473
11.2478 -7.1127 -2.5014 0.9473
11.5251 -6.6540 -2.5014 0.9473
11.7837 -6.1846 -2.5014 0.9473
12.0232 -5.7051 -2.5014 0.9473
5.8468 -2.2174 -1.1753 0.9749
5.8721 -1.9604 -1.1636 0.9751
6.0136 -1.4822 -1.1641 0.9751
6.2358 -1.2731 -1.1963 0.9744
7.8422 -1.2745 -1.4934 0.9682
13.2110 -1.6041 -2.5014 0.9473
13.2649 -1.0708 -2.5014 0.9473
13.2973 -0.5358 -2.5014 0.9473
13.2649 1.0709 -2.5014 0.9473
12.3360 2.0048 -2.3491 0.9504
12.2523 2.5013 -2.3504 0.9504
12.1485 2.9943 -2.3518 0.9504
12.0248 3.4830 -2.3531 0.9503
11.5233 4.9096 -2.3543 0.9503
10.4024 5.4596 -2.2082 0.9533
3.5079 2.6360 -0.8248 0.9823
3.2366 2.8674 -0.8128 0.9826
5.6234 5.4014 -1.4656 0.9688
5.2120 5.4262 -1.4142 0.9698
4.5067 5.5197 -1.3394 0.9714
4.2028 5.5929 -1.3150 0.9719
3.6943 5.3520 -1.2223 0.9739
3.1543 5.4632 -1.1857 0.9747
2.8124 5.3585 -1.1375 0.9757
1.8525 5.5487 -1.0995 0.9765
1.5572 5.3760 -1.0520 0.9775
1.2928 5.2449 -1.0153 0.9783
1.0763 5.2717 -1.0113 0.9783
0.4331 5.3652 -1.0117 0.9783
0.0000 5.3627 -1.0080 0.9784
-0.8456 5.2035 -0.9909 0.9788
-1.0663 5.2229 -1.0020 0.9785
-1.3271 5.3842 -1.0423 0.9777
-1.7324 5.1892 -1.0283 0.9780
-1.9521 5.1473 -1.0347 0.9778
-2.2479 5.2759 -1.0779 0.9769
-2.5693 5.4146 -1.1265 0.9759
-3.2975 5.2146 -1.1597 0.9752
-4.8527 5.4775 -1.3755 0.9707
-2.1822 2.2720 -0.5921 0.9873
-5.3840 5.1713 -1.4032 0.9701
-9.8395 8.0337 -2.3876 0.9496
-10.8032 8.1180 -2.5400 0.9465
-11.9655 6.2800 -2.5400 0.9465
-12.8179 4.2793 -2.5400 0.9465
-13.1207 3.2340 -2.5400 0.9465
-13.2403 2.7030 -2.5400 0.9465
-13.3384 2.1677 -2.5400 0.9465
-13.4148 1.6289 -2.5400 0.9465
-13.5024 0.5441 -2.5400 0.9465
-12.0065 -0.4838 -2.5400 0.9521
-11.9286 -1.4484 -2.5400 0.9521
-11.8606 -1.9275 -2.5400 0.9521
-11.7734 -2.4035 -2.5400 0.9521
-11.5418 -3.3431 -2.5400 0.9521
-11.2353 -4.2610 -2.5400 0.9521
-11.0547 -4.7099 -2.5400 0.9521
-10.8561 -5.1512 -2.5400 0.9521
-10.6398 -5.5842 -2.5400 0.9521
-10.1560 -6.4222 -2.5400 0.9521
-9.3020 -7.5949 -2.5384 0.9521
-8.9628 -7.9402 -2.5311 0.9522
-8.6090 -8.2690 -2.5232 0.9524
-8.2427 -8.5816 -2.5152 0.9525
-7.4939 -9.1784 -2.5047 0.9527
-6.7241 -9.7415 -2.5021 0.9528
-6.3247 -10.0017 -2.5014 0.9528
-5.9168 -10.2482 -2.5014 0.9528
-4.4576 -10.4623 -2.4039 0.9546
-3.9717 -10.4724 -2.3675 0.9552
-3.5190 -10.5408 -2.3490 0.9556
-2.6599 -10.7914 -2.3494 0.9556
-2.2234 -10.8910 -2.3496 0.9556
-1.7832 -10.9727 -2.3498 0.9556
-0.8946 -11.0819 -2.3501 0.9556
-0.4477 -11.1093 -2.3502 0.9556
1.3401 -11.0365 -2.3500 0.9556
1.7833 -10.9729 -2.3499 0.9556
2.2235 -10.8912 -2.3497 0.9556
2.6599 -10.7917 -2.3494 0.9556
3.9587 -10.4382 -2.3598 0.9554
4.4393 -10.4195 -2.3941 0.9548
5.4478 -10.3800 -2.4780 0.9532
5.9168 -10.2482 -2.5014 0.9528
7.1090 -9.4603 -2.5014 0.9528
7.4841 -9.1664 -2.5014 0.9528
8.1974 -8.5344 -2.5014 0.9528
8.8576 -7.8472 -2.5014 0.9528
9.7389 -6.7223 -2.5014 0.9528
10.4782 -5.4994 -2.5014 0.9528
10.6911 -5.0730 -2.5014 0.9528
5.5502 -2.3647 -1.2752 0.9756
5.8333 -1.1909 -1.2585 0.9760
11.7474 -1.4264 -2.5014 0.9528
11.7953 -0.9522 -2.5014 0.9528
10.8922 2.2237 -2.3499 0.9556
10.7992 2.6618 -2.3511 0.9555
10.6886 3.0960 -2.3522 0.9555
10.5605 3.5256 -2.3534 0.9555
10.2466 4.3657 -2.3543 0.9555
9.8621 5.1760 -2.3543 0.9555
9.4680 5.4664 -2.3110 0.9563
8.8684 5.6081 -2.2180 0.9580
7.8135 5.3933 -2.0069 0.9619
3.3249 2.7147 -0.9073 0.9826
4.1904 5.5764 -1.4745 0.9719
3.6101 5.2300 -1.3433 0.9744
3.1619 5.4764 -1.3367 0.9745
2.5482 5.3702 -1.2565 0.9760
1.8435 5.5219 -1.2306 0.9765
1.3040 5.2902 -1.1517 0.9780
0.6643 5.4709 -1.1649 0.9777
0.4349 5.3868 -1.1424 0.9781
0.2143 5.3162 -1.1247 0.9785
-0.4468 5.5350 -1.1738 0.9776
-0.6384 5.2581 -1.1196 0.9786
-0.8571 5.2742 -1.1295 0.9784
-1.0875 5.3272 -1.1493 0.9780
-2.2563 5.2956 -1.2167 0.9767
-2.9768 5.1559 -1.2585 0.9760
-3.3411 5.2835 -1.3214 0.9748
-4.0289 5.3615 -1.4176 0.9730
-4.3038 5.2711 -1.4384 0.9726
-2.1822 2.2720 -0.6659 0.9872
-5.7129 5.0612 -1.6133 0.9693
-8.7493 7.1436 -2.3876 0.9549
-9.5466 6.0369 -2.3876 0.9549
-10.6398 5.5842 -2.5400 0.9521
-10.8560 5.1513 -2.5400 0.9521
-11.5418 3.3431 -2.5400 0.9521
-11.9286 1.4484 -2.5400 0.9521
-12.0065 0.4838 -2.5400 0.9521
-10.7986 -0.4352 -2.5400 0.9566
-10.7724 -0.8696 -2.5400 0.9566
-10.6674 -1.7336 -2.5400 0.9566
-10.5890 -2.1618 -2.5400 0.9566
-10.4933 -2.5864 -2.5400 0.9566
-10.2512 -3.4224 -2.5400 0.9566
-10.1051 -3.8324 -2.5400 0.9566
-9.7639 -4.6330 -2.5400 0.9566
-8.8566 -6.1133 -2.5292 0.9567
-8.5830 -6.4497 -2.5233 0.9568
-7.3826 -7.6861 -2.5047 0.9572
-6.7346 -8.2483 -2.5026 0.9572
-5.6891 -8.9966 -2.5017 0.9572
-4.9461 -9.4241 -2.5014 0.9572
-3.3704 -10.0954 -2.5014 0.9572
-1.7000 -10.4604 -2.4907 0.9574
-0.8447 -10.4641 -2.4673 0.9578
-0.4217 -10.4649 -2.4615 0.9579
0.4215 -10.4601 -2.4604 0.9579
0.8441 -10.4557 -2.4653 0.9578
1.2689 -10.4505 -2.4741 0.9577
1.6974 -10.4445 -2.4869 0.9575
2.5471 -10.3339 -2.5014 0.9572
4.1718 -9.7915 -2.5014 0.9572
4.9461 -9.4241 -2.5014 0.9572
5.3216 -9.2173 -2.5014 0.9572
6.3938 -8.5086 -2.5014 0.9572
6.7312 -8.2443 -2.5014 0.9572
8.2443 -6.7312 -2.5014 0.9572
8.5086 -6.3938 -2.5014 0.9572
8.9955 -5.6884 -2.5014 0.9572
9.2173 -5.3216 -2.5014 0.9572
9.6156 -4.5627 -2.5014 0.9572
5.3675 -1.7919 -1.3299 0.9770
5.4907 -1.3533 -1.3291 0.9770
10.5656 -1.2829 -2.5014 0.9572
10.6087 -0.8564 -2.5014 0.9572
10.6432 0.0000 -2.5014 0.9572
10.6346 0.4286 -2.5014 0.9572
10.6087 0.8564 -2.5014 0.9572
10.3535 1.6826 -2.4652 0.9578
9.7104 2.3934 -2.3505 0.9597
9.6104 2.7837 -2.3515 0.9597
9.0503 4.2944 -2.3543 0.9597
8.8700 4.6553 -2.3543 0.9597
8.6754 5.0087 -2.3543 0.9597
8.4666 5.3540 -2.3543 0.9597
3.5051 2.6339 -1.0304 0.9821
3.3241 2.7140 -1.0086 0.9825
5.0608 5.2688 -1.7170 0.9704
3.1553 5.4650 -1.4831 0.9744
2.7958 5.3269 -1.4139 0.9756
2.5137 5.2975 -1.3781 0.9762
1.9980 5.2681 -1.3242 0.9771
1.8763 5.6200 -1.3925 0.9759
1.3067 5.3013 -1.2832 0.9778
0.4340 5.3764 -1.2677 0.9781
-0.4455 5.5186 -1.3012 0.9775
-0.6483 5.3389 -1.2640 0.9781
-0.8518 5.2412 -1.2480 0.9784
-1.5378 5.3091 -1.2990 0.9775
-1.7465 5.2314 -1.2962 0.9776
-2.2563 5.2958 -1.3529 0.9766
-3.0154 5.2228 -1.4174 0.9755
-3.3983 5.3741 -1.4944 0.9742
-3.7982 5.5025 -1.5714 0.9729
-4.2512 5.2068 -1.5798 0.9728
-5.3917 5.1787 -1.7570 0.9697
-8.1215 6.1029 -2.3876 0.9591
-8.7979 5.0795 -2.3876 0.9591
-9.1781 4.3551 -2.3876 0.9591
-10.1051 3.8324 -2.5400 0.9566
-10.2512 3.4224 -2.5400 0.9566
-10.5890 2.1618 -2.5400 0.9566
-10.7286 1.3027 -2.5400 0.9566
-10.7724 0.8696 -2.5400 0.9566
-9.8100 0.0000 -2.5400 0.9603
-9.7385 -1.1825 -2.5400 0.9603
-9.6830 -1.5736 -2.5400 0.9603
-9.5232 -2.3471 -2.5395 0.9603
-9.2969 -3.1038 -2.5377 0.9603
-9.1559 -3.4724 -2.5354 0.9603
-8.8247 -4.1874 -2.5291 0.9604
-7.7471 -5.8216 -2.5091 0.9608
-7.4974 -6.1214 -2.5061 0.9608
-7.2378 -6.4122 -2.5036 0.9608
-6.9730 -6.6977 -2.5034 0.9608
-6.6969 -6.9722 -2.5031 0.9608
-5.8058 -7.7261 -2.5023 0.9609
-5.4893 -7.9527 -2.5020 0.9609
-4.8305 -8.3666 -2.5014 0.9609
-3.0593 -9.1638 -2.5014 0.9609
-2.3120 -9.3802 -2.5014 0.9609
-1.1645 -9.5905 -2.5014 0.9609
-0.7774 -9.6296 -2.5014 0.9609
-0.0000 -9.6610 -2.5014 0.9609
0.3890 -9.6531 -2.5014 0.9609
2.3120 -9.3802 -2.5014 0.9609
3.0593 -9.1638 -2.5014 0.9609
4.1416 -8.7282 -2.5014 0.9609
4.8305 -8.3666 -2.5014 0.9609
5.4880 -7.9508 -2.5014 0.9609
5.8037 -7.7234 -2.5014 0.9609
6.1100 -7.4834 -2.5014 0.9609
6.4064 -7.2313 -2.5014 0.9609
7.2313 -6.4064 -2.5014 0.9609
7.4834 -6.1100 -2.5014 0.9609
7.7234 -5.8038 -2.5014 0.9609
7.9508 -5.4881 -2.5014 0.9609
8.1653 -5.1635 -2.5014 0.9609
8.3666 -4.8305 -2.5014 0.9609
5.0910 -2.4157 -1.4590 0.9770
4.9825 -2.1228 -1.4023 0.9779
5.1223 -1.4837 -1.3808 0.9782
5.2122 -1.2847 -1.3899 0.9781
5.8041 -0.9433 -1.5225 0.9760
9.6296 -0.7774 -2.5014 0.9609
9.6531 -0.3890 -2.5014 0.9609
9.6609 0.0000 -2.5014 0.9609
9.6296 0.7774 -2.5014 0.9609
8.8891 1.8147 -2.3490 0.9632
8.7213 2.5262 -2.3509 0.9632
8.4965 3.2223 -2.3528 0.9631
8.3632 3.5632 -2.3537 0.9631
8.0514 4.2257 -2.3543 0.9631
7.8747 4.5465 -2.3543 0.9631
7.6853 4.8599 -2.3543 0.9631
3.5037 2.6329 -1.1348 0.9821
3.2343 2.8654 -1.1188 0.9823
5.6229 5.4009 -2.0187 0.9683
5.1714 5.3840 -1.9329 0.9696
4.8019 5.4202 -1.8749 0.9705
4.5141 5.5287 -1.8480 0.9709
4.1863 5.5709 -1.8043 0.9716
3.6364 5.2681 -1.6574 0.9739
3.1673 5.4859 -1.6401 0.9742
2.0473 5.3983 -1.4949 0.9764
1.5907 5.4916 -1.4803 0.9767
0.8766 5.3939 -1.4149 0.9777
0.6690 5.5098 -1.4371 0.9773
0.4324 5.3556 -1.3912 0.9780
0.2146 5.3243 -1.3797 0.9782
0.0000 5.1929 -1.3446 0.9788
-0.2112 5.2409 -1.3581 0.9786
-0.4466 5.5319 -1.4370 0.9773
-0.6456 5.3167 -1.3867 0.9781
-0.8574 5.2758 -1.3839 0.9782
-1.3784 5.5923 -1.4913 0.9765
-2.7455 5.2312 -1.5297 08.8829 -3.7846 -2.5000 0.9609
-8.7233 -4.1392 -2.5000 0.9609
-8.3619 -4.8278 -2.5000 0.9609
-8.1608 -5.1606 -2.5000 0.9609
-7.9463 -5.4850 -2.5000 0.9609
-7.7190 -5.8005 -2.5000 0.9609
-7.4792 -6.1066 -2.5000 0.9609
-7.2273 -6.4028 -2.5000 0.9609
-6.9636 -6.6886 -2.5000 0.9609
-6.6886 -6.9636 -2.5000 0.9609
-6.4028 -7.2272 -2.5000 0.9609
-5.4850 -7.9463 -2.5000 0.9609
-5.1606 -8.1608 -2.5000 0.9609
-4.8278 -8.3619 -2.5000 0.9609
-4.4872 -8.5495 -2.5000 0.9609
-3.7847 -8.8829 -2.5000 0.9609
-3.0576 -9.1586 -2.5000 0.9609
-2.6863 -9.2743 -2.5000 0.9609
-2.3107 -9.3749 -2.5000 0.9609
-1.9314 -9.4604 -2.5000 0.9609
-0.3888 -9.6477 -2.5000 0.9609
0.3888 -9.6477 -2.5000 0.9609
0.7769 -9.6242 -2.5000 0.9609
1.9313 -9.4604 -2.5000 0.9609
2.3107 -9.3749 -2.5000 0.9609
2.6864 -9.2743 -2.5000 0.9609
3.0576 -9.1586 -2.5000 0.9609
4.1392 -8.7233 -2.5000 0.9609
4.4871 -8.5496 -2.5000 0.9609
4.8277 -8.3619 -2.5000 0.9609
6.4028 -7.2273 -2.5000 0.9609
6.6886 -6.9636 -2.5000 0.9609
6.9636 -6.6886 -2.5000 0.9609
8.1607 -5.1605 -2.5000 0.9609
8.3619 -4.8278 -2.5000 0.9609
8.5495 -4.4871 -2.5000 0.9609
8.8829 -3.7846 -2.5000 0.9609
9.1586 -3.0576 -2.5000 0.9609
9.2743 -2.6863 -2.5000 0.9609
9.3749 -2.3107 -2.5000 0.9609
9.4604 -1.9314 -2.5000 0.9609
8.4915 -0.6855 -2.2058 0.9654
8.4397 -0.3401 -2.1870 0.9657
8.4869 0.6851 -2.2046 0.9654
9.5851 1.1638 -2.5000 0.9609
9.5305 1.5489 -2.5000 0.9609
9.3749 2.3107 -2.5000 0.9609
9.2743 2.6863 -2.5000 0.9609
8.6003 2.8712 -2.3476 0.9632
8.3413 3.5539 -2.3476 0.9632
8.1915 3.8869 -2.3476 0.9632
7.8521 4.5335 -2.3476 0.9632
7.2485 5.4469 -2.3476 0.9632
6.7867 6.0125 -2.3476 0.9632
6.5391 6.2809 -2.3476 0.9632
6.0125 6.7867 -2.3476 0.9632
5.7254 7.0123 -2.3439 0.9633
5.1081 7.4004 -2.3282 0.9635
4.8052 7.5988 -2.3278 0.9635
4.4950 7.7855 -2.3277 0.9635
4.1781 7.9607 -2.3278 0.9635
3.8543 8.1229 -2.3279 0.9635
3.4714 8.1476 -2.2931 0.9641
3.0914 8.1515 -2.2573 0.9646
1.7982 8.8079 -2.3276 0.9635
-1.2741 7.8398 -2.0565 0.9677
-1.6003 7.8384 -2.0714 0.9675
-1.9317 7.8371 -2.0899 0.9672
-2.0494 7.0754 -1.9072 0.9700
-2.8388 8.5033 -2.3211 0.9636
-3.1781 8.3799 -2.3205 0.9636
-3.8394 8.0913 -2.3189 0.9637
-4.1606 7.9274 -2.3181 0.9637
-4.7839 7.5651 -2.3175 0.9637
-5.4019 7.1886 -2.3282 0.9635
-6.2809 6.5391 -2.3476 0.9632
-6.5391 6.2809 -2.3476 0.9632
-7.6633 4.8459 -2.3476 0.9632
-7.8522 4.5335 -2.3476 0.9632
-8.0284 4.2136 -2.3476 0.9632
-8.1915 3.8869 -2.3476 0.9632
-8.3414 3.5539 -2.3476 0.9632
-8.4777 3.2152 -2.3476 0.9632
-9.1586 3.0576 -2.5000 0.9609
-8.8310 0.0000 -2.5000 0.9640
-8.8238 -0.3556 -2.5000 0.9640
-8.8023 -0.7106 -2.5000 0.9640
-8.7666 -1.0645 -2.5000 0.9640
-8.6525 -1.7664 -2.5000 0.9640
-8.5744 -2.1134 -2.5000 0.9640
-8.4823 -2.4569 -2.5000 0.9640
-8.3765 -2.7965 -2.5000 0.9640
-7.8195 -4.1040 -2.5000 0.9640
-7.6479 -4.4155 -2.5000 0.9640
-7.4639 -4.7199 -2.5000 0.9640
-7.0599 -5.3051 -2.5000 0.9640
-6.8405 -5.5851 -2.5000 0.9640
-6.6101 -5.8560 -2.5000 0.9640
-6.3689 -6.1174 -2.5000 0.9640
-5.8560 -6.6101 -2.5000 0.9640
-5.5851 -6.8405 -2.5000 0.9640
-4.7199 -7.4638 -2.5000 0.9640
-4.4155 -7.6479 -2.5000 0.9640
-4.1040 -7.8194 -2.5000 0.9640
-3.7858 -7.9783 -2.5000 0.9640
-3.4615 -8.1243 -2.5000 0.9640
-2.4569 -8.4823 -2.5000 0.9640
-1.4166 -8.7166 -2.5000 0.9640
-1.0645 -8.7666 -2.5000 0.9640
-0.7106 -8.8023 -2.5000 0.9640
-0.0000 -8.8310 -2.5000 0.9640
1.4166 -8.7166 -2.5000 0.9640
2.1134 -8.5744 -2.5000 0.9640
2.4569 -8.4823 -2.5000 0.9640
2.7965 -8.3765 -2.5000 0.9640
3.4614 -8.1243 -2.5000 0.9640
3.7857 -7.9784 -2.5000 0.9640
4.1039 -7.8194 -2.5000 0.9640
4.4155 -7.6479 -2.5000 0.9640
4.7198 -7.4639 -2.5000 0.9640
5.0166 -7.2677 -2.5000 0.9640
5.5851 -6.8405 -2.5000 0.9640
6.3689 -6.1174 -2.5000 0.9640
6.6101 -5.8560 -2.5000 0.9640
7.4638 -4.7199 -2.5000 0.9640
7.6478 -4.4155 -2.5000 0.9640
7.9783 -3.7858 -2.5000 0.9640
8.5743 -2.1134 -2.5000 0.9640
8.6525 -1.7664 -2.5000 0.9640
8.7666 -1.0645 -2.5000 0.9640
8.8023 0.7106 -2.5000 0.9640
8.7166 1.4166 -2.5000 0.9640
8.5743 2.1134 -2.5000 0.9640
8.4823 2.4569 -2.5000 0.9640
7.7537 2.9406 -2.3476 0.9661
7.6290 3.2504 -2.3476 0.9661
7.3428 3.8538 -2.3476 0.9661
7.0088 4.4321 -2.3476 0.9661
6.4235 5.2446 -2.3476 0.9661
5.9807 5.7445 -2.3476 0.9661
5.7445 5.9807 -2.3476 0.9661
5.4990 6.2071 -2.3476 0.9661
5.2446 6.4235 -2.3476 0.9661
4.9817 6.6295 -2.3476 0.9661
4.7107 6.8247 -2.3476 0.9661
4.4282 7.0027 -2.3455 0.9661
3.5231 7.4247 -2.3265 0.9664
3.2207 7.5593 -2.3261 0.9664
2.6013 7.7918 -2.3255 0.9664
2.2854 7.8900 -2.3254 0.9664
1.9657 7.9752 -2.3253 0.9664
1.6429 8.0473 -2.3251 0.9664
0.9290 7.6514 -2.1820 0.9685
-0.0000 7.6552 -2.1671 0.9687
-0.2854 7.0800 -2.0059 0.9710
-0.9295 7.6551 -2.1830 0.9685
-1.2439 7.6538 -2.1952 0.9683
-2.0518 7.0836 -2.0877 0.9698
-2.9054 7.6610 -2.3195 0.9665
-3.2112 7.5369 -2.3192 0.9665
-3.5116 7.4006 -2.3189 0.9665
-4.1238 7.1425 -2.3348 0.9663
-4.4319 7.0087 -2.3475 0.9661
-4.7108 6.8247 -2.3476 0.9661
-5.4990 6.2071 -2.3476 0.9661
-5.7445 5.9807 -2.3476 0.9661
-5.9807 5.7445 -2.3476 0.9661
-6.4235 5.2446 -2.3476 0.9661
-6.6295 4.9817 -2.3476 0.9661
-6.8247 4.7108 -2.3476 0.9661
-7.6291 3.2504 -2.3476 0.9661
-7.7538 2.9406 -2.3476 0.9661
-8.3765 2.7965 -2.5000 0.9640
-8.4823 2.4569 -2.5000 0.9640
-8.5744 2.1134 -2.5000 0.9640
-8.6525 1.7664 -2.5000 0.9640
-8.7666 1.0645 -2.5000 0.9640
-8.8024 0.7106 -2.5000 0.9640
-8.8238 0.3556 -2.5000 0.9640
-8.1280 0.0000 -2.5000 0.9666
-8.1016 -0.6540 -2.5000 0.9666
-8.0227 -1.3038 -2.5000 0.9666
-7.9637 -1.6258 -2.5000 0.9666
-7.8071 -2.2614 -2.5000 0.9666
-7.7097 -2.5739 -2.5000 0.9666
-7.0390 -4.0640 -2.5000 0.9666
-6.6892 -4.6172 -2.5000 0.9666
-6.4979 -4.8828 -2.5000 0.9666
-6.2960 -5.1405 -2.5000 0.9666
-6.0839 -5.3898 -2.5000 0.9666
-5.8619 -5.6304 -2.5000 0.9666
-5.6305 -5.8619 -2.5000 0.9666
-5.1405 -6.2960 -2.5000 0.9666
-4.8828 -6.4978 -2.5000 0.9666
-4.0640 -7.0390 -2.5000 0.9666
-1.9452 -7.8918 -2.5000 0.9666
-1.6258 -7.9637 -2.5000 0.9666
-0.3273 -8.1214 -2.5000 0.9666
-0.0000 -8.1279 -2.5000 0.9666
0.6540 -8.1016 -2.5000 0.9666
0.9797 -8.0687 -2.5000 0.9666
1.3038 -8.0227 -2.5000 0.9666
1.9451 -7.8918 -2.5000 0.9666
2.2613 -7.8071 -2.5000 0.9666
5.1405 -6.2960 -2.5000 0.9666
5.8619 -5.6304 -2.5000 0.9666
6.0838 -5.3898 -2.5000 0.9666
6.6892 -4.6172 -2.5000 0.9666
7.5997 -2.8822 -2.5000 0.9666
7.8918 -1.9451 -2.5000 0.9666
8.1016 -0.6540 -2.5000 0.9666
8.1213 -0.3273 -2.5000 0.9666
8.1279 0.0000 -2.5000 0.9666
8.1213 0.3273 -2.5000 0.9666
8.0687 0.9797 -2.5000 0.9666
7.8918 1.9451 -2.5000 0.9666
7.8070 2.2613 -2.5000 0.9666
7.7096 2.5739 -2.5000 0.9666
7.1800 2.7230 -2.3619 0.9684
7.0217 2.9917 -2.3476 0.9686
6.6099 3.8162 -2.3476 0.9686
6.4509 4.0793 -2.3476 0.9686
6.1017 4.5851 -2.3476 0.9686
5.9121 4.8271 -2.3476 0.9686
5.7130 5.0612 -2.3476 0.9686
5.5046 5.2872 -2.3476 0.9686
5.0613 5.7130 -2.3476 0.9686
4.8271 5.9122 -2.3476 0.9686
4.3357 6.2814 -2.3476 0.9686
3.8162 6.6099 -2.3476 0.9686
3.5470 6.7582 -2.3476 0.9686
3.2720 6.8956 -2.3476 0.9686
2.9884 7.0140 -2.3450 0.9686
2.3941 7.1712 -2.3254 0.9689
2.1031 7.2607 -2.3250 0.9689
1.8087 7.3384 -2.3247 0.9689
1.1521 7.0890 -2.2090 0.9704
0.9083 7.4809 -2.3179 0.9690
0.3015 7.4834 -2.3036 0.9691
-0.2856 7.0880 -2.1819 0.9707
-0.5722 7.0880 -2.1872 0.9707
-0.9088 7.4846 -2.3190 0.9689
-1.2107 7.4496 -2.3214 0.9689
-1.8057 7.3262 -2.3208 0.9689
-2.3964 7.1782 -2.3276 0.9688
-4.0793 6.4509 -2.3476 0.9686
-4.3358 6.2814 -2.3476 0.9686
-4.5852 6.1017 -2.3476 0.9686
-2.8027 3.4327 -1.3631 0.9816
-5.5046 5.2872 -2.3476 0.9686
-5.9122 4.8271 -2.3476 0.9686
-6.6099 3.8162 -2.3476 0.9686
-6.7582 3.5470 -2.3476 0.9686
-6.8956 3.2720 -2.3476 0.9686
-7.0217 2.9917 -2.3476 0.9686
-7.1720 2.7199 -2.3592 0.9684
-7.7097 2.5738 -2.5000 0.9666
-7.8071 2.2613 -2.5000 0.9666
-7.9637 1.6258 -2.5000 0.9666
-8.0227 1.3038 -2.5000 0.9666
-8.1016 0.6540 -2.5000 0.9666
-7.5148 -0.3028 -2.5000 0.9688
-7.4661 -0.9066 -2.5000 0.9688
-7.3689 -1.5044 -2.5000 0.9688
-7.2240 -2.0925 -2.5000 0.9688
-6.9191 -2.9479 -2.5000 0.9688
-6.7948 -3.2242 -2.5000 0.9688
-6.6594 -3.4951 -2.5000 0.9688
-6.5133 -3.7604 -2.5000 0.9688
-5.4241 -5.2099 -2.5000 0.9688
-5.2099 -5.4241 -2.5000 0.9688
-4.0197 -6.3566 -2.5000 0.9688
-3.7604 -6.5133 -2.5000 0.9688
-3.4951 -6.6594 -2.5000 0.9688
-3.2242 -6.7948 -2.5000 0.9688
-2.9479 -6.9191 -2.5000 0.9688
-2.3816 -7.1338 -2.5000 0.9688
-1.7999 -7.3023 -2.5000 0.9688
-1.5044 -7.3689 -2.5000 0.9688
-1.2065 -7.4235 -2.5000 0.9688
-0.9066 -7.4660 -2.5000 0.9688
-0.6052 -7.4965 -2.5000 0.9688
2.3816 -7.1338 -2.5000 0.9688
2.6669 -7.0321 -2.5000 0.9688
3.7604 -6.5133 -2.5000 0.9688
4.0196 -6.3566 -2.5000 0.9688
4.2723 -6.1896 -2.5000 0.9688
5.2099 -5.4241 -2.5000 0.9688
5.4241 -5.2099 -2.5000 0.9688
6.5133 -3.7604 -2.5000 0.9688
6.6594 -3.4951 -2.5000 0.9688
6.9190 -2.9479 -2.5000 0.9688
7.2239 -2.0924 -2.5000 0.9688
7.3689 -1.5044 -2.5000 0.9688
7.4660 -0.9066 -2.5000 0.9688
7.4965 -0.6052 -2.5000 0.9688
7.5148 -0.3028 -2.5000 0.9688
7.5148 0.3028 -2.5000 0.9688
7.4965 0.6052 -2.5000 0.9688
7.4660 0.9065 -2.5000 0.9688
7.4235 1.2064 -2.5000 0.9688
7.3023 1.7999 -2.5000 0.9688
7.2239 2.0924 -2.5000 0.9688
6.4973 2.7682 -2.3476 0.9707
6.3805 3.0276 -2.3476 0.9707
6.2534 3.2821 -2.3476 0.9707
6.1162 3.5312 -2.3476 0.9707
5.9691 3.7746 -2.3476 0.9707
5.8122 4.0119 -2.3476 0.9707
5.6460 4.2427 -2.3476 0.9707
5.4706 4.4666 -2.3476 0.9707
5.2863 4.6832 -2.3476 0.9707
4.6832 5.2863 -2.3476 0.9707
4.4666 5.4706 -2.3476 0.9707
4.2427 5.6460 -2.3476 0.9707
3.5312 6.1162 -2.3476 0.9707
3.2820 6.2534 -2.3476 0.9707
3.0276 6.3805 -2.3476 0.9707
2.5043 6.6035 -2.3476 0.9707
1.6901 6.8572 -2.3476 0.9707
1.4127 6.9197 -2.3476 0.9707
1.1328 6.9708 -2.3475 0.9707
0.8509 7.0081 -2.3466 0.9707
-0.0000 7.0481 -2.3428 0.9707
-0.5677 7.0313 -2.3448 0.9707
-2.5044 6.6035 -2.3476 0.9707
-2.7683 6.4973 -2.3476 0.9707
-3.2821 6.2534 -2.3476 0.9707
-4.0119 5.8122 -2.3476 0.9707
-4.2427 5.6460 -2.3476 0.9707
-2.8027 3.4327 -1.4731 0.9815
-5.0934 4.8923 -2.3476 0.9707
-5.2863 4.6832 -2.3476 0.9707
-5.4706 4.4666 -2.3476 0.9707
-5.6460 4.2427 -2.3476 0.9707
-5.8122 4.0119 -2.3476 0.9707
-5.9691 3.7746 -2.3476 0.9707
-6.1162 3.5312 -2.3476 0.9707
-6.3806 3.0276 -2.3476 0.9707
-6.4973 2.7682 -2.3476 0.9707
-7.0322 2.6669 -2.5000 0.9688
-7.1338 2.3816 -2.5000 0.9688
-7.2240 2.0924 -2.5000 0.9688
-7.3689 1.5044 -2.5000 0.9688
-7.4235 1.2064 -2.5000 0.9688
-7.4661 0.9065 -2.5000 0.9688
-7.4965 0.6052 -2.5000 0.9688
-7.5148 0.3028 -2.5000 0.9688
-6.9909 0.0000 -2.5000 0.9707
-6.9852 -0.2815 -2.5000 0.9707
-6.9682 -0.5625 -2.5000 0.9707
-6.8496 -1.3984 -2.5000 0.9707
-6.7877 -1.6730 -2.5000 0.9707
-6.7149 -1.9450 -2.5000 0.9707
-6.6311 -2.2138 -2.5000 0.9707
-6.5366 -2.4790 -2.5000 0.9707
-6.4315 -2.7402 -2.5000 0.9707
-6.3159 -2.9969 -2.5000 0.9707
-5.7534 -3.9713 -2.5000 0.9707
-5.4152 -4.4213 -2.5000 0.9707
-4.6358 -5.2327 -2.5000 0.9707
-4.4214 -5.4152 -2.5000 0.9707
-4.1997 -5.5888 -2.5000 0.9707
-3.9713 -5.7534 -2.5000 0.9707
-3.7364 -5.9086 -2.5000 0.9707
-3.4954 -6.0543 -2.5000 0.9707
-2.4790 -6.5366 -2.5000 0.9707
-2.2138 -6.6311 -2.5000 0.9707
-1.9450 -6.7149 -2.5000 0.9707
-1.6730 -6.7877 -2.5000 0.9707
-1.1214 -6.9003 -2.5000 0.9707
-0.5626 -6.9682 -2.5000 0.9707
-0.2815 -6.9852 -2.5000 0.9707
0.8426 -6.9399 -2.5000 0.9707
1.6730 -6.7877 -2.5000 0.9707
2.4790 -6.5366 -2.5000 0.9707
2.7402 -6.4315 -2.5000 0.9707
2.9969 -6.3159 -2.5000 0.9707
3.2488 -6.1901 -2.5000 0.9707
3.7364 -5.9086 -2.5000 0.9707
4.4213 -5.4152 -2.5000 0.9707
4.8427 -5.0418 -2.5000 0.9707
5.4151 -4.4214 -2.5000 0.9707
5.9086 -3.7364 -2.5000 0.9707
6.0542 -3.4954 -2.5000 0.9707
6.1901 -3.2488 -2.5000 0.9707
6.3159 -2.9969 -2.5000 0.9707
6.4314 -2.7402 -2.5000 0.9707
6.5365 -2.4790 -2.5000 0.9707
6.7149 -1.9450 -2.5000 0.9707
6.7877 -1.6730 -2.5000 0.9707
6.9399 -0.8427 -2.5000 0.9707
6.9852 0.2815 -2.5000 0.9707
6.7877 1.6730 -2.5000 0.9707
6.7149 1.9450 -2.5000 0.9707
6.6311 2.2138 -2.5000 0.9707
5.9309 2.8142 -2.3476 0.9725
5.8127 3.0508 -2.3476 0.9725
5.5484 3.5086 -2.3476 0.9725
5.2481 3.9437 -2.3476 0.9725
5.0850 4.1518 -2.3476 0.9725
4.7345 4.5475 -2.3476 0.9725
4.5475 4.7345 -2.3476 0.9725
4.3532 4.9137 -2.3476 0.9725
3.7292 5.4026 -2.3476 0.9725
3.2823 5.6852 -2.3476 0.9725
3.0507 5.8127 -2.3476 0.9725
2.8142 5.9309 -2.3476 0.9725
2.3279 6.1381 -2.3476 0.9725
2.0788 6.2269 -2.3476 0 0.9724
-0.2628 -6.5220 -2.5014 0.9724
-0.0000 -6.5273 -2.5014 0.9724
0.2628 -6.5221 -2.5014 0.9724
0.5252 -6.5062 -2.5014 0.9724
1.3056 -6.3954 -2.5014 0.9724
1.8160 -6.2696 -2.5014 0.9724
2.7982 -5.8971 -2.5014 0.9724
3.0334 -5.7797 -2.5014 0.9724
3.2637 -5.6528 -2.5014 0.9724
3.7079 -5.3719 -2.5014 0.9724
3.9212 -5.2182 -2.5014 0.9724
4.1282 -5.0561 -2.5014 0.9724
4.3284 -4.8858 -2.5014 0.9724
4.5216 -4.7075 -2.5014 0.9724
4.8858 -4.3284 -2.5014 0.9724
5.0561 -4.1282 -2.5014 0.9724
5.2182 -3.9212 -2.5014 0.9724
5.3719 -3.7079 -2.5014 0.9724
5.6528 -3.2637 -2.5014 0.9724
4.7790 -2.5082 -2.0683 0.9771
4.7283 -2.2436 -2.0056 0.9778
4.7396 -1.7975 -1.9425 0.9785
4.7710 -1.5928 -1.9275 0.9787
4.8171 -1.3953 -1.9219 0.9787
4.8792 -1.2026 -1.9258 0.9787
4.9768 -1.0160 -1.9465 0.9785
6.4797 -0.7868 -2.5014 0.9724
6.5062 -0.5252 -2.5014 0.9724
6.4797 0.7868 -2.5014 0.9724
6.3954 1.3056 -2.5014 0.9724
6.2392 1.5378 -2.4625 0.9728
5.9024 1.7096 -2.3549 0.9740
5.7343 2.1748 -2.3502 0.9741
5.1900 3.2820 -2.3532 0.9740
3.2302 2.8617 -1.6538 0.9817
4.4308 4.2558 -2.3543 0.9740
4.2558 4.4308 -2.3543 0.9740
4.0739 4.5985 -2.3543 0.9740
3.8855 4.7589 -2.3543 0.9740
3.6907 4.9114 -2.3543 0.9740
3.4899 5.0561 -2.3543 0.9740
3.2835 5.1925 -2.3543 0.9740
3.0718 5.3205 -2.3543 0.9740
2.6102 5.5008 -2.3333 0.9743
2.0064 5.2904 -2.1683 0.9761
1.2985 5.2682 -2.0793 0.9770
0.8780 5.4020 -2.0973 0.9768
0.4387 5.4343 -2.0893 0.9769
0.2148 5.3294 -2.0440 0.9774
0.0000 5.3484 -2.0496 0.9773
-0.4419 5.4745 -2.1047 0.9767
-0.8658 5.3277 -2.0684 0.9771
-1.0974 5.3754 -2.1024 0.9768
-1.3726 5.5687 -2.1979 0.9757
-1.5869 5.4787 -2.1858 0.9759
-2.0203 5.3271 -2.1833 0.9759
-2.3864 5.6010 -2.3331 0.9743
-3.0718 5.3205 -2.3543 0.9740
-3.2835 5.1925 -2.3543 0.9740
-3.8855 4.7589 -2.3543 0.9740
-4.7588 3.8855 -2.3543 0.9740
-4.9114 3.6907 -2.3543 0.9740
-5.1904 3.2822 -2.3534 0.9740
-5.3170 3.0698 -2.3528 0.9740
-5.4275 2.8486 -2.3490 0.9741
-5.5378 2.6277 -2.3490 0.9741
-5.7313 2.1736 -2.3490 0.9741
-5.8876 1.7054 -2.3490 0.9741
-3.5921 0.4362 -1.3867 0.9846
-3.5687 0.2881 -1.3720 0.9848
-2.8160 0.0000 -1.1525 0.9879
-2.8096 -0.2268 -1.1536 0.9879
-2.9323 -0.3560 -1.2089 0.9873
-3.0070 -0.6139 -1.2561 0.9868
-5.8705 -1.7004 -2.5014 0.9739
-5.6227 -2.3954 -2.5014 0.9739
-5.5217 -2.6201 -2.5014 0.9739
-5.2930 -3.0559 -2.5014 0.9739
-5.1656 -3.2665 -2.5014 0.9739
-4.7342 -3.8654 -2.5014 0.9739
-4.5747 -4.0529 -2.5014 0.9739
-4.2338 -4.4078 -2.5014 0.9739
-3.6716 -4.8860 -2.5014 0.9739
-2.8403 -5.4117 -2.5014 0.9739
-2.3956 -5.6227 -2.5014 0.9739
-2.1673 -5.7146 -2.5014 0.9739
-1.4627 -5.9342 -2.5014 0.9739
-1.2225 -5.9883 -2.5014 0.9739
-0.9804 -6.0326 -2.5014 0.9739
-0.4918 -6.0920 -2.5014 0.9739
-0.0000 -6.1118 -2.5014 0.9739
0.2461 -6.1068 -2.5014 0.9739
0.7367 -6.0672 -2.5014 0.9739
1.2225 -5.9883 -2.5014 0.9739
1.7004 -5.8705 -2.5014 0.9739
2.6201 -5.5217 -2.5014 0.9739
3.0559 -5.2930 -2.5014 0.9739
3.2665 -5.1656 -2.5014 0.9739
3.6716 -4.8860 -2.5014 0.9739
3.8654 -4.7342 -2.5014 0.9739
4.0529 -4.5747 -2.5014 0.9739
4.2338 -4.4078 -2.5014 0.9739
4.5747 -4.0528 -2.5014 0.9739
4.7342 -3.8654 -2.5014 0.9739
5.0299 -3.4719 -2.5014 0.9739
5.1656 -3.2665 -2.5014 0.9739
5.2929 -3.0559 -2.5014 0.9739
4.7315 -2.4833 -2.1870 0.9772
4.7057 -2.2329 -2.1317 0.9777
4.7122 -2.0077 -2.0963 0.9781
4.7661 -1.5911 -2.0565 0.9785
4.8117 -1.3937 -2.0503 0.9786
5.1209 -0.8322 -2.1234 0.9778
6.0919 -0.4918 -2.5014 0.9739
6.1068 -0.2461 -2.5014 0.9739
6.1118 0.0000 -2.5014 0.9739
6.0672 0.7367 -2.5014 0.9739
6.0326 0.9804 -2.5014 0.9739
5.9342 1.4626 -2.5014 0.9739
5.5128 1.5968 -2.3490 0.9755
5.4447 1.8177 -2.3493 0.9755
5.0876 2.6702 -2.3516 0.9755
4.9771 2.8736 -2.3521 0.9755
4.8585 3.0723 -2.3527 0.9755
3.3182 2.7093 -1.7532 0.9817
4.1487 3.9849 -2.3543 0.9754
3.8146 4.3058 -2.3543 0.9754
3.4557 4.5988 -2.3543 0.9754
2.8762 4.9817 -2.3543 0.9754
2.6733 5.0935 -2.3543 0.9754
2.2548 5.2921 -2.3543 0.9754
2.0398 5.3786 -2.3543 0.9754
1.5988 5.5194 -2.3518 0.9755
1.2977 5.2647 -2.2192 0.9768
1.0602 5.1932 -2.1693 0.9774
0.8928 5.4935 -2.2778 0.9762
0.4393 5.4411 -2.2342 0.97670.0.2198 5.4546 -2.2343 0.9767
0.0000 5.3118 -2.1740 0.9773
-0.2124 5.2715 -2.1592 0.9775
-0.6458 5.3183 -2.1926 0.9771
-1.1386 5.5774 -2.3298 0.9757
-1.3766 5.5853 -2.3543 0.9754
-1.5731 5.4310 -2.3141 0.9759
-1.7827 5.3397 -2.3040 0.9760
-2.0265 5.3434 -2.3389 0.9756
-2.2548 5.2921 -2.3543 0.9754
-2.4660 5.1971 -2.3543 0.9754
-2.6733 5.0935 -2.3543 0.9754
-2.8762 4.9818 -2.3543 0.9754
-3.0745 4.8619 -2.3543 0.9754
-3.2678 4.7342 -2.3543 0.9754
-3.4557 4.5988 -2.3543 0.9754
-3.6381 4.4559 -2.3543 0.9754
-4.1487 3.9849 -2.3543 0.9754
-4.5978 3.4550 -2.3538 0.9754
-4.8588 3.0725 -2.3528 0.9755
-5.0879 2.6704 -2.3517 0.9755
-5.1901 2.4627 -2.3512 0.9755
-5.2838 2.2512 -2.3506 0.9755
-5.3688 2.0361 -2.3500 0.9755
-5.5128 1.5968 -2.3490 0.9755
-5.9342 1.4627 -2.5014 0.9739
-3.0246 0.4916 -1.2541 0.9868
-2.8204 0.1137 -1.1552 0.9879
-2.3649 -0.1909 -1.0340 0.9897
-5.1854 -2.4605 -2.5014 0.9753
-5.0821 -2.6673 -2.5014 0.9753
-4.8510 -3.0676 -2.5014 0.9753
-4.4459 -3.6300 -2.5014 0.9753
-4.1394 -3.9759 -2.5014 0.9753
-3.8060 -4.2961 -2.5014 0.9753
-3.4480 -4.5885 -2.5014 0.9753
-3.2604 -4.7236 -2.5014 0.9753
-2.6673 -5.0821 -2.5014 0.9753
-2.4605 -5.1854 -2.5014 0.9753
-2.2497 -5.2803 -2.5014 0.9753
-1.8175 -5.4442 -2.5014 0.9753
-1.3736 -5.5728 -2.5014 0.9753
-1.1481 -5.6236 -2.5014 0.9753
-0.9207 -5.6652 -2.5014 0.9753
-0.6918 -5.6977 -2.5014 0.9753
-0.2311 -5.7349 -2.5014 0.9753
0.0000 -5.7396 -2.5014 0.9753
0.4618 -5.7209 -2.5014 0.9753
0.9207 -5.6652 -2.5014 0.9753
1.3736 -5.5728 -2.5014 0.9753
1.5968 -5.5129 -2.5014 0.9753
2.0353 -5.3666 -2.5014 0.9753
2.4605 -5.1854 -2.5014 0.9753
2.6673 -5.0821 -2.5014 0.9753
3.2604 -4.7236 -2.5014 0.9753
3.8060 -4.2961 -2.5014 0.9753
4.2961 -3.8060 -2.5014 0.9753
4.5884 -3.4480 -2.5014 0.9753
4.7236 -3.2604 -2.5014 0.9753
4.8510 -3.0676 -2.5014 0.9753
5.0821 -2.6673 -2.5014 0.9753
5.1854 -2.4605 -2.5014 0.9753
5.2803 -2.2497 -2.5014 0.9753
4.8160 -1.3950 -2.1851 0.9784
5.0878 -0.8268 -2.2464 0.9778
5.7209 -0.4618 -2.5014 0.9753
5.7349 -0.2311 -2.5014 0.9753
5.7349 0.2311 -2.5014 0.9753
5.7209 0.4618 -2.5014 0.9753
5.6652 0.9207 -2.5014 0.9753
5.5728 1.3736 -2.5014 0.9753
5.0409 1.9117 -2.3496 0.9768
4.9609 2.1137 -2.3501 0.9767
4.8729 2.3122 -2.3507 0.9767
4.7769 2.5071 -2.3512 0.9767
4.6731 2.6980 -2.3517 0.9767
3.4934 2.6251 -1.9044 0.9811
3.3173 2.7085 -1.8664 0.9815
3.2285 2.8602 -1.8798 0.9814
3.8960 3.7422 -2.3543 0.9767
3.5823 4.0435 -2.3543 0.9767
3.4165 4.1845 -2.3543 0.9767
3.2453 4.3187 -2.3543 0.9767
3.0687 4.4458 -2.3543 0.9767
2.5105 4.7833 -2.3543 0.9767
2.3158 4.8805 -2.3543 0.9767
2.1174 4.9698 -2.3543 0.9767
1.9156 5.0511 -2.3543 0.9767
1.5030 5.1888 -2.3543 0.9767
0.8666 5.3322 -2.3543 0.9767
0.6511 5.3627 -2.3543 0.9767
0.4347 5.3846 -2.3543 0.9767
0.2162 5.3650 -2.3401 0.9768
-0.2134 5.2962 -2.3100 0.9771
-0.4347 5.3846 -2.3543 0.9767
-0.6512 5.3627 -2.3543 0.9767
-1.0806 5.2929 -2.3543 0.9767
-1.5030 5.1888 -2.3543 0.9767
-1.7107 5.1241 -2.3543 0.9767
-1.9156 5.0511 -2.3543 0.9767
-2.1174 4.9698 -2.3543 0.9767
-2.5105 4.7833 -2.3543 0.9767
-2.7011 4.6784 -2.3543 0.9767
-2.8873 4.5658 -2.3543 0.9767
-3.0687 4.4458 -2.3543 0.9767
-2.1822 2.2720 -1.3729 0.9863
-4.0433 3.5821 -2.3542 0.9767
-4.3168 3.2439 -2.3533 0.9767
-4.5619 2.8848 -2.3523 0.9767
-4.7772 2.5073 -2.3513 0.9767
-4.8732 2.3124 -2.3508 0.9767
-4.9612 2.1138 -2.3503 0.9767
-5.0412 1.9119 -2.3497 0.9767
-5.1129 1.7069 -2.3492 0.9768
-5.5728 1.3736 -2.5014 0.9753
-2.4021 0.3904 -1.0606 0.9894
-2.3794 0.2889 -1.0446 0.9896
-2.3670 0.0954 -1.0324 0.9897
-2.2030 0.0000 -1.0198 0.9903
-2.2080 -0.2681 -1.0295 0.9902
-4.9715 -2.1182 -2.5014 0.9765
-4.8822 -2.3166 -2.5014 0.9765
-4.5673 -2.8882 -2.5014 0.9765
-4.4473 -3.0698 -2.5014 0.9765
-4.3201 -3.2464 -2.5014 0.9765
-4.0449 -3.5835 -2.5014 0.9765
-3.8973 -3.7434 -2.5014 0.9765
-3.7434 -3.8973 -2.5014 0.9765
-3.5835 -4.0449 -2.5014 0.9765
-3.4177 -4.1859 -2.5014 0.9765
-3.2464 -4.3201 -2.5014 0.9765
-2.8882 -4.5673 -2.5014 0.9765
-2.7020 -4.6799 -2.5014 0.9765
-2.3166 -4.8822 -2.5014 0.9765
-2.1182 -4.9715 -2.5014 0.9765
-1.9163 -5.0528 -2.5014 0.9765
-1.5035 -5.1906 -2.5014 0.9765
