ply
format ascii 1.0
element vertex 1583
property float32 x
property float32 y
property float32 z
property float32 I
end_header
-15.0292 -21.7735 -2.5400 0.8991
-11.3418 -23.9024 -2.5400 0.8991
-10.3702 -24.3397 -2.5400 0.8991
-8.3780 -25.0953 -2.5400 0.8991
-7.3607 -25.4122 -2.5400 0.8991
-5.9519 -24.1477 -2.3877 0.9049
-3.0008 -14.6987 -1.4403 0.9415
-2.3698 -14.5822 -1.4183 0.9424
-1.1591 -14.3585 -1.3830 0.9438
-0.5743 -14.2504 -1.3692 0.9443
-0.0000 -14.1443 -1.3579 0.9447
2.2317 -13.7320 -1.3356 0.9456
3.8888 -13.4259 -1.3419 0.9454
8.7677 -23.1187 -2.3738 0.9054
9.6875 -22.7372 -2.3728 0.9055
10.5915 -22.3212 -2.3720 0.9055
14.0254 -20.3194 -2.3703 0.9055
15.6077 -19.1160 -2.3692 0.9056
14.1270 -11.5343 -1.7509 0.9293
15.1082 -11.3531 -1.8143 0.9269
16.1582 -11.1532 -1.8849 0.9241
18.5596 -10.7154 -2.0575 0.9175
22.9683 -8.7107 -2.3583 0.9060
23.2803 -7.7721 -2.3563 0.9061
23.9830 -4.8962 -2.3500 0.9063
25.8649 -3.1406 -2.5014 0.9006
25.9703 -2.0966 -2.5014 0.9006
26.0337 -1.0491 -2.5014 0.9006
13.8766 1.1202 -1.3366 0.9456
16.1348 2.6221 -1.5693 0.9364
25.5283 5.2116 -2.5014 0.9006
25.2977 6.2352 -2.5014 0.9006
24.7140 8.2507 -2.5014 0.9006
22.8955 8.6831 -2.3508 0.9063
22.5524 9.6087 -2.3535 0.9062
22.1553 10.5128 -2.3543 0.9062
21.3720 11.2168 -2.3172 0.9076
10.2240 8.3476 -1.2672 0.9483
9.1547 8.1104 -1.1742 0.9520
6.0429 7.4012 -0.9173 0.9623
4.8476 7.0230 -0.8193 0.9663
4.5403 7.1799 -0.8156 0.9664
3.9265 6.8008 -0.7539 0.9689
3.6365 6.9286 -0.7512 0.9690
3.3658 7.0931 -0.7538 0.9689
2.5816 6.8069 -0.6989 0.9712
2.2325 6.6872 -0.6768 0.9721
1.0822 3.7362 -0.3734 0.9845
0.9171 3.7211 -0.3679 0.9847
1.0839 6.6691 -0.6487 0.9732
0.5116 6.3370 -0.6104 0.9748
0.2619 6.4967 -0.6242 0.9742
0.0000 6.5729 -0.6310 0.9739
-0.2540 6.3041 -0.6057 0.9750
-1.0669 6.5654 -0.6386 0.9736
-1.2642 6.1925 -0.6068 0.9749
-1.9843 5.9439 -0.6016 0.9751
-3.0280 5.7695 -0.6256 0.9742
-3.8544 5.5841 -0.6514 0.9731
-4.4624 5.4654 -0.6774 0.9720
-4.6792 5.2817 -0.6774 0.9720
-5.1474 5.3590 -0.7134 0.9706
-6.5351 5.3357 -0.8100 0.9667
-7.1322 4.9229 -0.8320 0.9658
-7.9386 5.0200 -0.9017 0.9630
-6.0818 2.8858 -0.6463 0.9733
-25.4122 7.3607 -2.5400 0.8991
-21.3829 0.0000 -2.5400 0.9175
-21.3655 -0.8610 -2.5400 0.9175
-21.3135 -1.7206 -2.5400 0.9175
-21.2270 -2.5774 -2.5400 0.9175
-21.1060 -3.4300 -2.5400 0.9175
-20.9508 -4.2771 -2.5400 0.9175
-20.7615 -5.1173 -2.5400 0.9175
-20.5386 -5.9491 -2.5400 0.9175
-20.2824 -6.7713 -2.5400 0.9175
-19.6718 -8.3814 -2.5400 0.9175
-19.3184 -9.1667 -2.5400 0.9175
-18.5181 -10.6914 -2.5400 0.9175
-16.0053 -14.1795 -2.5400 0.9175
-15.4214 -14.8124 -2.5400 0.9175
-14.8124 -15.4214 -2.5400 0.9175
-13.5235 -16.5633 -2.5400 0.9175
-12.1469 -17.5978 -2.5400 0.9175
-9.9371 -18.9336 -2.5400 0.9175
-9.1667 -19.3184 -2.5400 0.9175
-5.7314 -15.1125 -1.9199 0.9370
-6.3656 -19.0674 -2.3878 0.9222
-4.8118 -19.5222 -2.3884 0.9222
-1.1592 -14.3585 -1.7111 0.9436
-0.5743 -14.2504 -1.6941 0.9442
0.5658 -14.0398 -1.6691 0.9450
1.1251 -13.9365 -1.6608 0.9452
1.6797 -13.8340 -1.6554 0.9454
2.2317 -13.7320 -1.6526 0.9455
2.7826 -13.6302 -1.6525 0.9455
3.3344 -13.5283 -1.6551 0.9454
3.8888 -13.4259 -1.6604 0.9453
9.9598 -17.2510 -2.3662 0.9229
11.3119 -16.3882 -2.3654 0.9229
11.9603 -15.9163 -2.3649 0.9229
12.5889 -15.4186 -2.3645 0.9229
13.1966 -14.8958 -2.3639 0.9230
14.0684 -11.4865 -2.1574 0.9295
16.1582 -11.1532 -2.3322 0.9240
16.7861 -10.6149 -2.3592 0.9231
17.1905 -9.9249 -2.3579 0.9232
18.2257 -7.7653 -2.3533 0.9233
18.5108 -7.0202 -2.3516 0.9234
19.2025 -5.5621 -2.3748 0.9226
20.6324 -4.2122 -2.5014 0.9187
20.9045 -2.5383 -2.5014 0.9187
21.0580 -0.0000 -2.5014 0.9187
13.5820 0.5473 -1.6147 0.9467
13.3897 1.0809 -1.5957 0.9473
13.3449 1.6204 -1.5968 0.9473
15.1458 2.4614 -1.8227 0.9401
20.4461 5.0395 -2.5014 0.9187
19.9743 6.6684 -2.5014 0.9187
18.2142 7.7604 -2.3518 0.9233
17.5497 9.2108 -2.3543 0.9233
17.1646 9.9100 -2.3543 0.9233
10.9629 8.2381 -1.6289 0.9463
7.3223 7.6233 -1.2556 0.9583
6.0866 7.4547 -1.1432 0.9620
3.9460 6.8346 -0.9375 0.9687
2.9473 6.9176 -0.8932 0.9702
2.5845 6.8147 -0.8657 0.9711
1.0819 3.7353 -0.4619 0.9845
0.9169 3.7200 -0.4551 0.9847
0.7898 3.8688 -0.4690 0.9842
0.7816 6.4368 -0.7702 0.9742
0.5100 6.3170 -0.7528 0.9748
-0.2556 6.3442 -0.7542 0.9747
-0.4950 6.1321 -0.7308 0.9755
-0.7466 6.1492 -0.7358 0.9754
-1.0120 6.2273 -0.7494 0.9749
-2.2971 6.0570 -0.7695 0.9742
-2.5025 5.8736 -0.7584 0.9746
-2.7521 5.8000 -0.7626 0.9745
-2.9964 5.7092 -0.7659 0.9744
-3.3596 5.8190 -0.7982 0.9733
-4.4848 5.4929 -0.8423 0.9718
-5.5063 5.2889 -0.9069 0.9697
-5.7653 5.1076 -0.9149 0.9695
-6.4236 5.2447 -0.9851 0.9671
-19.6718 8.3814 -2.5400 0.9175
-19.9933 7.5825 -2.5400 0.9175
-20.9508 4.2771 -2.5400 0.9175
-21.1060 3.4301 -2.5400 0.9175
-21.3135 1.7206 -2.5400 0.9175
-17.9264 0.0000 -2.5400 0.9301
-17.7957 -2.1608 -2.5400 0.9301
-17.4055 -4.2901 -2.5400 0.9301
-16.7615 -6.3568 -2.5400 0.9301
-16.4919 -7.0266 -2.5400 0.9301
-15.5248 -8.9632 -2.5400 0.9301
-15.1512 -9.5811 -2.5400 0.9301
-14.7532 -10.1834 -2.5400 0.9301
-13.8859 -11.3375 -2.5400 0.9301
-12.9286 -12.4181 -2.5400 0.9301
-12.4181 -12.9286 -2.5400 0.9301
-10.7692 -14.3312 -2.5400 0.9301
-10.1834 -14.7532 -2.5400 0.9301
-8.9632 -15.5247 -2.5400 0.9301
-6.6050 -15.5024 -2.3876 0.9342
-5.7150 -15.0693 -2.2836 0.9370
-4.6887 -16.1873 -2.3878 0.9342
-2.3698 -14.5822 -2.0932 0.9421
-1.3297 -10.9512 -1.5631 0.9564
-1.1591 -14.3585 -2.0411 0.9435
0.5658 -14.0398 -1.9909 0.9448
1.6797 -13.8340 -1.9745 0.9453
2.2317 -13.7320 -1.9712 0.9453
3.3344 -13.5283 -1.9742 0.9453
3.8888 -13.4259 -1.9805 0.9451
4.4477 -13.3226 -1.9901 0.9448
7.1479 -15.0640 -2.3625 0.9349
8.3350 -14.4367 -2.3620 0.9349
9.4670 -13.7153 -2.3613 0.9349
10.0099 -13.3208 -2.3609 0.9349
11.0453 -12.4676 -2.3600 0.9349
12.4568 -11.0358 -2.3580 0.9350
13.6772 -9.4407 -2.3547 0.9351
14.3779 -8.3011 -2.3523 0.9351
14.6926 -7.7112 -2.3511 0.9352
14.9829 -7.1095 -2.3498 0.9352
16.9571 -4.9117 -2.5014 0.9312
17.1411 -4.2249 -2.5014 0.9312
17.2973 -3.5313 -2.5014 0.9312
17.4255 -2.8319 -2.5014 0.9312
17.5254 -2.1280 -2.5014 0.9312
17.5968 -1.4205 -2.5014 0.9312
17.6398 -0.7108 -2.5014 0.9312
17.6541 -0.0000 -2.5014 0.9312
13.4525 0.5421 -1.9076 0.9471
13.2713 1.0714 -1.8865 0.9476
17.1411 4.2249 -2.5014 0.9312
16.9570 4.9117 -2.5014 0.9312
16.7455 5.5905 -2.5014 0.9312
14.7109 7.7209 -2.3540 0.9351
12.8996 8.9039 -2.2209 0.9386
11.0083 8.2722 -1.9511 0.9459
10.0502 8.2058 -1.8384 0.9489
9.1676 8.1218 -1.7354 0.9517
8.1565 7.8344 -1.6024 0.9553
6.5302 7.3710 -1.3953 0.9610
6.0877 7.4561 -1.3639 0.9619
5.5281 7.3566 -1.3038 0.9635
4.6114 7.2923 -1.2225 0.9657
3.6174 6.8923 -1.1029 0.9690
3.3113 6.9783 -1.0944 0.9693
2.9188 6.8505 -1.0551 0.9704
2.5723 6.7825 -1.0278 0.9711
1.0817 3.7343 -0.5509 0.9844
0.7896 3.8677 -0.5593 0.9842
0.7880 6.4890 -0.9262 0.9739
0.5122 6.3438 -0.9018 0.9746
0.2618 6.4946 -0.9210 0.9741
0.0000 6.4336 -0.9116 0.9743
-0.2526 6.2683 -0.8889 0.9750
-1.0338 6.3616 -0.9132 0.9743
-1.4882 6.0381 -0.8811 0.9752
-1.6851 5.8176 -0.8582 0.9758
-1.9668 5.8914 -0.8800 0.9752
-2.5428 5.9683 -0.9192 0.9741
-2.7604 5.8174 -0.9124 0.9743
-3.0002 5.7164 -0.9147 0.9743
-3.5714 5.6477 -0.9468 0.9734
-4.4779 5.4845 -1.0032 0.9718
-5.0938 5.3032 -1.0419 0.9707
-5.6578 5.0124 -1.0710 0.9699
-6.1788 5.0448 -1.1302 0.9683
-7.2348 4.9938 -1.2456 0.9651
-7.9113 5.0028 -1.3263 0.9629
-8.0860 4.6684 -1.3229 0.9630
-16.1956 7.6849 -2.5400 0.9301
-16.7615 6.3568 -2.5400 0.9301
-17.2187 4.9874 -2.5400 0.9301
-17.4055 4.2901 -2.5400 0.9301
-17.8683 1.4425 -2.5400 0.9301
-17.9119 0.7219 -2.5400 0.9301
-15.3682 -1.2407 -2.5400 0.9394
-15.3058 -1.8585 -2.5400 0.9394
-15.2186 -2.4733 -2.5400 0.9394
-14.9702 -3.6898 -2.5400 0.9394
-14.8095 -4.2896 -2.5400 0.9394
-14.6247 -4.8824 -2.5400 0.9394
-14.1844 -6.0434 -2.5400 0.9394
-13.9296 -6.6097 -2.5400 0.9394
-13.0313 -8.2405 -2.5400 0.9394
-12.6889 -8.7586 -2.5400 0.9394
-12.3260 -9.2624 -2.5400 0.9394
-11.1197 -10.6806 -2.5400 0.9394
-10.6806 -11.1196 -2.5400 0.9394
-9.2624 -12.3260 -2.5400 0.9394
-8.7342 -12.6536 -2.5329 0.9396
-8.1825 -12.9396 -2.5221 0.9398
-7.1492 -12.3827 -2.3555 0.9437
-6.6414 -12.6540 -2.3543 0.9437
-4.5153 -13.5251 -2.3490 0.9438
-1.3293 -10.9478 -1.8168 0.9563
-1.1525 -14.2763 -2.3595 0.9436
-0.5768 -14.3121 -2.3597 0.9436
-0.0000 -14.3246 -2.3598 0.9436
0.5768 -14.3137 -2.3599 0.9436
1.1527 -14.2794 -2.3600 0.9436
2.2981 -14.1408 -2.3601 0.9436
2.8656 -14.0367 -2.3601 0.9436
4.5363 -13.5878 -2.3599 0.9436
6.1398 -12.9394 -2.3594 0.9436
6.6550 -12.6801 -2.3591 0.9436
7.1588 -12.3994 -2.3587 0.9436
7.6506 -12.0985 -2.3582 0.9436
9.0461 -11.0795 -2.3563 0.9437
9.4820 -10.7030 -2.3556 0.9437
9.9021 -10.3092 -2.3549 0.9437
10.6920 -9.4723 -2.3532 0.9437
11.0605 -9.0306 -2.3523 0.9438
11.4106 -8.5745 -2.3514 0.9438
11.7417 -8.1047 -2.3504 0.9438
12.0534 -7.6221 -2.3494 0.9438
12.4693 -7.1992 -2.3720 0.9433
13.9689 -5.9516 -2.5014 0.9403
14.4026 -4.8083 -2.5014 0.9403
14.5845 -4.2244 -2.5014 0.9403
14.7428 -3.6338 -2.5014 0.9403
14.8771 -3.0372 -2.5014 0.9403
15.0733 -1.8302 -2.5014 0.9403
15.1347 -1.2218 -2.5014 0.9403
13.2579 1.0703 -2.1912 0.9475
13.1839 1.6008 -2.1879 0.9476
13.9452 2.2663 -2.3275 0.9443
14.8771 3.0372 -2.5014 0.9403
14.7427 3.6338 -2.5014 0.9403
14.5845 4.2245 -2.5014 0.9403
14.4025 4.8083 -2.5014 0.9403
12.8933 6.1179 -2.3510 0.9438
12.3749 7.1447 -2.3540 0.9437
12.0788 7.6382 -2.3543 0.9437
6.4829 7.3176 -1.6105 0.9611
4.8487 7.0245 -1.4061 0.9660
4.6115 7.2925 -1.4214 0.9656
4.0050 6.9367 -1.3195 0.9681
3.5736 6.8088 -1.2668 0.9693
0.9164 3.7179 -0.6308 0.9846
0.7894 3.8665 -0.6501 0.9841
0.5136 6.3612 -1.0513 0.9745
0.0000 6.3714 -1.0496 0.9745
-0.2538 6.2986 -1.0385 0.9748
-0.5022 6.2216 -1.0283 0.9750
-0.7431 6.1198 -1.0156 0.9753
-1.4765 5.9906 -1.0164 0.9753
-1.7125 5.9125 -1.0141 0.9754
-2.2763 6.0021 -1.0575 0.9743
-2.5117 5.8953 -1.0557 0.9744
-4.4711 5.4761 -1.1646 0.9717
-4.6795 5.2821 -1.1625 0.9718
-6.5113 5.3163 -1.3848 0.9665
-6.7778 5.0931 -1.3967 0.9662
-7.9202 5.0084 -1.5438 0.9627
-4.4854 2.3541 -0.8345 0.9797
-13.9296 6.6097 -2.5400 0.9394
-14.1844 6.0434 -2.5400 0.9394
-14.4163 5.4674 -2.5400 0.9394
-15.2186 2.4733 -2.5400 0.9394
-15.3058 1.8585 -2.5400 0.9394
-15.3682 1.2407 -2.5400 0.9394
-15.4057 0.6208 -2.5400 0.9394
-13.5024 -0.5441 -2.5400 0.9465
-13.4696 -1.0874 -2.5400 0.9465
-13.3384 -2.1677 -2.5400 0.9465
-13.1207 -3.2340 -2.5400 0.9465
-12.9798 -3.7597 -2.5400 0.9465
-12.8179 -4.2792 -2.5400 0.9465
-12.2087 -5.7931 -2.5400 0.9465
-11.7029 -6.7567 -2.5400 0.9465
-11.4214 -7.2224 -2.5400 0.9465
-11.1213 -7.6765 -2.5400 0.9465
-10.8032 -8.1180 -2.5400 0.9465
-10.4675 -8.5465 -2.5400 0.9465
-9.3403 -9.7241 -2.5343 0.9466
-8.9103 -10.0575 -2.5256 0.9468
-8.4691 -10.3728 -2.5170 0.9470
-7.1151 -11.2516 -2.5022 0.9473
-6.6456 -11.5105 -2.4982 0.9473
-5.8078 -11.0658 -2.3490 0.9504
-5.3575 -11.2906 -2.3490 0.9504
-4.8985 -11.4972 -2.3490 0.9504
-3.9628 -11.8699 -2.3521 0.9503
-3.4825 -12.0229 -2.3527 0.9503
-2.5049 -12.2697 -2.3538 0.9503
-2.0092 -12.3630 -2.3543 0.9503
-0.5046 -12.5208 -2.3553 0.9503
1.0086 -12.4936 -2.3560 0.9503
1.5109 -12.4435 -2.3561 0.9503
2.0108 -12.3728 -2.3561 0.9503
2.5073 -12.2818 -2.3561 0.9503
2.9998 -12.1706 -2.3561 0.9503
3.4873 -12.0395 -2.3560 0.9503
4.4441 -11.7181 -2.3556 0.9503
5.8219 -11.0927 -2.3547 0.9503
6.6932 -10.5845 -2.3539 0.9503
7.9148 -9.6939 -2.3523 0.9503
9.0180 -8.6619 -2.3503 0.9504
10.2420 -7.6964 -2.4080 0.9492
11.2478 -7.1127 -2.5014 0.9473
11.5251 -6.6540 -2.5014 0.9473
12.2431 -5.2163 -2.5014 0.9473
12.4432 -4.7191 -2.5014 0.9473
12.6232 -4.2142 -2.5014 0.9473
12.7826 -3.7025 -2.5014 0.9473
12.9214 -3.1848 -2.5014 0.9473
13.0391 -2.6620 -2.5014 0.9473
13.1357 -2.1348 -2.5014 0.9473
13.2110 -1.6041 -2.5014 0.9473
13.2110 1.6041 -2.5014 0.9473
13.0391 2.6620 -2.5014 0.9473
12.6232 4.2142 -2.5014 0.9473
11.4972 4.8985 -2.3490 0.9504
10.3084 7.1154 -2.3543 0.9503
7.3594 7.6620 -1.9969 0.9577
6.1283 7.5058 -1.8213 0.9613
5.5939 7.4441 -1.7502 0.9628
4.9035 7.1039 -1.6225 0.9655
3.9584 6.8561 -1.4880 0.9683
3.6356 6.9269 -1.4704 0.9687
3.3278 7.0131 -1.4591 0.9689
2.6021 6.8611 -1.3792 0.9706
1.0811 3.7324 -0.7304 0.9843
0.7891 3.8654 -0.7415 0.9841
-0.2526 6.2686 -1.1792 0.9748
-0.5000 6.1934 -1.1679 0.9750
-0.7389 6.0859 -1.1523 0.9754
-1.7030 5.8795 -1.1506 0.9754
-1.9829 5.9396 -1.1770 0.9748
-2.2940 6.0487 -1.2159 0.9740
-2.5164 5.9062 -1.2067 0.9742
-2.9851 5.6877 -1.2074 0.9742
-3.3813 5.8566 -1.2711 0.9729
-3.5714 5.6477 -1.2560 0.9732
-5.1441 5.3556 -1.3958 0.9702
-5.4724 5.2563 -1.4262 0.9696
-5.7582 5.1013 -1.4460 0.9692
-6.4231 5.2443 -1.5586 0.9668
-6.8003 5.1100 -1.5989 0.9660
-7.0586 4.8721 -1.6121 0.9657
-8.1306 4.6942 -1.7646 0.9625
-4.4854 2.3541 -0.9521 0.9796
-11.4761 5.4455 -2.3876 0.9496
-11.8771 4.5044 -2.3876 0.9496
-12.2010 3.5341 -2.3876 0.9496
-13.4696 1.0874 -2.5400 0.9465
-11.9286 -1.4484 -2.5400 0.9521
-10.6398 -5.5843 -2.5400 0.9521
-10.4048 -6.0072 -2.5396 0.9521
-10.1467 -6.4164 -2.5377 0.9521
-9.8666 -6.8100 -2.5342 0.9522
-9.5675 -7.1895 -2.5297 0.9522
-9.2504 -7.5527 -2.5243 0.9523
-8.5748 -8.2362 -2.5132 0.9526
-8.2205 -8.5584 -2.5084 0.9526
-7.8587 -8.8706 -2.5051 0.9527
-7.1120 -9.4643 -2.5025 0.9528
-6.7242 -9.7417 -2.5021 0.9528
-5.4994 -10.4782 -2.5014 0.9528
-5.0671 -10.6787 -2.4985 0.9528
-4.5036 -10.5702 -2.4287 0.9541
-3.0923 -10.6759 -2.3494 0.9556
-2.2241 -10.8945 -2.3504 0.9556
-1.3285 -10.9409 -2.3297 0.9559
-0.8951 -11.0883 -2.3515 0.9555
-0.4480 -11.1167 -2.3518 0.9555
-0.0000 -11.1268 -2.3520 0.9555
1.7852 -10.9850 -2.3525 0.9555
3.5238 -10.5552 -2.3522 0.9555
5.1693 -9.8492 -2.3512 0.9555
5.5608 -9.6316 -2.3509 0.9555
6.3156 -9.1497 -2.3501 0.9556
7.3838 -8.3346 -2.3537 0.9555
7.8855 -8.2097 -2.4062 0.9545
8.8576 -7.8472 -2.5014 0.9528
9.7389 -6.7223 -2.5014 0.9528
10.2482 -5.9168 -2.5014 0.9528
10.4782 -5.4994 -2.5014 0.9528
10.6911 -5.0730 -2.5014 0.9528
11.0646 -4.1963 -2.5014 0.9528
11.3664 -3.2923 -2.5014 0.9528
11.4898 -2.8320 -2.5014 0.9528
11.8336 0.0000 -2.5014 0.9528
11.8240 0.4765 -2.5014 0.9528
11.7953 0.9522 -2.5014 0.9528
11.5945 2.3670 -2.5014 0.9528
11.3664 3.2923 -2.5014 0.9528
11.2246 3.7473 -2.5014 0.9528
10.8867 4.6384 -2.5014 0.9528
9.8458 5.1675 -2.3504 0.9556
9.1645 6.3258 -2.3539 0.9555
8.0327 7.7155 -2.3543 0.9555
6.1812 7.5705 -2.0659 0.9608
4.8870 7.0800 -1.8185 0.9654
2.9365 6.8921 -1.5836 0.9698
2.1950 6.5746 -1.4652 0.9721
0.9158 3.7158 -0.8089 0.9845
0.7889 3.8642 -0.8337 0.9840
1.0826 6.6614 -1.4266 0.9728
0.5040 6.2424 -1.3238 0.9747
-0.4997 6.1897 -1.3126 0.9749
-0.7345 6.0495 -1.2881 0.9754
-1.6870 5.8242 -1.2817 0.9755
-2.7365 5.7671 -1.3493 0.9742
-2.9550 5.6304 -1.3441 0.9743
-3.3526 5.8068 -1.4173 0.9730
-4.4684 5.4728 -1.4934 0.9715
-5.1263 5.3370 -1.5642 0.9702
-6.7568 5.0774 -1.7866 0.9660
-7.1921 4.9643 -1.8473 0.9649
-10.3914 4.4274 -2.3876 0.9549
-10.5612 4.0054 -2.3876 0.9549
-10.9623 2.7019 -2.3865 0.9549
-11.8600 1.9275 -2.5399 0.9521
-11.9772 0.9667 -2.5400 0.9521
-10.7686 0.0000 -2.5309 0.9567
-10.7647 -0.4338 -2.5320 0.9567
-10.7411 -0.8671 -2.5326 0.9567
-10.6380 -1.7289 -2.5330 0.9567
-10.4612 -2.5785 -2.5322 0.9567
-10.3454 -2.9968 -2.5313 0.9567
-10.2119 -3.4092 -2.5302 0.9567
-9.8900 -4.2137 -2.5265 0.9568
-9.7018 -4.6035 -2.5238 0.9568
-9.4974 -4.9847 -2.5209 0.9569
-9.2774 -5.3563 -2.5177 0.9569
-8.7947 -6.0706 -2.5115 0.9570
-7.9758 -7.0658 -2.5043 0.9572
-6.3960 -8.5115 -2.5022 0.9572
-6.0473 -8.7610 -2.5019 0.9572
-5.3216 -9.2173 -2.5014 0.9572
-4.9461 -9.4241 -2.5014 0.9572
-2.9611 -10.2230 -2.5014 0.9572
-2.0719 -10.1486 -2.4344 0.9583
-1.6377 -10.0771 -2.3994 0.9589
-1.2151 -10.0069 -2.3691 0.9594
-0.0000 -9.9951 -2.3491 0.9598
1.9997 -9.7950 -2.3495 0.9598
2.7812 -9.6019 -2.3494 0.9598
3.1654 -9.4817 -2.3493 0.9598
3.9215 -9.2042 -2.3514 0.9597
4.2847 -9.0298 -2.3490 0.9598
4.6661 -8.8905 -2.3598 0.9596
6.3932 -8.5078 -2.5011 0.9572
7.0577 -7.9665 -2.5014 0.9572
7.3728 -7.6759 -2.5014 0.9572
7.6759 -7.3728 -2.5014 0.9572
7.9665 -7.0578 -2.5014 0.9572
8.2443 -6.7312 -2.5014 0.9572
8.5086 -6.3938 -2.5014 0.9572
8.7592 -6.0460 -2.5014 0.9572
8.9955 -5.6884 -2.5014 0.9572
9.4241 -4.9461 -2.5014 0.9572
9.6156 -4.5627 -2.5014 0.9572
9.7915 -4.1718 -2.5014 0.9572
10.2230 -2.9611 -2.5014 0.9572
10.4281 -2.1289 -2.5014 0.9572
10.5656 -1.2829 -2.5014 0.9572
10.6087 -0.8564 -2.5014 0.9572
10.6346 -0.4286 -2.5014 0.9572
10.6432 0.0000 -2.5014 0.9572
10.6087 0.8564 -2.5014 0.9572
10.5656 1.2829 -2.5014 0.9572
10.5054 1.7073 -2.5014 0.9572
10.3339 2.5471 -2.5014 0.9572
10.2230 2.9611 -2.5014 0.9572
10.0955 3.3704 -2.5014 0.9572
9.9516 3.7741 -2.5014 0.9572
9.0298 4.2847 -2.3490 0.9598
8.6620 5.0010 -2.3507 0.9597
8.4573 5.3481 -2.3517 0.9597
8.2386 5.6867 -2.3527 0.9597
8.0064 6.0164 -2.3537 0.9597
7.7596 6.3355 -2.3543 0.9597
7.4982 6.6428 -2.3543 0.9597
6.6428 7.4982 -2.3543 0.9597
6.1488 7.5309 -2.2850 0.9608
5.7912 7.7066 -2.2656 0.9612
4.8666 7.0505 -2.0134 0.9654
3.3017 6.9581 -1.8101 0.9688
2.9273 6.8704 -1.7552 0.9698
2.5838 6.8129 -1.7125 0.9705
0.2607 6.4682 -1.5214 0.9738
0.0000 6.3605 -1.4949 0.9742
-0.2549 6.3253 -1.4878 0.9743
-0.7474 6.1554 -1.4573 0.9748
-1.4723 5.9737 -1.4460 0.9750
-1.7134 5.9156 -1.4475 0.9750
-1.9768 5.9212 -1.4671 0.9747
-2.7352 5.7644 -1.4996 0.9741
-3.3149 5.7415 -1.5581 0.9731
-3.5054 5.5434 -1.5415 0.9734
-3.7823 5.4796 -1.5648 0.9730
-4.3140 5.7409 -1.6877 0.9709
-5.1163 5.3266 -1.7358 0.9701
-5.5332 5.3147 -1.8031 0.9690
-5.7738 5.1151 -1.8129 0.9688
-6.4748 5.2865 -1.9645 0.9662
-6.8110 5.1181 -2.0023 0.9656
-4.4854 2.3541 -1.1905 0.9794
-9.1500 4.3417 -2.3803 0.9592
-9.4603 3.5878 -2.3779 0.9593
-9.7006 2.8098 -2.3736 0.9594
-9.9338 1.6144 -2.3653 0.9595
-10.7175 0.8652 -2.5271 0.9568
-10.7526 0.4333 -2.5292 0.9567
-9.6936 -0.3906 -2.5119 0.9607
-9.6358 -1.1699 -2.5132 0.9607
-9.4223 -2.3224 -2.5126 0.9607
-9.1996 -3.0715 -2.5112 0.9607
-9.0637 -3.4374 -2.5099 0.9607
-8.7497 -4.1518 -2.5076 0.9608
-8.5710 -4.4985 -2.5063 0.9608
-8.3772 -4.8366 -2.5046 0.9608
-7.2370 -6.4114 -2.5034 0.9608
-6.9723 -6.6970 -2.5031 0.9608
-6.6963 -6.9716 -2.5028 0.9608
-6.4094 -7.2348 -2.5026 0.9608
-6.1123 -7.4862 -2.5023 0.9609
-5.4889 -7.9520 -2.5018 0.9609
-5.1637 -8.1657 -2.5015 0.9609
-3.4258 -9.0331 -2.5014 0.9609
-1.9324 -9.4657 -2.5014 0.9609
-1.1645 -9.5905 -2.5014 0.9609
-0.7774 -9.6296 -2.5014 0.9609
-0.3890 -9.6531 -2.5014 0.9609
0.3890 -9.6531 -2.5014 0.9609
0.7763 -9.6167 -2.4980 0.9609
1.1591 -9.5463 -2.4899 0.9610
1.5399 -9.4756 -2.4856 0.9611
1.9199 -9.4044 -2.4852 0.9611
2.2996 -9.3299 -2.4880 0.9611
2.6805 -9.2541 -2.4945 0.9610
3.4258 -9.0332 -2.5014 0.9609
4.4897 -8.5544 -2.5014 0.9609
4.8305 -8.3666 -2.5014 0.9609
5.4881 -7.9508 -2.5014 0.9609
5.8037 -7.7234 -2.5014 0.9609
6.6924 -6.9675 -2.5014 0.9609
6.9675 -6.6924 -2.5014 0.9609
7.4834 -6.1100 -2.5014 0.9609
7.7234 -5.8038 -2.5014 0.9609
7.9508 -5.4881 -2.5014 0.9609
8.3666 -4.8305 -2.5014 0.9609
8.8879 -3.7868 -2.5014 0.9609
9.0331 -3.4258 -2.5014 0.9609
9.1638 -3.0593 -2.5014 0.9609
9.5358 -1.5497 -2.5014 0.9609
9.6296 -0.7774 -2.5014 0.9609
9.6531 -0.3890 -2.5014 0.9609
9.6610 0.0000 -2.5014 0.9609
9.6296 0.7774 -2.5014 0.9609
9.5905 1.1645 -2.5014 0.9609
9.5359 1.5497 -2.5014 0.9609
9.4657 1.9325 -2.5014 0.9609
9.0332 3.4258 -2.5014 0.9609
8.0333 4.2162 -2.3490 0.9632
7.8602 4.5381 -2.3500 0.9632
7.2643 5.4588 -2.3527 0.9632
7.0413 5.7490 -2.3536 0.9631
6.5579 6.2989 -2.3543 0.9631
6.0298 6.8062 -2.3543 0.9631
5.4625 7.2693 -2.3543 0.9631
4.8561 7.0353 -2.2134 0.9653
4.6406 7.3386 -2.2481 0.9648
4.0400 6.9973 -2.0920 0.9672
3.6696 6.9917 -2.0445 0.9679
3.3283 7.0142 -2.0102 0.9684
2.8977 6.8011 -1.9141 0.9699
1.0802 3.7295 -1.0053 0.9841
0.9153 3.7136 -0.9903 0.9843
1.0820 6.6575 -1.7464 0.9725
0.7826 6.4447 -1.6809 0.9735
0.0000 6.3836 -1.6528 0.9740
-0.5002 6.1959 -1.6095 0.9746
-0.7459 6.1434 -1.6023 0.9748
-1.0347 6.3671 -1.6702 0.9737
-1.2526 6.1360 -1.6215 0.9745
-1.9670 5.8920 -1.6083 0.9747
-2.5256 5.9278 -1.6683 0.9737
-2.7517 5.7992 -1.6620 0.9738
-3.0231 5.7601 -1.6843 0.9735
-4.4613 5.4642 -1.8264 0.9713
-4.6697 5.2710 -1.8233 0.9713
-5.8649 5.1958 -2.0287 0.9681
-7.8747 4.5465 -2.3543 0.9631
-4.4854 2.3541 -1.3116 0.9793
-8.4865 3.2185 -2.3500 0.9632
-8.6112 2.8749 -2.3506 0.9632
-8.7212 2.5261 -2.3509 0.9632
-8.8162 2.1730 -2.3510 0.9632
-8.8965 1.8162 -2.3510 0.9632
-8.9620 1.4565 -2.3509 0.9632
-9.6853 0.3903 -2.5097 0.9607
-8.8416 -0.0000 -2.5030 0.9639
-8.8232 -0.7123 -2.5059 0.9639
-8.7871 -1.0669 -2.5058 0.9639
-8.5002 -2.4621 -2.5053 0.9639
-8.3937 -2.8022 -2.5051 0.9639
-8.2735 -3.1377 -2.5049 0.9639
-7.9930 -3.7927 -2.5046 0.9639
-7.8332 -4.1112 -2.5044 0.9639
-7.6607 -4.4229 -2.5042 0.9639
-7.2787 -5.0241 -2.5038 0.9639
-6.8496 -5.5926 -2.5033 0.9639
-6.6183 -5.8633 -2.5031 0.9639
-6.3762 -6.1245 -2.5029 0.9639
-6.1239 -6.3756 -2.5026 0.9639
-5.8616 -6.6164 -2.5024 0.9639
-5.3081 -7.0638 -2.5014 0.9639
-4.7225 -7.4681 -2.5014 0.9639
-4.4180 -7.6522 -2.5014 0.9639
-3.7879 -7.9829 -2.5014 0.9639
-3.4634 -8.1289 -2.5014 0.9639
-3.1333 -8.2618 -2.5014 0.9639
-2.7981 -8.3812 -2.5014 0.9639
-1.7674 -8.6574 -2.5014 0.9639
-1.4174 -8.7215 -2.5014 0.9639
-1.0651 -8.7715 -2.5014 0.9639
-0.3558 -8.8288 -2.5014 0.9639
0.7110 -8.8073 -2.5014 0.9639
1.0651 -8.7715 -2.5014 0.9639
2.4583 -8.4871 -2.5014 0.9639
2.7981 -8.3812 -2.5014 0.9639
3.1333 -8.2618 -2.5014 0.9639
4.7225 -7.4681 -2.5014 0.9639
5.5883 -6.8444 -2.5014 0.9639
6.3725 -6.1209 -2.5014 0.9639
6.6138 -5.8593 -2.5014 0.9639
6.8444 -5.5883 -2.5014 0.9639
7.0638 -5.3081 -2.5014 0.9639
7.2718 -5.0194 -2.5014 0.9639
7.6522 -4.4180 -2.5014 0.9639
7.8238 -4.1063 -2.5014 0.9639
7.9828 -3.7879 -2.5014 0.9639
8.2618 -3.1333 -2.5014 0.9639
8.5792 -2.1146 -2.5014 0.9639
8.7215 -1.4174 -2.5014 0.9639
8.7715 -1.0651 -2.5014 0.9639
8.8073 -0.7110 -2.5014 0.9639
8.8288 0.3558 -2.5014 0.9639
8.7715 1.0650 -2.5014 0.9639
8.5792 2.1146 -2.5014 0.9639
8.4871 2.4583 -2.5014 0.9639
8.3812 2.7980 -2.5014 0.9639
8.2618 3.1333 -2.5014 0.9639
7.1870 4.1494 -2.3493 0.9661
7.0166 4.4370 -2.3502 0.9661
6.8347 4.7177 -2.3510 0.9661
6.4374 5.2560 -2.3527 0.9660
5.9976 5.7608 -2.3542 0.9660
5.7610 5.9978 -2.3543 0.9660
5.5148 6.2250 -2.3543 0.9660
5.2597 6.4420 -2.3543 0.9660
4.9960 6.6485 -2.3543 0.9660
4.7243 6.8443 -2.3543 0.9660
4.4449 7.0290 -2.3543 0.9660
4.0218 6.9658 -2.2771 0.9671
2.5777 6.7968 -2.0579 0.9702
1.0800 3.7285 -1.0989 0.9840
0.9151 3.7125 -1.0824 0.9842
0.7882 3.8607 -1.1155 0.9838
0.2557 6.3433 -1.7972 0.9740
0.0000 6.3619 -1.8010 0.9739
-0.4977 6.1656 -1.7511 0.9746
-1.0320 6.3503 -1.8213 0.9736
-1.4746 5.9829 -1.7444 0.9747
-1.7107 5.9061 -1.7407 0.9748
-2.2691 5.9833 -1.8116 0.9737
-3.0155 5.7456 -1.8369 0.9734
-4.3337 5.7671 -2.0422 0.9705
-5.8858 5.2144 -2.2261 0.9678
-6.6485 4.9960 -2.3543 0.9660
-6.8443 4.7243 -2.3543 0.9660
-7.0290 4.4449 -2.3543 0.9660
-7.2023 4.1582 -2.3543 0.9660
-4.4854 2.3541 -1.4340 0.9792
-8.1299 1.6597 -2.3490 0.9661
-8.1902 1.3310 -2.3490 0.9661
-8.8087 0.7111 -2.5018 0.9639
-8.8308 0.3559 -2.5020 0.9639
-8.1325 0.0000 -2.5014 0.9665
-8.1259 -0.3275 -2.5014 0.9665
-8.0283 -1.3047 -2.5017 0.9665
-7.9700 -1.6271 -2.5020 0.9665
-7.8994 -1.9470 -2.5024 0.9665
-7.7192 -2.5771 -2.5031 0.9665
-7.6103 -2.8862 -2.5034 0.9665
-7.3540 -3.4895 -2.5037 0.9665
-7.2071 -3.7826 -2.5035 0.9665
-6.8771 -4.3488 -2.5027 0.9665
-6.6951 -4.6213 -2.5022 0.9665
-6.2997 -5.1435 -2.5015 0.9665
-6.0873 -5.3929 -2.5014 0.9665
-5.3929 -6.0873 -2.5014 0.9665
-4.8856 -6.5015 -2.5014 0.9665
-4.6198 -6.6930 -2.5014 0.9665
-3.7794 -7.2010 -2.5014 0.9665
-3.1877 -7.4818 -2.5014 0.9665
-2.5753 -7.7140 -2.5014 0.9665
-1.9462 -7.8962 -2.5014 0.9665
-1.6267 -7.9682 -2.5014 0.9665
-0.6544 -8.1062 -2.5014 0.9665
-0.3275 -8.1259 -2.5014 0.9665
0.3275 -8.1259 -2.5014 0.9665
1.6267 -7.9682 -2.5014 0.9665
1.9462 -7.8962 -2.5014 0.9665
2.5753 -7.7140 -2.5014 0.9665
2.8838 -7.6041 -2.5014 0.9665
3.1877 -7.4818 -2.5014 0.9665
3.4864 -7.3473 -2.5014 0.9665
3.7794 -7.2010 -2.5014 0.9665
4.0663 -7.0430 -2.5014 0.9665
4.3466 -6.8736 -2.5014 0.9665
5.3929 -6.0873 -2.5014 0.9665
6.0873 -5.3929 -2.5014 0.9665
6.2995 -5.1434 -2.5014 0.9665
6.5015 -4.8856 -2.5014 0.9665
7.0430 -4.0663 -2.5014 0.9665
7.3473 -3.4864 -2.5014 0.9665
7.6041 -2.8838 -2.5014 0.9665
7.8115 -2.2626 -2.5014 0.9665
7.8962 -1.9462 -2.5014 0.9665
8.0732 -0.9803 -2.5014 0.9665
8.1062 -0.6544 -2.5014 0.9665
8.1325 -0.0000 -2.5014 0.9665
8.0272 1.3046 -2.5014 0.9665
7.8115 2.2626 -2.5014 0.9665
7.6041 2.8838 -2.5014 0.9665
7.3473 3.4864 -2.5014 0.9665
6.4564 4.0828 -2.3496 0.9685
6.1109 4.5920 -2.3511 0.9685
5.9229 4.8359 -2.3519 0.9685
5.5180 5.3001 -2.3533 0.9685
5.3016 5.5196 -2.3540 0.9685
5.0758 5.7294 -2.3543 0.9685
4.5983 6.1192 -2.3543 0.9685
4.3482 6.2994 -2.3543 0.9685
3.8272 6.6289 -2.3543 0.9685
3.5572 6.7776 -2.3543 0.9685
2.5893 6.8273 -2.2459 0.9699
1.0797 3.7275 -1.1936 0.9839
0.7879 3.8595 -1.2116 0.9837
1.1062 6.8066 -2.1210 0.9716
0.7873 6.4835 -2.0089 0.9730
0.2594 6.4364 -1.9813 0.9734
0.0000 6.3833 -1.9634 0.9736
-1.7188 5.9340 -1.9002 0.9745
-1.9520 5.8470 -1.8960 0.9745
-2.2842 6.0231 -1.9813 0.9734
-2.9992 5.7145 -1.9851 0.9734
-3.5474 5.6097 -2.0415 0.9726
-4.8184 5.4389 -2.2349 0.9700
-5.5204 5.3024 -2.3543 0.9685
-6.2994 4.3482 -2.3543 0.9685
-6.4694 4.0910 -2.3543 0.9685
-6.6289 3.8272 -2.3543 0.9685
-7.0396 2.9993 -2.3536 0.9685
-8.1259 0.3275 -2.5014 0.9665
-7.5251 0.0000 -2.5014 0.9688
-7.5007 -0.6055 -2.5014 0.9688
-7.1379 -2.3830 -2.5014 0.9688
-6.6632 -3.4971 -2.5014 0.9688
-6.1931 -4.2748 -2.5014 0.9688
-5.6326 -4.9901 -2.5014 0.9688
-5.2128 -5.4271 -2.5014 0.9688
-4.5207 -6.0159 -2.5014 0.9688
-3.4971 -6.6632 -2.5014 0.9688
-2.9496 -6.9230 -2.5014 0.9688
-2.3830 -7.1379 -2.5014 0.9688
-2.0936 -7.2280 -2.5014 0.9688
-1.8009 -7.3065 -2.5014 0.9688
-1.5052 -7.3730 -2.5014 0.9688
-1.2071 -7.4277 -2.5014 0.9688
-0.9071 -7.4703 -2.5014 0.9688
-0.6055 -7.5007 -2.5014 0.9688
-0.0000 -7.5251 -2.5014 0.9688
0.3030 -7.5190 -2.5014 0.9688
0.9071 -7.4703 -2.5014 0.9688
1.5052 -7.3731 -2.5014 0.9688
1.8009 -7.3065 -2.5014 0.9688
2.0936 -7.2280 -2.5014 0.9688
2.3830 -7.1379 -2.5014 0.9688
2.6684 -7.0361 -2.5014 0.9688
2.9496 -6.9230 -2.5014 0.9688
3.2260 -6.7986 -2.5014 0.9688
3.4971 -6.6632 -2.5014 0.9688
4.0219 -6.3602 -2.5014 0.9688
4.2748 -6.1931 -2.5014 0.9688
4.5207 -6.0159 -2.5014 0.9688
4.9901 -5.6326 -2.5014 0.9688
5.2128 -5.4271 -2.5014 0.9688
5.8290 -4.7592 -2.5014 0.9688
6.3602 -4.0219 -2.5014 0.9688
6.5169 -3.7626 -2.5014 0.9688
6.7986 -3.2260 -2.5014 0.9688
6.9230 -2.9496 -2.5014 0.9688
7.0361 -2.6685 -2.5014 0.9688
7.2280 -2.0936 -2.5014 0.9688
7.3064 -1.8009 -2.5014 0.9688
7.3731 -1.5052 -2.5014 0.9688
7.5007 -0.6055 -2.5014 0.9688
7.5190 -0.3030 -2.5014 0.9688
7.5251 -0.0000 -2.5014 0.9688
7.5007 0.6055 -2.5014 0.9688
7.3730 1.5052 -2.5014 0.9688
7.3065 1.8009 -2.5014 0.9688
7.1379 2.3830 -2.5014 0.9688
7.0361 2.6684 -2.5014 0.9688
6.9230 2.9496 -2.5014 0.9688
6.7986 3.2259 -2.5014 0.9688
6.6632 3.4971 -2.5014 0.9688
5.9729 3.7770 -2.3491 0.9707
5.8177 4.0156 -2.3498 0.9706
5.6530 4.2479 -2.3505 0.9706
5.4789 4.4734 -2.3512 0.9706
5.1041 4.9025 -2.3525 0.9706
4.9039 5.1054 -2.3531 0.9706
4.6956 5.3002 -2.3538 0.9706
4.4794 5.4863 -2.3543 0.9706
4.2549 5.6622 -2.3543 0.9706
3.2915 6.2714 -2.3543 0.9706
2.5116 6.6224 -2.3543 0.9706
1.0794 3.7264 -1.2896 0.9838
0.9145 3.7103 -1.2702 0.9840
0.7877 3.8583 -1.3090 0.9835
1.1127 6.8467 -2.3057 0.9712
0.7849 6.4642 -2.1645 0.9729
0.5067 6.2757 -2.0929 0.9738
0.2578 6.3968 -2.1281 0.9734
-0.2567 6.3707 -2.1194 0.9735
-0.7482 6.1625 -2.0635 0.9742
-0.9906 6.0957 -2.0528 0.9743
-1.2613 6.1786 -2.0962 0.9738
-2.3023 6.0707 -2.1582 0.9730
-2.5353 5.9505 -2.1500 0.9731
-2.7466 5.7884 -2.1297 0.9734
-2.9831 5.6838 -2.1338 0.9733
-3.5497 5.6134 -2.2077 0.9724
-4.4794 5.4863 -2.3543 0.9706
-4.9064 5.1081 -2.3543 0.9706
-5.1081 4.9063 -2.3543 0.9706
-5.3015 4.6967 -2.3543 0.9706
-5.4863 4.4794 -2.3543 0.9706
-5.6622 4.2549 -2.3543 0.9706
-5.8289 4.0234 -2.3543 0.9706
-5.9862 3.7855 -2.3543 0.9706
-6.1338 3.5413 -2.3543 0.9706
-6.3963 3.0351 -2.3534 0.9706
-6.6161 2.5092 -2.3521 0.9706
-6.7099 2.2401 -2.3514 0.9706
-6.9249 1.4137 -2.3493 0.9706
-6.9751 1.1336 -2.3490 0.9707
-7.4703 0.9071 -2.5014 0.9688
-7.5007 0.6055 -2.5014 0.9688
-7.5190 0.3030 -2.5014 0.9688
-6.9948 0.0000 -2.5014 0.9707
-6.9891 -0.2816 -2.5014 0.9707
-6.9721 -0.5629 -2.5014 0.9707
-6.9438 -0.8431 -2.5014 0.9707
-6.9042 -1.1221 -2.5014 0.9707
-6.8535 -1.3992 -2.5014 0.9707
-6.7916 -1.6740 -2.5014 0.9707
-6.4351 -2.7417 -2.5014 0.9707
-6.3195 -2.9986 -2.5014 0.9707
-5.7566 -3.9735 -2.5014 0.9707
-5.2357 -4.6384 -2.5014 0.9707
-4.4238 -5.4182 -2.5014 0.9707
-2.9986 -6.3195 -2.5014 0.9707
-2.4804 -6.5403 -2.5014 0.9707
-2.2150 -6.6348 -2.5014 0.9707
-1.6740 -6.7916 -2.5014 0.9707
-1.1221 -6.9042 -2.5014 0.9707
-0.5629 -6.9721 -2.5014 0.9707
-0.0000 -6.9948 -2.5014 0.9707
0.2816 -6.9891 -2.5014 0.9707
0.8431 -6.9438 -2.5014 0.9707
1.3991 -6.8535 -2.5014 0.9707
1.9461 -6.7186 -2.5014 0.9707
2.4804 -6.5403 -2.5014 0.9707
2.7417 -6.4351 -2.5014 0.9707
2.9986 -6.3195 -2.5014 0.9707
3.4974 -6.0577 -2.5014 0.9707
4.2021 -5.5920 -2.5014 0.9707
4.4238 -5.4182 -2.5014 0.9707
4.6384 -5.2357 -2.5014 0.9707
5.2357 -4.6384 -2.5014 0.9707
5.5919 -4.2021 -2.5014 0.9707
6.0577 -3.4974 -2.5014 0.9707
6.1936 -3.2506 -2.5014 0.9707
6.3195 -2.9986 -2.5014 0.9707
6.6348 -2.2150 -2.5014 0.9707
6.7186 -1.9461 -2.5014 0.9707
6.7916 -1.6740 -2.5014 0.9707
6.8535 -1.3992 -2.5014 0.9707
6.9438 -0.8431 -2.5014 0.9707
6.9721 -0.5629 -2.5014 0.9707
6.9891 -0.2817 -2.5014 0.9707
6.9948 0.0000 -2.5014 0.9707
6.7915 1.6740 -2.5014 0.9707
6.7186 1.9461 -2.5014 0.9707
6.6348 2.2150 -2.5014 0.9707
6.5403 2.4804 -2.5014 0.9707
6.1936 3.2506 -2.5014 0.9707
5.5517 3.5107 -2.3490 0.9725
5.4065 3.7318 -2.3493 0.9725
5.0915 4.1571 -2.3506 0.9725
4.7429 4.5557 -2.3518 0.9724
4.5568 4.7441 -2.3524 0.9724
4.3632 4.9250 -2.3530 0.9724
4.1623 5.0979 -2.3535 0.9724
3.9546 5.2626 -2.3541 0.9724
3.2918 5.7015 -2.3543 0.9724
2.5805 6.0567 -2.3543 0.9724
2.3346 6.1557 -2.3543 0.9724
2.0848 6.2447 -2.3543 0.9724
1.0791 3.7254 -1.3870 0.9837
0.2601 6.4540 -2.3099 0.9729
0.0000 6.4811 -2.3177 0.9728
-0.7496 6.1738 -2.2240 0.9739
-1.4925 6.0556 -2.2304 0.9739
-1.6940 5.8486 -2.1775 0.9745
-1.9209 5.7539 -2.1693 0.9746
-2.3231 6.1257 -2.3429 0.9726
-2.5468 5.9777 -2.3236 0.9728
-3.2918 5.7015 -2.3543 0.9724
-4.3657 4.9279 -2.3543 0.9724
-4.7481 4.5606 -2.3543 0.9724
-5.0997 4.1637 -2.3543 0.9724
-5.4182 3.7399 -2.3543 0.9724
-5.5642 3.5186 -2.3543 0.9724
-5.7001 3.2909 -2.3537 0.9724
-4.4854 2.3541 -1.8115 0.9787
-5.9435 2.8202 -2.3526 0.9724
-6.2354 2.0817 -2.3508 0.9725
-6.4359 1.3139 -2.3490 0.9725
-6.8253 1.1092 -2.4728 0.9711
-6.9438 0.8431 -2.5014 0.9707
-6.9721 0.5629 -2.5014 0.9707
-6.9891 0.2817 -2.5014 0.9707
-3.5504 -0.0000 -1.3606 0.9849
-3.5589 -0.1434 -1.3649 0.9849
-3.5921 -0.4362 -1.3867 0.9846
-6.3377 -1.5621 -2.5014 0.9724
-6.1914 -2.0670 -2.5014 0.9724
-6.1032 -2.3146 -2.5014 0.9724
-5.7797 -3.0334 -2.5014 0.9724
-5.3719 -3.7079 -2.5014 0.9724
-5.2182 -3.9212 -2.5014 0.9724
-4.8858 -4.3284 -2.5014 0.9724
-4.7075 -4.5217 -2.5014 0.9724
-4.1282 -5.0561 -2.5014 0.9724
-3.9213 -5.2182 -2.5014 0.9724
-3.7080 -5.3719 -2.5014 0.9724
-3.2637 -5.6528 -2.5014 0.9724
-3.0334 -5.7797 -2.5014 0.9724
-2.7982 -5.8971 -2.5014 0.9724
-2.3146 -6.1032 -2.5014 0.9724
-1.0471 -6.4428 -2.5014 0.9724
-0.5252 -6.5062 -2.5014 0.9724
-0.0000 -6.5273 -2.5014 0.9724
0.2628 -6.5221 -2.5014 0.9724
0.5252 -6.5062 -2.5014 0.9724
0.7868 -6.4797 -2.5014 0.9724
2.0670 -6.1914 -2.5014 0.9724
2.7982 -5.8971 -2.5014 0.9724
3.0334 -5.7797 -2.5014 0.9724
3.4886 -5.5168 -2.5014 0.9724
3.9212 -5.2183 -2.5014 0.9724
4.1282 -5.0561 -2.5014 0.9724
4.3284 -4.8858 -2.5014 0.9724
4.5216 -4.7075 -2.5014 0.9724
5.0561 -4.1282 -2.5014 0.9724
5.3719 -3.7080 -2.5014 0.9724
5.6528 -3.2637 -2.5014 0.9724
5.8971 -2.7982 -2.5014 0.9724
6.0050 -2.5585 -2.5014 0.9724
6.1032 -2.3146 -2.5014 0.9724
6.2696 -1.8160 -2.5014 0.9724
6.4428 -1.0471 -2.5014 0.9724
6.4798 -0.7868 -2.5014 0.9724
6.5062 -0.5252 -2.5014 0.9724
6.5273 0.0000 -2.5014 0.9724
6.5220 0.2628 -2.5014 0.9724
6.5062 0.5252 -2.5014 0.9724
6.4428 1.0471 -2.5014 0.9724
6.3954 1.3056 -2.5014 0.9724
6.3377 1.5621 -2.5014 0.9724
6.1032 2.3146 -2.5014 0.9724
6.0050 2.5585 -2.5014 0.9724
5.8971 2.7982 -2.5014 0.9724
5.7797 3.0334 -2.5014 0.9724
5.4487 3.4455 -2.4705 0.9728
4.7501 3.8783 -2.3500 0.9741
4.5912 4.0675 -2.3506 0.9741
4.4248 4.2501 -2.3512 0.9741
4.2511 4.4258 -2.3517 0.9741
4.0704 4.5945 -2.3523 0.9740
3.6891 4.9093 -2.3533 0.9740
3.4891 5.0549 -2.3538 0.9740
3.2834 5.1923 -2.3542 0.9740
2.4081 5.6520 -2.3543 0.9740
1.0788 3.7243 -1.4859 0.9835
0.7872 3.8559 -1.5081 0.9833
0.7405 6.0988 -2.3543 0.9740
0.2474 6.1386 -2.3543 0.9740
0.0000 6.1436 -2.3543 0.9740
-0.2474 6.1386 -2.3543 0.9740
-0.7405 6.0988 -2.3543 0.9740
-1.4702 5.9650 -2.3543 0.9740
-1.7092 5.9010 -2.3543 0.9740
-1.9455 5.8274 -2.3543 0.9740
-2.8551 5.4399 -2.3543 0.9740
-3.0718 5.3205 -2.3543 0.9740
-3.4899 5.0561 -2.3543 0.9740
-3.6907 4.9114 -2.3543 0.9740
-4.2558 4.4308 -2.3543 0.9740
-4.4308 4.2558 -2.3543 0.9740
-4.9114 3.6907 -2.3543 0.9740
-5.0553 3.4894 -2.3540 0.9740
-5.3174 3.0700 -2.3530 0.9740
-4.4854 2.3541 -1.9412 0.9785
-5.8893 1.7058 -2.3496 0.9741
-5.9517 1.4670 -2.3490 0.9741
-6.1078 1.2469 -2.3889 0.9737
-3.5687 0.2881 -1.3720 0.9848
-3.5589 0.1434 -1.3649 0.9849
-2.9322 -0.3560 -1.2089 0.9873
-3.0070 -0.6139 -1.2561 0.9868
-5.9342 -1.4626 -2.5014 0.9739
-5.8705 -1.7004 -2.5014 0.9739
-5.7972 -1.9354 -2.5014 0.9739
-5.7146 -2.1673 -2.5014 0.9739
-5.5217 -2.6201 -2.5014 0.9739
-5.4117 -2.8403 -2.5014 0.9739
-5.2930 -3.0559 -2.5014 0.9739
-5.0299 -3.4719 -2.5014 0.9739
-4.8860 -3.6716 -2.5014 0.9739
-4.7342 -3.8654 -2.5014 0.9739
-4.5747 -4.0529 -2.5014 0.9739
-4.4078 -4.2338 -2.5014 0.9739
-3.8654 -4.7342 -2.5014 0.9739
-3.6716 -4.8860 -2.5014 0.9739
-3.4719 -5.0299 -2.5014 0.9739
-3.0559 -5.2929 -2.5014 0.9739
-2.8403 -5.4117 -2.5014 0.9739
-2.6201 -5.5217 -2.5014 0.9739
-2.1673 -5.7146 -2.5014 0.9739
-1.7004 -5.8705 -2.5014 0.9739
-1.2225 -5.9883 -2.5014 0.9739
-0.9804 -6.0326 -2.5014 0.9739
-0.4918 -6.0920 -2.5014 0.9739
0.4918 -6.0920 -2.5014 0.9739
1.4626 -5.9342 -2.5014 0.9739
1.7004 -5.8705 -2.5014 0.9739
2.1673 -5.7146 -2.5014 0.9739
2.6201 -5.5217 -2.5014 0.9739
3.0559 -5.2929 -2.5014 0.9739
3.2665 -5.1656 -2.5014 0.9739
3.4719 -5.0299 -2.5014 0.9739
3.8654 -4.7342 -2.5014 0.9739
4.0529 -4.5747 -2.5014 0.9739
4.4078 -4.2338 -2.5014 0.9739
4.5747 -4.0529 -2.5014 0.9739
4.7342 -3.8654 -2.5014 0.9739
5.0299 -3.4719 -2.5014 0.9739
5.2929 -3.0559 -2.5014 0.9739
5.4117 -2.8403 -2.5014 0.9739
5.5217 -2.6201 -2.5014 0.9739
5.7146 -2.1673 -2.5014 0.9739
5.7972 -1.9354 -2.5014 0.9739
5.8705 -1.7004 -2.5014 0.9739
5.9342 -1.4626 -2.5014 0.9739
6.0326 -0.9804 -2.5014 0.9739
6.0672 -0.7367 -2.5014 0.9739
6.1068 -0.2461 -2.5014 0.9739
6.1118 -0.0000 -2.5014 0.9739
6.0920 0.4918 -2.5014 0.9739
6.0672 0.7367 -2.5014 0.9739
6.0326 0.9804 -2.5014 0.9739
5.9883 1.2225 -2.5014 0.9739
5.9342 1.4626 -2.5014 0.9739
5.7972 1.9354 -2.5014 0.9739
5.7146 2.1673 -2.5014 0.9739
5.6227 2.3956 -2.5014 0.9739
5.5217 2.6200 -2.5014 0.9739
5.2930 3.0559 -2.5014 0.9739
5.1656 3.2665 -2.5014 0.9739
4.8187 3.3261 -2.3964 0.9750
3.9794 4.1430 -2.3511 0.9755
3.2660 4.7316 -2.3531 0.9755
3.0734 4.8602 -2.3535 0.9755
2.8757 4.9809 -2.3539 0.9754
2.6733 5.0935 -2.3543 0.9754
2.4660 5.1970 -2.3543 0.9754
2.0398 5.3786 -2.3543 0.9754
1.8216 5.4564 -2.3543 0.9754
1.0784 3.7232 -1.5865 0.9834
0.9136 3.7068 -1.5625 0.9836
0.7869 3.8546 -1.6101 0.9831
0.9228 5.6779 -2.3543 0.9754
-0.4629 5.7338 -2.3543 0.9754
-0.6934 5.7105 -2.3543 0.9754
-0.9228 5.6779 -2.3543 0.9754
-1.1506 5.6362 -2.3543 0.9754
-1.6004 5.5253 -2.3543 0.9754
-1.8216 5.4564 -2.3543 0.9754
-2.2548 5.2921 -2.3543 0.9754
-2.4660 5.1971 -2.3543 0.9754
-2.6733 5.0935 -2.3543 0.9754
-3.8146 4.3058 -2.3543 0.9754
-3.9849 4.1487 -2.3543 0.9754
-4.3058 3.8146 -2.3543 0.9754
-4.5974 3.4547 -2.3537 0.9755
-4.7319 3.2662 -2.3532 0.9755
-4.8587 3.0724 -2.3528 0.9755
-4.9775 2.8738 -2.3523 0.9755
-4.4332 2.3267 -2.0491 0.9786
-5.2842 2.2514 -2.3508 0.9755
-5.4458 1.8181 -2.3497 0.9755
-5.5726 1.3735 -2.3490 0.9755
-3.0246 0.4915 -1.2541 0.9868
-2.9322 0.3560 -1.2089 0.9873
-2.8096 0.2268 -1.1536 0.9879
-2.8203 0.1137 -1.1552 0.9879
-2.3794 -0.2889 -1.0446 0.9896
-2.4021 -0.3904 -1.0606 0.9894
-2.4207 -0.4942 -1.0767 0.9893
-5.5728 -1.3736 -2.5014 0.9753
-5.5129 -1.5968 -2.5014 0.9753
-5.4442 -1.8175 -2.5014 0.9753
-5.3666 -2.0353 -2.5014 0.9753
-5.2803 -2.2497 -2.5014 0.9753
-4.7236 -3.2604 -2.5014 0.9753
-4.4459 -3.6300 -2.5014 0.9753
-4.1394 -3.9759 -2.5014 0.9753
-3.9759 -4.1394 -2.5014 0.9753
-3.4480 -4.5884 -2.5014 0.9753
-3.0676 -4.8510 -2.5014 0.9753
-2.8698 -4.9706 -2.5014 0.9753
-2.6673 -5.0821 -2.5014 0.9753
-2.4605 -5.1854 -2.5014 0.9753
-2.2497 -5.2803 -2.5014 0.9753
-2.0353 -5.3666 -2.5014 0.9753
-1.8175 -5.4442 -2.5014 0.9753
-1.5968 -5.5130 -2.5014 0.9753
-1.3736 -5.5728 -2.5014 0.9753
-1.1481 -5.6236 -2.5014 0.9753
-0.9207 -5.6652 -2.5014 0.9753
-0.2311 -5.7349 -2.5014 0.9753
0.0000 -5.7396 -2.5014 0.9753
0.2311 -5.7349 -2.5014 0.9753
0.6918 -5.6977 -2.5014 0.9753
0.9207 -5.6652 -2.5014 0.9753
1.5968 -5.5129 -2.5014 0.9753
1.8175 -5.4442 -2.5014 0.9753
2.0353 -5.3666 -2.5014 0.9753
2.2497 -5.2803 -2.5014 0.9753
2.4605 -5.1854 -2.5014 0.9753
3.0676 -4.8510 -2.5014 0.9753
3.8060 -4.2961 -2.5014 0.9753
3.9759 -4.1394 -2.5014 0.9753
4.2961 -3.8060 -2.5014 0.9753
4.5885 -3.4480 -2.5014 0.9753
4.7236 -3.2604 -2.5014 0.9753
4.8510 -3.0676 -2.5014 0.9753
4.9706 -2.8698 -2.5014 0.9753
5.1854 -2.4605 -2.5014 0.9753
5.3666 -2.0353 -2.5014 0.9753
5.6236 -1.1481 -2.5014 0.9753
5.6652 -0.9207 -2.5014 0.9753
5.7209 -0.4618 -2.5014 0.9753
5.7349 -0.2311 -2.5014 0.9753
5.7396 0.0000 -2.5014 0.9753
5.7349 0.2311 -2.5014 0.9753
5.6236 1.1481 -2.5014 0.9753
5.5728 1.3736 -2.5014 0.9753
5.4442 1.8175 -2.5014 0.9753
5.1854 2.4605 -2.5014 0.9753
4.9706 2.8698 -2.5014 0.9753
4.7236 3.2604 -2.5014 0.9753
4.3106 3.2392 -2.3499 0.9767
3.8890 3.7355 -2.3501 0.9767
3.5773 4.0379 -2.3511 0.9767
3.2420 4.3144 -2.3520 0.9767
1.7107 5.1241 -2.3543 0.9767
1.0781 3.7221 -1.6888 0.9832
0.7867 3.8533 -1.7140 0.9830
0.8666 5.3321 -2.3543 0.9767
0.6512 5.3627 -2.3543 0.9767
0.2175 5.3977 -2.3543 0.9767
-0.2175 5.3977 -2.3543 0.9767
-0.4347 5.3846 -2.3543 0.9767
-0.6512 5.3627 -2.3543 0.9767
-0.8666 5.3322 -2.3543 0.9767
-1.2928 5.2451 -2.3543 0.9767
-1.7107 5.1241 -2.3543 0.9767
-1.9156 5.0511 -2.3543 0.9767
-2.1174 4.9698 -2.3543 0.9767
-2.5105 4.7833 -2.3543 0.9767
-2.7011 4.6784 -2.3543 0.9767
-2.8872 4.5658 -2.3543 0.9767
-3.0687 4.4458 -2.3543 0.9767
-3.2453 4.3187 -2.3543 0.9767
-3.4165 4.1845 -2.3543 0.9767
-3.5823 4.0435 -2.3543 0.9767
-3.8956 3.7418 -2.3541 0.9767
-4.0425 3.5813 -2.3537 0.9767
-4.1828 3.4151 -2.3534 0.9767
-4.5616 2.8846 -2.3521 0.9767
-4.4762 2.5843 -2.2526 0.9777
-4.6697 2.2158 -2.2526 0.9777
-5.0414 1.9119 -2.3498 0.9767
-5.1771 1.4996 -2.3490 0.9768
-5.4616 1.3462 -2.4515 0.9758
-2.3649 0.1909 -1.0340 0.9897
-2.3670 0.0954 -1.0324 0.9897
-2.2030 -0.0000 -1.0198 0.9903
-2.2008 -0.1777 -1.0220 0.9903
-2.2080 -0.2681 -1.0295 0.9902
-2.2302 -0.3625 -1.0459 0.9901
-5.0528 -1.9163 -2.5014 0.9765
-4.8822 -2.3166 -2.5014 0.9765
-4.7849 -2.5113 -2.5014 0.9765
-4.6799 -2.7020 -2.5014 0.9765
-3.8973 -3.7434 -2.5014 0.9765
-3.5835 -4.0449 -2.5014 0.9765
-3.0698 -4.4473 -2.5014 0.9765
-2.8882 -4.5673 -2.5014 0.9765
-2.7020 -4.6799 -2.5014 0.9765
-2.5113 -4.7849 -2.5014 0.9765
-2.3166 -4.8822 -2.5014 0.9765
-2.1182 -4.9715 -2.5014 0.9765
-1.7112 -5.1258 -2.5014 0.9765
-1.5035 -5.1906 -2.5014 0.9765
-1.2932 -5.2469 -2.5014 0.9765
-0.6514 -5.3645 -2.5014 0.9765
-0.4348 -5.3864 -2.5014 0.9765
-0.0000 -5.4039 -2.5014 0.9765
0.4348 -5.3864 -2.5014 0.9765
1.7112 -5.1258 -2.5014 0.9765
1.9163 -5.0528 -2.5014 0.9765
2.1182 -4.9715 -2.5014 0.9765
2.3166 -4.8822 -2.5014 0.9765
2.5113 -4.7849 -2.5014 0.9765
2.7020 -4.6799 -2.5014 0.9765
2.8882 -4.5673 -2.5014 0.9765
3.5835 -4.0449 -2.5014 0.9765
3.7434 -3.8973 -2.5014 0.9765
4.0449 -3.5835 -2.5014 0.9765
4.1859 -3.4177 -2.5014 0.9765
4.4473 -3.0698 -2.5014 0.9765
4.5673 -2.8882 -2.5014 0.9765
4.7849 -2.5113 -2.5014 0.9765
4.9715 -2.1182 -2.5014 0.9765
5.1258 -1.7112 -2.5014 0.9765
5.1906 -1.5035 -2.5014 0.9765
5.2469 -1.2933 -2.5014 0.9765
5.3340 -0.8669 -2.5014 0.9765
5.3995 -0.2176 -2.5014 0.9765
5.3995 0.2176 -2.5014 0.9765
5.3340 0.8668 -2.5014 0.9765
5.2947 1.0809 -2.5014 0.9765
5.2469 1.2933 -2.5014 0.9765
5.1906 1.5035 -2.5014 0.9765
5.1258 1.7112 -2.5014 0.9765
5.0527 1.9163 -2.5014 0.9765
4.8822 2.3166 -2.5014 0.9765
4.7849 2.5113 -2.5014 0.9765
4.5673 2.8882 -2.5014 0.9765
4.4473 3.0698 -2.5014 0.9765
3.6609 3.5163 -2.3497 0.9779
3.5170 3.6616 -2.3501 0.9779
3.3674 3.8010 -2.3506 0.9779
3.2122 3.9342 -2.3510 0.9779
2.5412 4.4015 -2.3526 0.9778
1.6105 4.8241 -2.3542 0.9778
0.9130 3.7043 -1.7660 0.9833
0.8159 5.0203 -2.3543 0.9778
0.6131 5.0491 -2.3543 0.9778
0.4093 5.0697 -2.3543 0.9778
0.2048 5.0821 -2.3543 0.9778
-0.4093 5.0697 -2.3543 0.9778
-0.8159 5.0203 -2.3543 0.9778
-1.2172 4.9384 -2.3543 0.9778
-1.4151 4.8854 -2.3543 0.9778
-1.6106 4.8244 -2.3543 0.9778
-1.9936 4.6792 -2.3543 0.9778
-2.5431 4.4048 -2.3543 0.9778
-2.8893 4.1859 -2.3543 0.9778
-3.0555 4.0661 -2.3543 0.9778
-3.2167 3.9397 -2.3543 0.9778
-3.3723 3.8065 -2.3540 0.9778
-3.8050 3.3710 -2.3531 0.9778
-4.0627 3.0529 -2.3523 0.9778
-4.1817 2.8864 -2.3520 0.9779
-4.2938 2.7152 -2.3516 0.9779
-4.3090 2.2615 -2.2526 0.9788
-4.5563 2.1620 -2.3344 0.9780
-4.6703 1.9898 -2.3498 0.9779
-4.9730 1.4404 -2.3965 0.9774
-2.3851 0.5879 -1.1370 0.9892
-2.0595 -0.0830 -1.0111 0.9909
-2.0571 -0.1661 -1.0123 0.9908
-2.0575 -0.2498 -1.0167 0.9908
-2.0750 -0.3372 -1.0312 0.9907
-2.0898 -0.4266 -1.0462 0.9905
-2.9436 -0.8526 -1.5032 0.9864
-4.6914 -1.9988 -2.5014 0.9775
-4.6071 -2.1861 -2.5014 0.9775
-4.5153 -2.3698 -2.5014 0.9775
-4.4162 -2.5497 -2.5014 0.9775
-4.1968 -2.8968 -2.5014 0.9775
-3.9501 -3.2251 -2.5014 0.9775
-3.6777 -3.5325 -2.5014 0.9775
-2.5497 -4.4162 -2.5014 0.9775
-2.1861 -4.6071 -2.5014 0.9775
-1.9988 -4.6914 -2.5014 0.9775
-1.8083 -4.7681 -2.5014 0.9775
-1.6148 -4.8370 -2.5014 0.9775
-1.4187 -4.8981 -2.5014 0.9775
-1.0200 -4.9964 -2.5014 0.9775
-0.6147 -5.0623 -2.5014 0.9775
-0.4103 -5.0829 -2.5014 0.9775
-0.2053 -5.0953 -2.5014 0.9775
-0.0000 -5.0995 -2.5014 0.9775
0.8180 -5.0334 -2.5014 0.9775
1.8083 -4.7681 -2.5014 0.9775
1.9988 -4.6914 -2.5014 0.9775
2.3698 -4.5153 -2.5014 0.9775
2.7255 -4.3100 -2.5014 0.9775
2.8968 -4.1968 -2.5014 0.9775
3.5325 -3.6777 -2.5014 0.9775
3.6777 -3.5325 -2.5014 0.9775
3.8170 -3.3816 -2.5014 0.9775
4.0767 -3.0635 -2.5014 0.9775
4.1968 -2.8968 -2.5014 0.9775
4.3100 -2.7255 -2.5014 0.9775
4.4162 -2.5497 -2.5014 0.9775
4.6914 -1.9988 -2.5014 0.9775
4.7681 -1.8083 -2.5014 0.9775
4.9513 -1.2204 -2.5014 0.9775
5.0334 -0.8180 -2.5014 0.9775
5.0623 -0.6147 -2.5014 0.9775
5.0829 -0.4103 -2.5014 0.9775
5.0953 -0.2054 -2.5014 0.9775
5.0334 0.8180 -2.5014 0.9775
4.9964 1.0200 -2.5014 0.9775
4.9513 1.2204 -2.5014 0.9775
4.8370 1.6148 -2.5014 0.9775
4.6914 1.9988 -2.5014 0.9775
4.6071 2.1861 -2.5014 0.9775
4.5153 2.3698 -2.5014 0.9775
4.4162 2.5497 -2.5014 0.9775
4.0767 3.0634 -2.5014 0.9775
3.5844 3.1755 -2.3490 0.9789
3.1770 3.5861 -2.3501 0.9789
2.8791 3.8314 -2.3509 0.9789
2.2286 4.2463 -2.3523 0.9789
1.0775 3.7199 -1.8997 0.9829
0.9127 3.7031 -1.8708 0.9832
0.7861 3.8506 -1.9278 0.9826
0.7699 4.7375 -2.3543 0.9788
0.5785 4.7646 -2.3543 0.9788
0.3862 4.7841 -2.3543 0.9788
-0.1933 4.7957 -2.3543 0.9788
-0.5785 4.7646 -2.3543 0.9788
-0.7699 4.7375 -2.3543 0.9788
-1.1486 4.6602 -2.3543 0.9788
-1.3353 4.6101 -2.3543 0.9788
-1.5199 4.5526 -2.3543 0.9788
-1.7020 4.4877 -2.3543 0.9788
-2.2305 4.2498 -2.3543 0.9788
-2.5652 4.0565 -2.3543 0.9788
-3.1814 3.5911 -2.3533 0.9789
-3.3230 3.4596 -2.3531 0.9789
-3.4592 3.3226 -2.3528 0.9789
-3.5897 3.1802 -2.3525 0.9789
-3.7143 3.0327 -2.3521 0.9789
-3.8329 2.8802 -2.3518 0.9789
-4.2425 2.2267 -2.3503 0.9789
-4.4811 1.6995 -2.3509 0.9789
-4.5613 1.5228 -2.3588 0.9788
-2.0575 0.2498 -1.0167 0.9908
-2.0571 0.1661 -1.0123 0.9908
-2.0595 0.0830 -1.0111 0.9909
-1.9445 -0.2361 -1.0162 0.9912
-1.9687 -0.4852 -1.0519 0.9909
-2.3248 -0.6734 -1.2557 0.9892
-4.5735 -1.5269 -2.5014 0.9785
-4.4359 -1.8900 -2.5014 0.9785
-4.3562 -2.0670 -2.5014 0.9785
-3.9682 -2.7390 -2.5014 0.9785
-3.6091 -3.1974 -2.5014 0.9785
-3.3401 -3.4774 -2.5014 0.9785
-3.1974 -3.6091 -2.5014 0.9785
-3.0495 -3.7349 -2.5014 0.9785
-2.8966 -3.8547 -2.5014 0.9785
-2.4109 -4.1757 -2.5014 0.9785
-2.0670 -4.3562 -2.5014 0.9785
-1.7098 -4.5084 -2.5014 0.9785
-1.5269 -4.5736 -2.5014 0.9785
-1.3415 -4.6313 -2.5014 0.9785
-0.3880 -4.8061 -2.5014 0.9785
-0.1942 -4.8178 -2.5014 0.9785
-0.0000 -4.8217 -2.5014 0.9785
0.1941 -4.8178 -2.5014 0.9785
0.3880 -4.8061 -2.5014 0.9785
0.5812 -4.7865 -2.5014 0.9785
0.9645 -4.7242 -2.5014 0.9785
1.1539 -4.6816 -2.5014 0.9785
1.3415 -4.6313 -2.5014 0.9785
1.5269 -4.5736 -2.5014 0.9785
1.7098 -4.5084 -2.5014 0.9785
1.8899 -4.4359 -2.5014 0.9785
2.0670 -4.3562 -2.5014 0.9785
2.5770 -4.0753 -2.5014 0.9785
2.7390 -3.9682 -2.5014 0.9785
2.8966 -3.8547 -2.5014 0.9785
3.4774 -3.3401 -2.5014 0.9785
3.6091 -3.1974 -2.5014 0.9785
3.7349 -3.0495 -2.5014 0.9785
4.0752 -2.5770 -2.5014 0.9785
4.4359 -1.8900 -2.5014 0.9785
4.5084 -1.7098 -2.5014 0.9785
4.6313 -1.3415 -2.5014 0.9785
4.8178 -0.1942 -2.5014 0.9785
4.8061 0.3880 -2.5014 0.9785
4.7242 0.9645 -2.5014 0.9785
4.6313 1.3415 -2.5014 0.9785
4.5084 1.7098 -2.5014 0.9785
4.4359 1.8899 -2.5014 0.9785
4.3562 2.0670 -2.5014 0.9785
4.2694 2.2408 -2.5014 0.9785
4.1757 2.4108 -2.5014 0.9785
4.0752 2.5770 -2.5014 0.9785
3.9682 2.7390 -2.5014 0.9785
3.2655 3.1366 -2.3490 0.9798
3.1370 3.2660 -2.3493 0.9798
2.5741 3.7293 -2.3508 0.9798
2.4222 3.8304 -2.3511 0.9798
2.2664 3.9254 -2.3515 0.9798
2.1067 4.0141 -2.3518 0.9798
1.9437 4.0962 -2.3521 0.9798
1.7774 4.1716 -2.3524 0.9798
1.6081 4.2403 -2.3527 0.9798
1.0771 3.7187 -2.0085 0.9827
0.9124 3.7018 -1.9779 0.9830
0.7858 3.8493 -2.0381 0.9825
0.0000 4.5381 -2.3543 0.9798
-0.3652 4.5235 -2.3543 0.9798
-0.7280 4.4794 -2.3543 0.9798
-0.9078 4.4465 -2.3543 0.9798
-1.2626 4.3590 -2.3543 0.9798
-1.4371 4.3047 -2.3543 0.9798
-2.1087 4.0177 -2.3539 0.9798
-2.4248 3.8345 -2.3536 0.9798
-2.7250 3.6263 -2.3532 0.9798
-3.0074 3.3946 -2.3527 0.9798
-3.3934 3.0063 -2.3519 0.9798
-3.5112 2.8668 -2.3516 0.9798
-3.7295 2.5743 -2.3509 0.9798
-3.9233 2.2651 -2.3502 0.9798
-4.0915 1.9414 -2.3494 0.9798
-4.2337 1.6056 -2.3490 0.9798
-2.3248 0.6734 -1.2556 0.9892
-1.9687 0.4852 -1.0519 0.9909
-1.9607 0.4003 -1.0382 0.9910
-1.9520 0.3172 -1.0259 0.9911
-1.9494 0.0786 -1.0121 0.9912
-1.8467 0.0000 -1.0115 0.9916
-1.8480 -0.0745 -1.0130 0.9916
-1.8463 -0.1490 -1.0145 0.9916
-1.8480 -0.3003 -1.0254 0.9915
-1.8515 -0.4564 -1.0444 0.9913
-2.7121 -0.9054 -1.5660 0.9870
-4.2703 -1.6195 -2.5014 0.9794
-3.9552 -2.2835 -2.5014 0.9794
-3.8600 -2.4409 -2.5014 0.9794
-3.7586 -2.5944 -2.5014 0.9794
-3.5377 -2.8884 -2.5014 0.9794
-3.4185 -3.0285 -2.5014 0.9794
-2.8884 -3.5377 -2.5014 0.9794
-2.1224 -4.0439 -2.5014 0.9794
-1.7901 -4.2016 -2.5014 0.9794
-1.4462 -4.3320 -2.5014 0.9794
-0.9135 -4.4748 -2.5014 0.9794
-0.7326 -4.5079 -2.5014 0.9794
0.5505 -4.5338 -2.5014 0.9794
0.7326 -4.5079 -2.5014 0.9794
1.6195 -4.2703 -2.5014 0.9794
1.7901 -4.2016 -2.5014 0.9794
2.2835 -3.9552 -2.5014 0.9794
2.4409 -3.8600 -2.5014 0.9794
2.8884 -3.5377 -2.5014 0.9794
3.0285 -3.4185 -2.5014 0.9794
3.1637 -3.2938 -2.5014 0.9794
3.2938 -3.1637 -2.5014 0.9794
3.4185 -3.0285 -2.5014 0.9794
3.6511 -2.7436 -2.5014 0.9794
3.8600 -2.4409 -2.5014 0.9794
3.9552 -2.2835 -2.5014 0.9794
4.2016 -1.7901 -2.5014 0.9794
4.3867 -1.2706 -2.5014 0.9794
4.4343 -1.0930 -2.5014 0.9794
4.4748 -0.9135 -2.5014 0.9794
4.5671 0.0000 -2.5014 0.9794
4.5634 0.1839 -2.5014 0.9794
4.5338 0.5505 -2.5014 0.9794
4.4748 0.9135 -2.5014 0.9794
4.3867 1.2706 -2.5014 0.9794
4.2703 1.6195 -2.5014 0.9794
4.0439 2.1224 -2.5014 0.9794
3.7586 2.5944 -2.5014 0.9794
3.6511 2.7436 -2.5014 0.9794
3.5377 2.8884 -2.5014 0.9794
