ply
format ascii 1.0
element vertex 1570
property float32 x
property float32 y
property float32 z
property float32 I
end_header
6.6803 -20.0100 -0.1188 0.9191
7.1960 -16.8897 -0.1034 0.9292
7.4403 -15.6802 -0.0977 0.9329
9.3158 -16.1354 -0.1049 0.9282
13.4434 -21.2590 -0.1416 0.9043
13.1649 -19.0727 -0.1305 0.9115
15.9295 -21.1983 -0.1493 0.8994
16.4435 -20.1397 -0.1464 0.9012
17.2457 -19.4664 -0.1464 0.9012
25.6142 8.5513 -0.1522 0.8976
18.2270 9.5662 -0.1159 0.9210
15.3095 9.6811 -0.1020 0.9301
10.4456 9.2540 -0.0786 0.9457
5.5729 9.6526 -0.0628 0.9564
5.0660 9.6526 -0.0614 0.9573
4.5414 9.5708 -0.0596 0.9585
3.1001 8.1744 -0.0492 0.9656
2.0546 8.3361 -0.0483 0.9662
1.1686 9.6247 -0.0546 0.9620
0.7770 9.6248 -0.0544 0.9621
-0.0000 9.6811 -0.0545 0.9620
-0.3901 9.6811 -0.0546 0.9620
-1.9764 9.6811 -0.0556 0.9612
-2.3862 9.6811 -0.0561 0.9609
-2.7879 9.6248 -0.0564 0.9607
-3.2132 9.6248 -0.0571 0.9602
-3.8448 9.0240 -0.0552 0.9615
-4.7072 8.1530 -0.0530 0.9630
-32.8232 34.1725 -0.2668 0.8273
-31.4733 27.8829 -0.2367 0.8452
-12.1740 7.6984 -0.0811 0.9440
-32.4966 17.0555 -0.2066 0.8635
-31.1467 14.7793 -0.1941 0.8712
-30.8434 6.2968 -0.1772 0.8817
-37.0032 6.0136 -0.2111 0.8607
-44.5677 -16.9023 -1.3421 0.8264
-35.1643 -16.6857 -1.0960 0.8558
-31.4839 -16.5240 -1.0012 0.8674
-37.3363 -23.6102 -1.2439 0.8380
-24.2002 -16.7042 -0.8280 0.8890
-26.2354 -19.7146 -0.9241 0.8769
-21.1658 -17.2813 -0.7694 0.8964
-20.2630 -17.9515 -0.7623 0.8973
-11.4548 -24.1405 -0.7524 0.8986
-8.5006 -22.4142 -0.6750 0.9085
-4.6128 -15.9251 -0.4668 0.9358
-4.8148 -29.6265 -0.8452 0.8868
-2.1534 -26.6740 -0.7535 0.8984
-0.9990 -24.7901 -0.6986 0.9055
0.0000 -25.1925 -0.7094 0.9041
1.0646 -26.4177 -0.7445 0.8996
5.4945 -18.9692 -0.5561 0.9240
11.3315 -26.5961 -0.8140 0.8908
7.4195 -15.6364 -0.4873 0.9331
8.4867 -14.6994 -0.4779 0.9343
15.2329 -18.6569 -0.6782 0.9081
24.4724 -25.4785 -0.9947 0.8682
22.9569 -15.8460 -0.7855 0.8944
25.6142 8.5513 -0.7604 0.8976
19.2445 8.1993 -0.5890 0.9197
17.3054 9.0826 -0.5503 0.9248
15.5797 8.9950 -0.5066 0.9305
14.0607 8.8914 -0.4684 0.9356
11.0418 8.2974 -0.3889 0.9462
10.6193 8.6704 -0.3860 0.9466
9.2714 9.6526 -0.3769 0.9479
6.6627 9.6526 -0.3303 0.9542
5.5729 9.6526 -0.3138 0.9564
2.7537 8.2485 -0.2449 0.9658
2.0546 8.3361 -0.2418 0.9662
1.7687 8.6635 -0.2490 0.9652
0.7770 9.6248 -0.2719 0.9621
-0.7816 9.6811 -0.2735 0.9619
-1.0451 8.6073 -0.2441 0.9659
-1.5734 9.6811 -0.2762 0.9615
-1.9764 9.6811 -0.2782 0.9612
-2.7879 9.6248 -0.2822 0.9607
-3.7716 8.8521 -0.2709 0.9622
-4.3788 8.3431 -0.2653 0.9630
-31.3505 35.3874 -1.3312 0.8276
-31.5502 21.7776 -1.0795 0.8578
-32.4598 18.7407 -1.0554 0.8607
-32.4954 17.0549 -1.0334 0.8634
-31.0697 14.7428 -0.9683 0.8714
-32.0459 13.6535 -0.9808 0.8699
-30.8869 10.3116 -0.9169 0.8778
-30.8869 7.6130 -0.8957 0.8805
-30.8434 6.2968 -0.8864 0.8816
-49.2955 -0.0000 -2.5000 0.8208
-49.2555 -1.9849 -2.5000 0.8208
-48.9361 -5.9419 -2.5000 0.8208
-48.6571 -7.9076 -2.5000 0.8208
-48.2993 -9.8604 -2.5000 0.8208
-43.9220 -14.6633 -2.3483 0.8307
-41.1161 -17.5179 -2.2665 0.8361
-35.1643 -16.6857 -1.9739 0.8557
-26.2495 -16.5992 -1.5751 0.8830
-23.7939 -16.4237 -1.4662 0.8907
-21.7948 -16.3777 -1.3826 0.8966
-18.3983 -16.2995 -1.2465 0.9062
-16.8387 -16.1738 -1.1841 0.9107
-15.5183 -16.1563 -1.1361 0.9142
-21.2390 -28.2641 -1.7930 0.8680
-24.5352 -38.7992 -2.3281 0.8321
-22.9439 -39.7400 -2.3272 0.8321
-11.2727 -23.7567 -1.3336 0.9000
-8.3993 -22.1470 -1.2012 0.9095
-4.6131 -15.9262 -0.8409 0.9357
-5.8911 -23.9010 -1.2484 0.9061
-9.1598 -44.8678 -2.3224 0.8324
-7.3449 -45.1951 -2.3221 0.8324
-5.5187 -45.4505 -2.3219 0.8325
-3.6840 -45.6337 -2.3218 0.8325
0.0000 -45.7824 -2.3218 0.8325
7.3470 -45.2078 -2.3228 0.8324
7.4208 -15.6390 -0.8779 0.9330
21.3815 -40.7390 -2.3333 0.8317
10.7345 -15.5516 -0.9583 0.9271
12.7228 -15.5826 -1.0202 0.9226
14.9187 -15.5320 -1.0922 0.9174
16.2365 -15.5954 -1.1417 0.9138
17.5521 -15.5499 -1.1892 0.9104
18.9106 -15.4401 -1.2381 0.9068
41.6643 -26.3469 -2.5000 0.8208
42.6914 -24.6479 -2.5000 0.8208
42.9209 -22.5266 -2.4583 0.8235
43.2826 -16.4149 -2.3476 0.8308
46.1862 -13.3780 -2.4386 0.8248
48.2992 -9.8604 -2.5000 0.8208
49.2555 1.9849 -2.5000 0.8208
45.9529 5.5797 -2.3476 0.8308
45.6911 7.4256 -2.3476 0.8308
45.0242 11.0975 -2.3517 0.8305
44.5230 12.8963 -2.3508 0.8306
43.3009 16.4219 -2.3486 0.8307
19.2787 8.2139 -1.0627 0.9195
15.5401 8.1561 -0.8901 0.9321
14.1566 8.1733 -0.8290 0.9366
14.0608 8.8915 -0.8437 0.9355
11.9882 8.2749 -0.7387 0.9433
11.1310 8.3644 -0.7061 0.9458
10.7928 8.8121 -0.7066 0.9457
8.5514 9.6526 -0.6540 0.9497
7.8811 9.6526 -0.6320 0.9513
6.6627 9.6526 -0.5948 0.9541
6.1039 9.6526 -0.5792 0.9553
5.0660 9.6526 -0.5528 0.9573
3.0702 8.0955 -0.4391 0.9659
1.7221 8.4355 -0.4366 0.9661
1.4374 8.8445 -0.4544 0.9647
-0.0000 9.6875 -0.4913 0.9619
-0.3905 9.6889 -0.4918 0.9619
-0.7816 9.6811 -0.4926 0.9618
-1.0451 8.6073 -0.4397 0.9659
-1.4124 8.6907 -0.4465 0.9654
-2.6811 9.2560 -0.4887 0.9621
-3.6098 9.5182 -0.5163 0.9600
-4.0432 8.5209 -0.4783 0.9629
-4.3788 8.3431 -0.4779 0.9630
-5.7420 8.3187 -0.5126 0.9603
-30.3342 34.2402 -2.3199 0.8326
-31.3489 30.1110 -2.2044 0.8402
-31.4733 27.8829 -2.1324 0.8450
-32.4511 26.4954 -2.1246 0.8455
-31.0309 23.3182 -1.9685 0.8560
-29.9440 20.6688 -1.8452 0.8644
-12.1740 7.6983 -0.7305 0.9439
-32.4962 17.0553 -1.8612 0.8633
-31.9838 13.6270 -1.7631 0.8700
-30.8640 11.7052 -1.6740 0.8762
-30.8869 10.3116 -1.6514 0.8777
-30.8869 8.9465 -1.6308 0.8792
-30.8435 6.2968 -1.5965 0.8815
-45.9883 5.5840 -2.3494 0.8307
-46.1499 3.7256 -2.3481 0.8307
-49.2555 1.9849 -2.5000 0.8208
-34.0959 0.0000 -2.5000 0.8722
-34.0683 -1.3729 -2.5000 0.8722
-33.4069 -6.8201 -2.5000 0.8722
-32.7498 -9.4861 -2.5000 0.8722
-32.3412 -10.7971 -2.5000 0.8722
-31.8802 -12.0906 -2.5000 0.8722
-30.9995 -13.2076 -2.4706 0.8736
-28.9271 -13.7261 -2.3477 0.8795
-27.7391 -16.0152 -2.3485 0.8794
-21.7948 -16.3777 -1.9989 0.8964
-20.0087 -16.3366 -1.8940 0.9016
-18.4699 -16.3629 -1.8093 0.9058
-16.8387 -16.1738 -1.7120 0.9106
-15.7473 -16.3947 -1.6668 0.9129
-14.4822 -16.3470 -1.6013 0.9161
-18.1418 -26.2829 -2.3416 0.8798
-9.2894 -16.0896 -1.3622 0.9282
-11.2285 -23.6637 -1.9205 0.9003
-6.0739 -16.0156 -1.2559 0.9336
-5.3412 -15.9987 -1.2367 0.9346
-3.9354 -15.9663 -1.2057 0.9362
-3.2564 -15.9507 -1.1937 0.9368
-2.5898 -15.9353 -1.1837 0.9373
-1.9331 -15.9202 -1.1759 0.9377
-1.2840 -15.9053 -1.1700 0.9380
-0.0000 -15.8757 -1.1640 0.9383
1.2720 -15.7567 -1.1591 0.9386
1.9223 -15.8314 -1.1693 0.9380
2.5704 -15.8165 -1.1749 0.9378
3.8909 -15.7861 -1.1921 0.9369
8.3078 -28.6817 -2.1894 0.8871
8.2326 -15.6861 -1.2989 0.9314
17.0749 -27.0018 -2.3425 0.8797
10.7867 -15.6272 -1.3923 0.9267
12.7537 -15.6205 -1.4786 0.9223
13.7297 -15.4976 -1.5181 0.9203
18.9107 -15.4401 -1.7900 0.9067
25.6277 -19.2580 -2.3505 0.8794
29.5282 -17.0481 -2.5000 0.8722
30.1904 -15.8452 -2.5000 0.8722
30.8041 -14.6167 -2.5000 0.8722
31.3676 -13.3645 -2.5000 0.8722
32.3413 -10.7971 -2.5000 0.8722
32.7498 -9.4861 -2.5000 0.8722
33.1052 -8.1597 -2.5000 0.8722
33.4069 -6.8201 -2.5000 0.8722
33.6544 -5.4694 -2.5000 0.8722
33.8474 -4.1098 -2.5000 0.8722
33.9854 -2.7436 -2.5000 0.8722
34.0683 -1.3729 -2.5000 0.8722
34.0959 0.0000 -2.5000 0.8722
33.9853 2.7436 -2.5000 0.8722
33.6545 5.4694 -2.5000 0.8722
33.4070 6.8201 -2.5000 0.8722
33.1053 8.1597 -2.5000 0.8722
32.7499 9.4861 -2.5000 0.8722
25.5751 8.5382 -1.9770 0.8975
31.8804 12.0906 -2.5000 0.8722
17.3945 7.4111 -1.3863 0.9270
15.5788 8.1764 -1.2900 0.9319
14.0617 8.1185 -1.1905 0.9370
14.0607 8.8914 -1.2198 0.9355
11.1310 8.3644 -1.0209 0.9457
9.5695 8.4778 -0.9374 0.9500
8.8317 8.4830 -0.8979 0.9521
8.5514 9.6526 -0.9455 0.9496
2.3619 8.1542 -0.6225 0.9665
1.4739 9.0692 -0.6737 0.9638
1.1686 9.6245 -0.7109 0.9619
0.7769 9.6236 -0.7079 0.9620
-0.3905 9.6888 -0.7110 0.9619
-0.7816 9.6811 -0.7122 0.9618
-1.9764 9.6811 -0.7245 0.9611
-2.3862 9.6811 -0.7311 0.9608
-2.6809 9.2553 -0.7065 0.9621
-4.3788 8.3431 -0.6909 0.9629
-21.2309 26.0032 -2.4614 0.8740
-22.2608 25.1272 -2.4614 0.8740
-24.2105 23.2545 -2.4614 0.8740
-25.1797 18.9214 -2.3094 0.8813
-26.6675 16.8635 -2.3135 0.8811
-28.5717 13.5574 -2.3188 0.8809
-29.8558 11.3228 -2.3412 0.8798
-30.7175 8.8974 -2.3448 0.8796
-30.8435 6.2968 -2.3082 0.8814
-34.0683 1.3729 -2.5000 0.8722
-26.0190 -1.0485 -2.5000 0.9006
-25.9557 -2.0954 -2.5000 0.9006
-25.8503 -3.1388 -2.5000 0.9006
-25.2835 -6.2318 -2.5000 0.9006
-25.0121 -7.2448 -2.5000 0.9006
-24.7000 -8.2461 -2.5000 0.9006
-23.9564 -10.2069 -2.5000 0.9006
-23.0575 -12.1015 -2.5000 0.9006
-20.1243 -13.8908 -2.3476 0.9064
-19.5487 -14.6899 -2.3476 0.9064
-18.9422 -15.4658 -2.3477 0.9064
-18.3101 -16.2214 -2.3485 0.9064
-16.8387 -16.1738 -2.2415 0.9104
-16.9622 -17.6596 -2.3508 0.9063
-14.3576 -16.2064 -2.0787 0.9167
-13.2105 -16.1800 -2.0054 0.9195
-10.1876 -16.1103 -1.8300 0.9263
-10.4775 -22.0809 -2.3464 0.9065
-6.0739 -16.0156 -1.6444 0.9335
-0.0000 -15.8757 -1.5241 0.9382
1.2720 -15.7567 -1.5176 0.9385
3.9181 -24.1088 -2.3449 0.9065
5.9829 -15.7757 -1.6198 0.9344
6.6982 -15.7214 -1.6406 0.9336
7.4202 -15.6379 -1.6617 0.9328
9.0455 -15.6673 -1.7368 0.9299
10.7867 -15.6272 -1.8230 0.9265
11.7268 -15.6056 -1.8741 0.9246
13.7089 -15.4742 -1.9847 0.9203
16.9723 -17.6700 -2.3522 0.9062
17.2498 -16.5687 -2.2963 0.9084
18.3033 -16.2152 -2.3476 0.9064
23.0574 -12.1015 -2.5000 0.9006
23.9564 -10.2069 -2.5000 0.9006
24.3480 -9.2340 -2.5000 0.9006
24.7000 -8.2461 -2.5000 0.9006
25.2835 -6.2318 -2.5000 0.9006
25.8503 -3.1388 -2.5000 0.9006
25.9557 -2.0954 -2.5000 0.9006
25.9557 2.0954 -2.5000 0.9006
25.8503 3.1388 -2.5000 0.9006
23.9585 4.8912 -2.3476 0.9064
23.7422 5.8519 -2.3476 0.9064
23.2749 7.7703 -2.3557 0.9061
22.9514 8.7043 -2.3566 0.9061
17.3025 7.3719 -1.8056 0.9272
14.0244 7.3605 -1.5206 0.9383
14.0617 8.1185 -1.5588 0.9368
14.0606 8.8914 -1.5971 0.9353
10.7928 8.8121 -1.3377 0.9455
9.5341 8.4465 -1.2229 0.9501
8.7937 8.4464 -1.1706 0.9522
8.4031 8.7486 -1.1646 0.9524
8.2846 9.3514 -1.1994 0.9510
7.8811 9.6526 -1.1963 0.9512
4.7598 8.2442 -0.9139 0.9625
4.4835 8.5427 -0.9262 0.9620
3.5831 8.4100 -0.8776 0.9639
2.7042 8.1000 -0.8198 0.9663
2.3619 8.1542 -0.8150 0.9665
1.7337 8.4923 -0.8321 0.9658
1.4374 8.8445 -0.8603 0.9646
0.7769 9.6236 -0.9269 0.9619
-0.0000 9.6811 -0.9294 0.9618
-1.9764 9.6811 -0.9486 0.9611
-2.7293 8.1753 -0.8275 0.9660
-3.6098 9.5182 -0.9773 0.9599
-4.0432 8.5209 -0.9055 0.9628
-5.7420 8.3187 -0.9704 0.9602
-15.4020 20.4963 -2.4614 0.9021
-16.2148 19.8595 -2.4614 0.9021
-17.7602 18.4903 -2.4614 0.9021
-20.4963 15.4019 -2.4614 0.9021
-22.7015 11.9147 -2.4614 0.9021
-23.1629 10.9909 -2.4614 0.9021
-23.5866 10.0493 -2.4614 0.9021
-23.9721 9.0914 -2.4614 0.9021
-24.3188 8.1188 -2.4614 0.9021
-24.3876 7.0640 -2.4376 0.9030
-24.5554 6.0524 -2.4280 0.9034
-24.9634 5.0963 -2.4460 0.9027
-25.6204 4.1637 -2.4920 0.9010
-25.8227 3.1354 -2.4973 0.9007
-25.9350 2.0937 -2.4980 0.9007
-26.0054 1.0480 -2.4987 0.9007
-20.9779 -1.6935 -2.5000 0.9187
-20.8927 -2.5368 -2.5000 0.9187
-20.6208 -4.2098 -2.5000 0.9187
-20.4346 -5.0367 -2.5000 0.9187
-20.2152 -5.8554 -2.5000 0.9187
-19.9630 -6.6646 -2.5000 0.9187
-19.3620 -8.2494 -2.5000 0.9187
-18.6354 -9.7806 -2.5000 0.9187
-18.2265 -10.5231 -2.5000 0.9187
-16.1672 -13.2001 -2.4792 0.9194
-13.6904 -14.2533 -2.3476 0.9235
-13.1054 -14.7929 -2.3476 0.9235
-12.4991 -15.3087 -2.3476 0.9235
-11.8746 -15.8023 -2.3480 0.9235
-10.5672 -16.7107 -2.3486 0.9234
-6.0739 -16.0156 -2.0346 0.9333
-4.6121 -15.9229 -1.9692 0.9354
-2.5898 -15.9353 -1.9177 0.9370
-1.9331 -15.9202 -1.9050 0.9374
3.2259 -15.8014 -1.9157 0.9371
3.8909 -15.7861 -1.9313 0.9366
5.2596 -15.7545 -1.9729 0.9353
7.7589 -18.2108 -2.3513 0.9234
7.4095 -15.6153 -2.0531 0.9327
9.8837 -17.1190 -2.3481 0.9235
11.2269 -16.2648 -2.3476 0.9235
11.8726 -15.7995 -2.3476 0.9235
12.4991 -15.3086 -2.3476 0.9235
13.1054 -14.7929 -2.3476 0.9235
14.2532 -13.6904 -2.3476 0.9235
14.9095 -13.2086 -2.3661 0.9229
16.1519 -13.1876 -2.4769 0.9194
17.7880 -11.2485 -2.5000 0.9187
18.6354 -9.7806 -2.5000 0.9187
19.0141 -9.0223 -2.5000 0.9187
19.3620 -8.2494 -2.5000 0.9187
19.6785 -7.4630 -2.5000 0.9187
19.9630 -6.6646 -2.5000 0.9187
20.2152 -5.8554 -2.5000 0.9187
20.6208 -4.2098 -2.5000 0.9187
20.7736 -3.3760 -2.5000 0.9187
20.8927 -2.5368 -2.5000 0.9187
21.0461 0.0000 -2.5000 0.9187
20.9779 1.6935 -2.5000 0.9187
20.8927 2.5368 -2.5000 0.9187
19.5072 3.1702 -2.3476 0.9235
19.3637 3.9531 -2.3476 0.9235
19.1889 4.7296 -2.3476 0.9235
18.4633 7.0022 -2.3456 0.9235
14.0607 8.8914 -1.9761 0.9352
11.9882 8.2749 -1.7303 0.9430
11.1310 8.3644 -1.6539 0.9455
9.5341 8.4465 -1.5130 0.9500
8.7937 8.4464 -1.4484 0.9521
7.6054 7.9180 -1.3041 0.9567
7.8811 9.6526 -1.4802 0.9510
5.6689 8.2128 -1.1854 0.9606
5.1935 8.2128 -1.1543 0.9616
3.5831 8.4100 -1.0859 0.9638
2.7060 8.1055 -1.0151 0.9662
2.3764 8.2043 -1.0146 0.9662
2.0546 8.3361 -1.0198 0.9660
1.7461 8.5532 -1.0370 0.9654
1.1686 9.6245 -1.1517 0.9617
0.7769 9.6237 -1.1469 0.9619
0.3238 8.0366 -0.9554 0.9681
-0.0000 9.6118 -1.1417 0.9620
-0.3868 9.5981 -1.1410 0.9620
-0.7725 9.5688 -1.1403 0.9621
-1.9213 9.4113 -1.1410 0.9620
-2.3001 9.3319 -1.1417 0.9620
-3.6098 9.5182 -1.2092 0.9598
-3.7717 8.8524 -1.1430 0.9620
-4.0668 8.5706 -1.1269 0.9625
-5.1428 8.1327 -1.1430 0.9620
-12.2978 15.0621 -2.3098 0.9247
-14.3541 14.9442 -2.4614 0.9199
-14.9443 14.3541 -2.4614 0.9199
-15.5101 13.7407 -2.4614 0.9199
-16.5655 12.4481 -2.4614 0.9199
-18.3478 9.6296 -2.4614 0.9199
-18.7207 8.8830 -2.4614 0.9199
-19.0632 8.1220 -2.4614 0.9199
-19.3772 7.3488 -2.4617 0.9199
-19.7229 6.5845 -2.4699 0.9197
-20.5412 4.1935 -2.4903 0.9190
-20.8817 2.5355 -2.4987 0.9188
-21.0273 0.8474 -2.4998 0.9187
-17.6442 0.0000 -2.5000 0.9312
-17.5869 -1.4197 -2.5000 0.9312
-16.9475 -4.9089 -2.5000 0.9312
-16.7361 -5.5873 -2.5000 0.9312
-16.4976 -6.2567 -2.5000 0.9312
-14.9126 -9.4302 -2.5000 0.9312
-14.5208 -10.0230 -2.5000 0.9312
-12.2225 -12.7250 -2.5000 0.9312
-11.6896 -13.1949 -2.4977 0.9313
-10.7853 -13.2096 -2.4163 0.9334
-7.6998 -14.6707 -2.3476 0.9353
-5.8753 -15.4919 -2.3476 0.9353
-5.2471 -15.7168 -2.3477 0.9353
-4.6032 -15.8920 -2.3443 0.9353
-3.3148 -16.2367 -2.3480 0.9352
-2.6583 -16.3575 -2.3481 0.9352
-1.9976 -16.4515 -2.3481 0.9352
0.6673 -16.5588 -2.3481 0.9352
1.9975 -16.4506 -2.3480 0.9352
3.9653 -16.0878 -2.3477 0.9353
4.6099 -15.9144 -2.3476 0.9353
5.2467 -15.7159 -2.3476 0.9353
6.4943 -15.2427 -2.3476 0.9353
7.1028 -14.9689 -2.3476 0.9353
8.2843 -14.3488 -2.3476 0.9353
9.9534 -13.2456 -2.3476 0.9353
10.7785 -13.2013 -2.4148 0.9335
11.6817 -13.1859 -2.4960 0.9313
12.7250 -12.2225 -2.5000 0.9312
13.6672 -11.1589 -2.5000 0.9312
14.1054 -10.5996 -2.5000 0.9312
14.5208 -10.0230 -2.5000 0.9312
15.2802 -8.8221 -2.5000 0.9312
15.9406 -7.5639 -2.5000 0.9312
16.2322 -6.9159 -2.5000 0.9312
16.4975 -6.2567 -2.5000 0.9312
16.7361 -5.5873 -2.5000 0.9312
17.1314 -4.2225 -2.5000 0.9312
17.2875 -3.5293 -2.5000 0.9312
17.4156 -2.8303 -2.5000 0.9312
17.5155 -2.1268 -2.5000 0.9312
17.5869 -1.4198 -2.5000 0.9312
17.5155 2.1268 -2.5000 0.9312
16.2337 3.3141 -2.3476 0.9353
15.9144 4.6096 -2.3476 0.9353
15.7158 5.2467 -2.3476 0.9353
13.9743 8.8368 -2.3427 0.9354
11.9882 8.2749 -2.0640 0.9428
11.1310 8.3644 -1.9728 0.9453
8.7937 8.4464 -1.7276 0.9519
7.6023 7.9149 -1.5550 0.9566
7.8503 8.8612 -1.6774 0.9533
7.6062 9.3160 -1.7041 0.9526
7.2534 9.6526 -1.7108 0.9524
5.6689 8.2128 -1.4140 0.9605
5.1935 8.2128 -1.3768 0.9615
4.7417 8.2128 -1.3437 0.9624
4.4835 8.5427 -1.3670 0.9618
4.5414 9.5708 -1.5010 0.9581
3.5831 8.4100 -1.2953 0.9637
3.0900 8.1477 -1.2347 0.9654
2.7042 8.1000 -1.2099 0.9661
2.0546 8.3361 -1.2165 0.9659
0.7769 9.6239 -1.3680 0.9617
-0.7174 8.8868 -1.2633 0.9646
-0.9540 7.8565 -1.1214 0.9685
-2.1591 8.7598 -1.2783 0.9642
-2.5369 8.7583 -1.2920 0.9638
-3.6098 9.5182 -1.4424 0.9597
-4.7072 8.1530 -1.3339 0.9627
-5.2327 8.2749 -1.3872 0.9612
-5.7420 8.3187 -1.4322 0.9600
-9.8124 13.0580 -2.3143 0.9361
-12.2010 10.8091 -2.3096 0.9363
-13.8878 10.4359 -2.4614 0.9322
-15.0444 8.6859 -2.4614 0.9322
-15.6969 7.4483 -2.4618 0.9322
-15.9995 6.8167 -2.4641 0.9322
-16.8394 4.8776 -2.4840 0.9316
-17.2791 3.5275 -2.4988 0.9312
-17.4098 2.8294 -2.4991 0.9312
-17.5869 1.4197 -2.5000 0.9312
-15.1754 0.0000 -2.5000 0.9403
-15.1262 -1.2211 -2.5000 0.9403
-15.0648 -1.8292 -2.5000 0.9403
-14.8687 -3.0355 -2.5000 0.9403
-14.7344 -3.6317 -2.5000 0.9403
-12.4891 -8.6206 -2.5000 0.9403
-12.1319 -9.1165 -2.5000 0.9403
-11.7550 -9.5976 -2.5000 0.9403
-10.9446 -10.5124 -2.5000 0.9403
-9.1165 -12.1319 -2.5000 0.9403
-7.5877 -13.1423 -2.5000 0.9403
-6.2679 -13.2092 -2.4086 0.9425
-5.6311 -13.2167 -2.3667 0.9434
-4.5126 -13.5169 -2.3476 0.9439
-3.9647 -13.6877 -2.3476 0.9439
-3.4104 -13.8362 -2.3476 0.9439
-1.7177 -14.1464 -2.3476 0.9439
-0.5738 -14.2387 -2.3476 0.9439
-0.0000 -14.2503 -2.3476 0.9439
0.5738 -14.2387 -2.3476 0.9439
1.7177 -14.1464 -2.3476 0.9439
2.2859 -14.0658 -2.3476 0.9439
2.8504 -13.9623 -2.3476 0.9439
3.9647 -13.6877 -2.3476 0.9439
6.2655 -13.2044 -2.4077 0.9425
6.9254 -13.1954 -2.4550 0.9414
9.5976 -11.7550 -2.5000 0.9403
10.0631 -11.3590 -2.5000 0.9403
10.9446 -10.5124 -2.5000 0.9403
11.7550 -9.5976 -2.5000 0.9403
12.1318 -9.1165 -2.5000 0.9403
12.4891 -8.6206 -2.5000 0.9403
13.1423 -7.5877 -2.5000 0.9403
13.4371 -7.0524 -2.5000 0.9403
13.7102 -6.5056 -2.5000 0.9403
14.1892 -5.3813 -2.5000 0.9403
14.3944 -4.8056 -2.5000 0.9403
14.5762 -4.2221 -2.5000 0.9403
14.7344 -3.6317 -2.5000 0.9403
14.9789 -2.4343 -2.5000 0.9403
15.0648 -1.8292 -2.5000 0.9403
15.1262 -1.2211 -2.5000 0.9403
15.1262 1.2211 -2.5000 0.9403
15.0648 1.8292 -2.5000 0.9403
14.9789 2.4343 -2.5000 0.9403
13.8362 3.4103 -2.3476 0.9439
13.6877 3.9647 -2.3476 0.9439
13.3242 5.0532 -2.3476 0.9439
13.1100 5.5856 -2.3476 0.9439
12.8744 6.1090 -2.3476 0.9439
11.9880 7.5807 -2.3366 0.9441
10.6570 8.7012 -2.2665 0.9458
9.9643 9.5708 -2.2761 0.9455
7.6152 7.9282 -1.8110 0.9564
6.2905 8.3712 -1.7250 0.9584
4.7417 8.2128 -1.5623 0.9623
4.4835 8.5427 -1.5894 0.9616
3.5831 8.4100 -1.5060 0.9636
3.1001 8.1744 -1.4402 0.9652
1.7687 8.6635 -1.4567 0.9648
1.4722 9.0592 -1.5120 0.9635
-0.3459 8.5819 -1.4149 0.9658
-0.6929 8.5833 -1.4186 0.9657
-0.9336 7.6888 -1.2760 0.9691
-2.1152 8.5814 -1.4560 0.9648
-2.4852 8.5799 -1.4715 0.9644
-3.8448 9.0240 -1.6159 0.9610
-4.3788 8.3431 -1.5522 0.9625
-5.2327 8.2749 -1.6129 0.9611
-8.4395 11.2309 -2.3143 0.9446
-8.8849 10.8820 -2.3143 0.9446
-9.7317 10.1318 -2.3143 0.9446
-10.1318 9.7317 -2.3143 0.9446
-10.5136 9.3142 -2.3139 0.9446
-10.8754 8.8795 -2.3129 0.9447
-11.2194 8.4308 -2.3120 0.9447
-11.5453 7.9691 -2.3110 0.9447
-13.2345 6.9460 -2.4623 0.9412
-14.1025 5.3483 -2.4847 0.9407
-14.3279 4.7833 -2.4884 0.9406
-14.8659 3.0349 -2.4995 0.9403
-15.0648 1.8292 -2.5000 0.9403
-15.1631 0.6111 -2.5000 0.9403
-13.3006 0.0000 -2.5000 0.9473
-13.2898 -0.5356 -2.5000 0.9473
-13.2575 -1.0703 -2.5000 0.9473
-13.1283 -2.1336 -2.5000 0.9473
-13.0318 -2.6605 -2.5000 0.9473
-12.9141 -3.1830 -2.5000 0.9473
-12.7755 -3.7005 -2.5000 0.9473
-12.0164 -5.7019 -2.5000 0.9473
-11.5187 -6.6503 -2.5000 0.9473
-11.2415 -7.1087 -2.5000 0.9473
-10.9462 -7.5556 -2.5000 0.9473
-10.6330 -7.9902 -2.5000 0.9473
-10.3027 -8.4119 -2.5000 0.9473
-9.5924 -9.2136 -2.5000 0.9473
-8.4119 -10.3027 -2.5000 0.9473
-7.1087 -11.2415 -2.5000 0.9473
-6.6503 -11.5186 -2.5000 0.9473
-6.1811 -11.7771 -2.5000 0.9473
-3.7005 -12.7754 -2.5000 0.9473
-3.1831 -12.9141 -2.5000 0.9473
-2.6605 -13.0318 -2.5000 0.9473
-2.1336 -13.1283 -2.5000 0.9473
-1.6017 -13.1909 -2.4976 0.9474
-0.5317 -13.1934 -2.4818 0.9477
2.6604 -13.0318 -2.5000 0.9473
3.7004 -12.7754 -2.5000 0.9473
4.7164 -12.4362 -2.5000 0.9473
5.2151 -12.2362 -2.5000 0.9473
5.7018 -12.0164 -2.5000 0.9473
6.6503 -11.5186 -2.5000 0.9473
7.1087 -11.2415 -2.5000 0.9473
7.5556 -10.9461 -2.5000 0.9473
7.9902 -10.6330 -2.5000 0.9473
9.2136 -9.5924 -2.5000 0.9473
9.5923 -9.2136 -2.5000 0.9473
10.3027 -8.4119 -2.5000 0.9473
10.6330 -7.9902 -2.5000 0.9473
10.9461 -7.5556 -2.5000 0.9473
11.2415 -7.1087 -2.5000 0.9473
11.5186 -6.6503 -2.5000 0.9473
12.0164 -5.7018 -2.5000 0.9473
12.4362 -4.7164 -2.5000 0.9473
12.6161 -4.2119 -2.5000 0.9473
12.9140 -3.1830 -2.5000 0.9473
13.1283 -2.1336 -2.5000 0.9473
13.2898 -0.5356 -2.5000 0.9473
13.3005 0.0000 -2.5000 0.9473
13.2898 0.5356 -2.5000 0.9473
13.2036 1.6032 -2.5000 0.9473
13.0317 2.6605 -2.5000 0.9473
12.1268 2.9890 -2.3476 0.9504
11.8470 3.9551 -2.3476 0.9504
11.6781 4.4289 -2.3476 0.9504
10.8164 6.2449 -2.3476 0.9504
10.5562 6.6753 -2.3476 0.9504
7.6378 7.9518 -2.0724 0.9561
7.7458 8.7432 -2.1955 0.9536
6.6440 8.1375 -1.9746 0.9581
4.4835 8.5427 -1.8134 0.9615
4.5414 9.5708 -1.9912 0.9578
3.5831 8.4100 -1.7182 0.9635
3.1001 8.1744 -1.6433 0.9650
2.3619 8.1542 -1.5957 0.9660
2.0546 8.3361 -1.6137 0.9657
1.1686 9.6245 -1.8223 0.9613
0.7769 9.6243 -1.8149 0.9615
0.3037 7.5353 -1.4175 0.9698
-0.0000 8.3966 -1.5782 0.9664
-0.3384 8.3979 -1.5798 0.9664
-0.6781 8.3993 -1.5839 0.9663
-2.0699 8.3977 -1.6257 0.9654
-3.8448 9.0240 -1.8437 0.9609
-4.1092 8.6600 -1.8017 0.9617
-4.3788 8.3431 -1.7710 0.9624
-4.7072 8.1530 -1.7695 0.9624
-5.7420 8.3187 -1.8999 0.9597
-7.7899 9.5409 -2.3151 0.9511
-8.5294 8.8800 -2.3143 0.9511
-10.7315 6.1958 -2.3291 0.9508
-11.2428 5.3348 -2.3390 0.9506
-12.3965 4.7014 -2.4920 0.9475
-12.9130 3.1828 -2.4998 0.9473
-13.1283 2.1336 -2.5000 0.9473
-11.7886 -0.9517 -2.5000 0.9528
-11.4833 -2.8304 -2.5000 0.9528
-11.3600 -3.2905 -2.5000 0.9528
-11.0584 -4.1939 -2.5000 0.9528
-10.6851 -5.0701 -2.5000 0.9528
-10.4723 -5.4963 -2.5000 0.9528
-8.8526 -7.8427 -2.5000 0.9528
-8.1929 -8.5296 -2.5000 0.9528
-7.4799 -9.1612 -2.5000 0.9528
-7.1050 -9.4550 -2.5000 0.9528
-6.7185 -9.7334 -2.5000 0.9528
-6.3211 -9.9961 -2.5000 0.9528
-5.4963 -10.4723 -2.5000 0.9528
-4.6358 -10.8806 -2.5000 0.9528
-3.2905 -11.3600 -2.5000 0.9528
-2.8304 -11.4833 -2.5000 0.9528
-1.8972 -11.6738 -2.5000 0.9528
-0.9517 -11.7886 -2.5000 0.9528
-0.4762 -11.8174 -2.5000 0.9528
1.4256 -11.7408 -2.5000 0.9528
1.8972 -11.6738 -2.5000 0.9528
2.3657 -11.5880 -2.5000 0.9528
4.1939 -11.0584 -2.5000 0.9528
5.0702 -10.6851 -2.5000 0.9528
6.7184 -9.7334 -2.5000 0.9528
7.8427 -8.8526 -2.5000 0.9528
8.8526 -7.8427 -2.5000 0.9528
9.4550 -7.1050 -2.5000 0.9528
9.7334 -6.7185 -2.5000 0.9528
10.4722 -5.4963 -2.5000 0.9528
10.6851 -5.0701 -2.5000 0.9528
11.0584 -4.1939 -2.5000 0.9528
11.3600 -3.2905 -2.5000 0.9528
11.5879 -2.3657 -2.5000 0.9528
11.7407 -1.4256 -2.5000 0.9528
11.8270 0.0000 -2.5000 0.9528
11.8174 0.4762 -2.5000 0.9528
11.7886 0.9517 -2.5000 0.9528
11.7407 1.4256 -2.5000 0.9528
11.6738 1.8972 -2.5000 0.9528
10.5344 3.5169 -2.3476 0.9556
9.1400 6.3089 -2.3476 0.9556
8.2592 7.3170 -2.3324 0.9559
6.1906 8.2382 -2.1782 0.9587
5.9029 9.3346 -2.3346 0.9559
5.5209 9.5625 -2.3340 0.9559
3.5831 8.4100 -1.9323 0.9633
2.0546 8.3361 -1.8148 0.9655
1.7585 8.6137 -1.8583 0.9647
0.3306 8.2040 -1.7356 0.9670
-0.0000 8.2053 -1.7344 0.9670
-0.6627 8.2080 -1.7407 0.9669
-1.1503 7.0780 -1.5158 0.9711
-1.6757 8.2080 -1.7708 0.9663
-2.0228 8.2066 -1.7866 0.9660
-2.6793 8.0254 -1.7884 0.9660
-4.1092 8.6600 -2.0262 0.9616
-5.2327 8.2749 -2.0695 0.9608
-6.5842 8.7620 -2.3168 0.9562
-7.2650 8.2005 -2.3158 0.9562
-7.5871 7.8991 -2.3152 0.9562
-7.8983 7.5864 -2.3149 0.9562
-8.5551 6.9850 -2.3346 0.9559
-9.3854 5.9349 -2.3473 0.9556
-10.2173 4.3532 -2.3476 0.9556
-10.3843 3.9383 -2.3476 0.9556
-11.3600 3.2904 -2.5000 0.9528
-11.4833 2.8304 -2.5000 0.9528
-11.6738 1.8972 -2.5000 0.9528
-11.7408 1.4256 -2.5000 0.9528
-11.8174 0.4762 -2.5000 0.9528
-10.5596 -1.2822 -2.5000 0.9572
-10.4222 -2.1277 -2.5000 0.9572
-10.3281 -2.5457 -2.5000 0.9572
-10.2172 -2.9595 -2.5000 0.9572
-9.9460 -3.7720 -2.5000 0.9572
-9.6102 -4.5601 -2.5000 0.9572
-9.4188 -4.9433 -2.5000 0.9572
-9.2121 -5.3186 -2.5000 0.9572
-8.5038 -6.3902 -2.5000 0.9572
-8.2396 -6.7274 -2.5000 0.9572
-7.6716 -7.3686 -2.5000 0.9572
-6.0426 -8.7542 -2.5000 0.9572
-5.6852 -8.9905 -2.5000 0.9572
-5.3186 -9.2121 -2.5000 0.9572
-4.9433 -9.4188 -2.5000 0.9572
-4.5601 -9.6102 -2.5000 0.9572
-4.1694 -9.7860 -2.5000 0.9572
-2.9595 -10.2172 -2.5000 0.9572
-2.5457 -10.3281 -2.5000 0.9572
-1.7063 -10.4994 -2.5000 0.9572
0.0000 -10.6372 -2.5000 0.9572
0.4283 -10.6286 -2.5000 0.9572
0.8559 -10.6027 -2.5000 0.9572
1.2822 -10.5596 -2.5000 0.9572
1.7064 -10.4994 -2.5000 0.9572
3.3685 -10.0898 -2.5000 0.9572
4.1694 -9.7860 -2.5000 0.9572
4.5601 -9.6102 -2.5000 0.9572
5.6852 -8.9905 -2.5000 0.9572
6.3902 -8.5038 -2.5000 0.9572
6.7274 -8.2396 -2.5000 0.9572
7.3686 -7.6716 -2.5000 0.9572
7.6716 -7.3686 -2.5000 0.9572
7.9620 -7.0538 -2.5000 0.9572
8.2396 -6.7274 -2.5000 0.9572
8.9904 -5.6852 -2.5000 0.9572
9.2121 -5.3186 -2.5000 0.9572
9.7860 -4.1694 -2.5000 0.9572
10.0898 -3.3685 -2.5000 0.9572
10.3281 -2.5457 -2.5000 0.9572
10.4222 -2.1277 -2.5000 0.9572
10.4994 -1.7063 -2.5000 0.9572
10.6027 0.8559 -2.5000 0.9572
10.5596 1.2822 -2.5000 0.9572
10.3281 2.5456 -2.5000 0.9572
9.4747 3.1631 -2.3476 0.9598
9.3396 3.5421 -2.3476 0.9598
9.1894 3.9152 -2.3476 0.9598
8.6505 4.9944 -2.3476 0.9598
8.2206 5.6742 -2.3476 0.9598
7.4767 6.6237 -2.3476 0.9598
7.2039 6.9194 -2.3476 0.9598
6.5757 7.4224 -2.3306 0.9601
6.2707 7.6802 -2.3303 0.9601
5.9573 7.9277 -2.3306 0.9601
5.6340 8.1623 -2.3309 0.9601
5.3014 8.3835 -2.3312 0.9601
4.7542 8.2346 -2.2347 0.9617
4.2532 8.9634 -2.3317 0.9601
2.7537 8.2485 -2.0438 0.9649
2.3619 8.1542 -1.9952 0.9657
2.0546 8.3361 -2.0178 0.9653
0.3231 8.0179 -1.8859 0.9676
-0.3232 8.0206 -1.8865 0.9676
-0.6476 8.0219 -1.8915 0.9675
-1.6378 8.0221 -1.9243 0.9669
-1.9769 8.0207 -1.9415 0.9666
-2.6813 7.0698 -1.7771 0.9694
-4.0432 8.5209 -2.2166 0.9620
-4.3788 8.3431 -2.2145 0.9620
-4.7072 8.1530 -2.2126 0.9621
-5.6021 8.1160 -2.3177 0.9603
-5.9224 7.8813 -2.3170 0.9603
-6.2342 7.6356 -2.3167 0.9603
-7.4767 6.6238 -2.3476 0.9598
-7.9855 6.0007 -2.3476 0.9598
-8.2206 5.6742 -2.3476 0.9598
-8.4424 5.3386 -2.3476 0.9598
-8.6505 4.9944 -2.3476 0.9598
-8.8446 4.6420 -2.3476 0.9598
-10.4222 2.1277 -2.5000 0.9572
-10.6286 0.4283 -2.5000 0.9572
-9.6555 0.0000 -2.5000 0.9609
-9.6477 -0.3888 -2.5000 0.9609
-9.5851 -1.1638 -2.5000 0.9609
-9.4604 -1.9313 -2.5000 0.9609
-9.3750 -2.3107 -2.5000 0.9609
-9.0281 -3.4239 -2.5000 0.9609
-8.8829 -3.7846 -2.5000 0.9609
-8.7233 -4.1392 -2.5000 0.9609
-8.1608 -5.1606 -2.5000 0.9609
-7.9464 -5.4850 -2.5000 0.9609
-7.4792 -6.1066 -2.5000 0.9609
-7.2273 -6.4028 -2.5000 0.9609
-6.6886 -6.9636 -2.5000 0.9609
-6.1066 -7.4792 -2.5000 0.9609
-5.8005 -7.7190 -2.5000 0.9609
-4.8278 -8.3619 -2.5000 0.9609
-4.4871 -8.5495 -2.5000 0.9609
-4.1392 -8.7233 -2.5000 0.9609
-3.7846 -8.8829 -2.5000 0.9609
-3.4239 -9.0281 -2.5000 0.9609
-3.0576 -9.1586 -2.5000 0.9609
-1.9314 -9.4604 -2.5000 0.9609
-1.5489 -9.5305 -2.5000 0.9609
-1.1638 -9.5851 -2.5000 0.9609
-0.7770 -9.6242 -2.5000 0.9609
-0.3888 -9.6477 -2.5000 0.9609
1.5489 -9.5305 -2.5000 0.9609
1.9314 -9.4604 -2.5000 0.9609
2.3108 -9.3749 -2.5000 0.9609
2.6863 -9.2743 -2.5000 0.9609
3.7847 -8.8829 -2.5000 0.9609
4.1392 -8.7233 -2.5000 0.9609
4.4871 -8.5495 -2.5000 0.9609
4.8277 -8.3619 -2.5000 0.9609
5.1605 -8.1608 -2.5000 0.9609
5.4849 -7.9463 -2.5000 0.9609
5.8005 -7.7190 -2.5000 0.9609
6.1066 -7.4792 -2.5000 0.9609
6.4028 -7.2273 -2.5000 0.9609
6.6886 -6.9636 -2.5000 0.9609
6.9636 -6.6886 -2.5000 0.9609
7.2272 -6.4028 -2.5000 0.9609
8.5495 -4.4871 -2.5000 0.9609
8.8829 -3.7846 -2.5000 0.9609
9.1586 -3.0576 -2.5000 0.9609
9.2743 -2.6863 -2.5000 0.9609
9.4604 -1.9314 -2.5000 0.9609
9.5305 -1.5489 -2.5000 0.9609
9.5851 -1.1638 -2.5000 0.9609
9.6242 -0.7770 -2.5000 0.9609
9.6477 -0.3888 -2.5000 0.9609
9.6555 0.0000 -2.5000 0.9609
9.6477 0.3888 -2.5000 0.9609
9.5851 1.1638 -2.5000 0.9609
9.5305 1.5489 -2.5000 0.9609
9.4604 1.9314 -2.5000 0.9609
9.3749 2.3107 -2.5000 0.9609
9.2743 2.6863 -2.5000 0.9609
8.6003 2.8712 -2.3476 0.9632
8.4777 3.2152 -2.3476 0.9632
8.1915 3.8869 -2.3476 0.9632
7.8521 4.5335 -2.3476 0.9632
7.4619 5.1506 -2.3476 0.9632
7.0233 5.7343 -2.3476 0.9632
6.7867 6.0125 -2.3476 0.9632
6.5391 6.2809 -2.3476 0.9632
6.0125 6.7867 -2.3476 0.9632
5.4049 7.1922 -2.3294 0.9635
2.0546 8.3361 -2.2230 0.9651
1.7337 8.4923 -2.2442 0.9648
1.4424 8.8755 -2.3282 0.9635
0.7232 8.9590 -2.3272 0.9635
0.3158 7.8370 -2.0308 0.9681
-0.0000 7.8383 -2.0295 0.9681
-0.3160 7.8396 -2.0315 0.9681
-0.6330 7.8409 -2.0368 0.9680
-0.9522 7.8422 -2.0454 0.9679
-1.1494 7.0725 -1.8552 0.9708
-2.2462 7.7549 -2.0904 0.9672
-2.6844 7.0782 -1.9600 0.9692
-3.5130 8.2452 -2.3205 0.9636
-3.8408 8.0942 -2.3197 0.9637
-5.7345 7.0231 -2.3475 0.9632
-6.2809 6.5391 -2.3476 0.9632
-6.7867 6.0125 -2.3476 0.9632
-7.4619 5.1506 -2.3476 0.9632
-8.1915 3.8869 -2.3476 0.9632
-8.4777 3.2152 -2.3476 0.9632
-8.6003 2.8712 -2.3476 0.9632
-9.3750 2.3107 -2.5000 0.9609
-9.4604 1.9314 -2.5000 0.9609
-9.5305 1.5489 -2.5000 0.9609
-9.5851 1.1638 -2.5000 0.9609
-9.6242 0.7770 -2.5000 0.9609
-9.6477 0.3888 -2.5000 0.9609
-8.8023 -0.7106 -2.5000 0.9640
-8.6525 -1.7664 -2.5000 0.9640
-8.4823 -2.4569 -2.5000 0.9640
-8.2571 -3.1315 -2.5000 0.9640
-8.1243 -3.4615 -2.5000 0.9640
-7.9784 -3.7858 -2.5000 0.9640
-7.8195 -4.1040 -2.5000 0.9640
-6.3689 -6.1174 -2.5000 0.9640
-5.5851 -6.8405 -2.5000 0.9640
-4.1040 -7.8194 -2.5000 0.9640
-3.4615 -8.1243 -2.5000 0.9640
-2.1134 -8.5744 -2.5000 0.9640
-1.7664 -8.6525 -2.5000 0.9640
-1.4166 -8.7166 -2.5000 0.9640
-0.3556 -8.8238 -2.5000 0.9640
0.7106 -8.8023 -2.5000 0.9640
1.7664 -8.6525 -2.5000 0.9640
3.4614 -8.1243 -2.5000 0.9640
3.7858 -7.9783 -2.5000 0.9640
4.4155 -7.6479 -2.5000 0.9640
4.7198 -7.4638 -2.5000 0.9640
5.3051 -7.0599 -2.5000 0.9640
5.5851 -6.8405 -2.5000 0.9640
5.8560 -6.6101 -2.5000 0.9640
6.1174 -6.3689 -2.5000 0.9640
6.6101 -5.8560 -2.5000 0.9640
6.8405 -5.5851 -2.5000 0.9640
7.2677 -5.0166 -2.5000 0.9640
7.4638 -4.7199 -2.5000 0.9640
7.8194 -4.1040 -2.5000 0.9640
7.9783 -3.7858 -2.5000 0.9640
8.4823 -2.4569 -2.5000 0.9640
8.6525 -1.7664 -2.5000 0.9640
8.8238 -0.3556 -2.5000 0.9640
8.8309 0.0000 -2.5000 0.9640
8.7666 1.0645 -2.5000 0.9640
8.7166 1.4166 -2.5000 0.9640
8.6525 1.7664 -2.5000 0.9640
8.5743 2.1134 -2.5000 0.9640
7.4920 3.5550 -2.3476 0.9661
7.0088 4.4321 -2.3476 0.9661
6.6295 4.9817 -2.3476 0.9661
6.2071 5.4990 -2.3476 0.9661
5.4990 6.2071 -2.3476 0.9661
5.2446 6.4235 -2.3476 0.9661
4.7107 6.8247 -2.3476 0.9661
3.8210 7.2804 -2.3276 0.9664
3.2218 7.5618 -2.3269 0.9664
2.9142 7.6842 -2.3265 0.9664
1.3179 8.1091 -2.3258 0.9664
0.6609 8.1870 -2.3252 0.9664
0.3083 7.6510 -2.1677 0.9687
-0.0000 7.6523 -2.1663 0.9687
-0.6180 7.6548 -2.1741 0.9686
-0.9296 7.6560 -2.1833 0.9684
-1.5629 7.6554 -2.2119 0.9680
-1.8846 7.6461 -2.2293 0.9678
-2.4976 7.4810 -2.2327 0.9677
-2.6876 7.0866 -2.1456 0.9690
-3.2122 7.5394 -2.3200 0.9665
-3.8076 7.2547 -2.3194 0.9665
-4.7108 6.8247 -2.3476 0.9661
-4.9818 6.6295 -2.3476 0.9661
-5.2446 6.4235 -2.3476 0.9661
-5.9807 5.7445 -2.3476 0.9661
-6.4235 5.2446 -2.3476 0.9661
-6.6295 4.9817 -2.3476 0.9661
-6.8247 4.7108 -2.3476 0.9661
-7.0088 4.4321 -2.3476 0.9661
-7.1817 4.1463 -2.3476 0.9661
-7.3428 3.8538 -2.3476 0.9661
-7.4920 3.5550 -2.3476 0.9661
-7.6291 3.2504 -2.3476 0.9661
-8.1314 2.7147 -2.4268 0.9650
-8.5744 2.1134 -2.5000 0.9640
-8.6525 1.7664 -2.5000 0.9640
-8.1214 -0.3273 -2.5000 0.9666
-8.0687 -0.9797 -2.5000 0.9666
-8.0227 -1.3038 -2.5000 0.9666
-7.7097 -2.5739 -2.5000 0.9666
-7.4776 -3.1859 -2.5000 0.9666
-7.1970 -3.7772 -2.5000 0.9666
-7.0390 -4.0640 -2.5000 0.9666
-6.0839 -5.3898 -2.5000 0.9666
-5.8619 -5.6304 -2.5000 0.9666
-4.8828 -6.4979 -2.5000 0.9666
-4.3441 -6.8697 -2.5000 0.9666
-3.7773 -7.1969 -2.5000 0.9666
-3.1859 -7.4775 -2.5000 0.9666
-2.8822 -7.5998 -2.5000 0.9666
-2.5739 -7.7097 -2.5000 0.9666
-2.2613 -7.8071 -2.5000 0.9666
-1.6258 -7.9637 -2.5000 0.9666
-1.3038 -8.0227 -2.5000 0.9666
-0.9797 -8.0687 -2.5000 0.9666
-0.6540 -8.1016 -2.5000 0.9666
-0.0000 -8.1280 -2.5000 0.9666
0.6540 -8.1016 -2.5000 0.9666
0.9797 -8.0687 -2.5000 0.9666
1.3038 -8.0227 -2.5000 0.9666
1.9451 -7.8918 -2.5000 0.9666
2.2613 -7.8071 -2.5000 0.9666
2.8822 -7.5998 -2.5000 0.9666
3.7772 -7.1969 -2.5000 0.9666
4.0640 -7.0390 -2.5000 0.9666
4.3441 -6.8697 -2.5000 0.9666
4.6172 -6.6892 -2.5000 0.9666
4.8828 -6.4979 -2.5000 0.9666
5.1405 -6.2960 -2.5000 0.9666
5.6304 -5.8619 -2.5000 0.9666
6.0838 -5.3898 -2.5000 0.9666
6.2960 -5.1405 -2.5000 0.9666
6.4978 -4.8828 -2.5000 0.9666
6.6892 -4.6172 -2.5000 0.9666
7.1970 -3.7772 -2.5000 0.9666
7.3432 -3.4844 -2.5000 0.9666
7.5998 -2.8822 -2.5000 0.9666
7.8070 -2.2613 -2.5000 0.9666
7.8918 -1.9452 -2.5000 0.9666
7.9637 -1.6258 -2.5000 0.9666
8.0227 -1.3038 -2.5000 0.9666
8.0687 -0.9797 -2.5000 0.9666
8.1016 -0.6540 -2.5000 0.9666
8.1280 -0.0000 -2.5000 0.9666
8.1016 0.6540 -2.5000 0.9666
8.0227 1.3038 -2.5000 0.9666
7.9637 1.6258 -2.5000 0.9666
7.8918 1.9451 -2.5000 0.9666
7.8070 2.2613 -2.5000 0.9666
7.1804 2.7232 -2.3620 0.9684
7.0217 2.9917 -2.3476 0.9686
6.6099 3.8162 -2.3476 0.9686
6.4509 4.0793 -2.3476 0.9686
5.7130 5.0612 -2.3476 0.9686
5.5046 5.2872 -2.3476 0.9686
4.8271 5.9121 -2.3476 0.9686
4.3357 6.2814 -2.3476 0.9686
3.8162 6.6099 -2.3476 0.9686
3.2720 6.8956 -2.3476 0.9686
2.3948 7.1736 -2.3262 0.9688
2.1038 7.2631 -2.3258 0.9689
1.8093 7.3408 -2.3255 0.9689
1.2124 7.4604 -2.3248 0.9689
-0.0000 7.4817 -2.3012 0.9692
-0.3016 7.4829 -2.3035 0.9691
-0.6042 7.4841 -2.3095 0.9691
-1.8063 7.3286 -2.3216 0.9689
-2.0997 7.2490 -2.3213 0.9689
-2.3959 7.1764 -2.3271 0.9688
-2.6908 7.0951 -2.3340 0.9687
-2.9908 7.0196 -2.3469 0.9686
-3.2720 6.8956 -2.3476 0.9686
-5.0613 5.7130 -2.3476 0.9686
-5.2872 5.5046 -2.3476 0.9686
-5.5046 5.2872 -2.3476 0.9686
-5.9122 4.8271 -2.3476 0.9686
-6.4509 4.0793 -2.3476 0.9686
-6.7582 3.5470 -2.3476 0.9686
-7.0217 2.9917 -2.3476 0.9686
-7.1724 2.7201 -2.3594 0.9684
-7.8071 2.2613 -2.5000 0.9666
-7.8918 1.9451 -2.5000 0.9666
-7.9637 1.6258 -2.5000 0.9666
-8.0227 1.3038 -2.5000 0.9666
-8.1214 0.3273 -2.5000 0.9666
-7.5148 -0.3029 -2.5000 0.9688
-7.4965 -0.6052 -2.5000 0.9688
-7.4235 -1.2064 -2.5000 0.9688
-7.3689 -1.5044 -2.5000 0.9688
-6.9191 -2.9479 -2.5000 0.9688
-6.7948 -3.2241 -2.5000 0.9688
-6.6594 -3.4951 -2.5000 0.9688
-6.5133 -3.7604 -2.5000 0.9688
-6.1896 -4.2724 -2.5000 0.9688
-6.0125 -4.5181 -2.5000 0.9688
-5.4240 -5.2099 -2.5000 0.9688
-5.2099 -5.4241 -2.5000 0.9688
-4.9873 -5.6295 -2.5000 0.9688
-4.7566 -5.8257 -2.5000 0.9688
-4.5181 -6.0125 -2.5000 0.9688
-4.2724 -6.1896 -2.5000 0.9688
-4.0197 -6.3566 -2.5000 0.9688
-3.7604 -6.5133 -2.5000 0.9688
-3.4951 -6.6594 -2.5000 0.9688
-2.9479 -6.9191 -2.5000 0.9688
-2.6670 -7.0322 -2.5000 0.9688
-2.0924 -7.2239 -2.5000 0.9688
-1.5044 -7.3689 -2.5000 0.9688
-1.2065 -7.4235 -2.5000 0.9688
-0.9066 -7.4661 -2.5000 0.9688
-0.6052 -7.4965 -2.5000 0.9688
-0.0000 -7.5209 -2.5000 0.9688
0.3028 -7.5148 -2.5000 0.9688
1.2064 -7.4235 -2.5000 0.9688
2.6669 -7.0322 -2.5000 0.9688
2.9479 -6.9191 -2.5000 0.9688
3.2241 -6.7948 -2.5000 0.9688
3.4951 -6.6594 -2.5000 0.9688
4.0196 -6.3566 -2.5000 0.9688
4.5181 -6.0125 -2.5000 0.9688
4.9873 -5.6295 -2.5000 0.9688
5.4241 -5.2099 -2.5000 0.9688
5.8257 -4.7566 -2.5000 0.9688
6.3566 -4.0197 -2.5000 0.9688
6.9190 -2.9479 -2.5000 0.9688
7.2239 -2.0925 -2.5000 0.9688
7.3023 -1.7999 -2.5000 0.9688
7.3689 -1.5044 -2.5000 0.9688
7.4660 -0.9066 -2.5000 0.9688
7.4965 -0.6052 -2.5000 0.9688
7.4965 0.6052 -2.5000 0.9688
7.0321 2.6669 -2.5000 0.9688
6.4972 2.7682 -2.3476 0.9707
6.3805 3.0276 -2.3476 0.9707
6.2534 3.2821 -2.3476 0.9707
5.9691 3.7746 -2.3476 0.9707
5.4706 4.4666 -2.3476 0.9707
5.0934 4.8923 -2.3476 0.9707
4.6832 5.2863 -2.3476 0.9707
4.4666 5.4706 -2.3476 0.9707
4.2427 5.6460 -2.3476 0.9707
4.0119 5.8123 -2.3476 0.9707
3.7746 5.9691 -2.3476 0.9707
3.0276 6.3805 -2.3476 0.9707
2.2364 6.6989 -2.3476 0.9707
1.9649 6.7836 -2.3476 0.9707
1.6901 6.8572 -2.3476 0.9707
1.4126 6.9197 -2.3476 0.9707
1.1326 6.9708 -2.3475 0.9707
0.8508 7.0073 -2.3464 0.9707
0.5674 7.0293 -2.3442 0.9707
-0.5676 7.0306 -2.3446 0.9707
-1.1331 6.9708 -2.3476 0.9707
-1.4127 6.9197 -2.3476 0.9707
-1.6902 6.8572 -2.3476 0.9707
-1.9649 6.7836 -2.3476 0.9707
-2.7682 6.4973 -2.3476 0.9707
-3.0276 6.3805 -2.3476 0.9707
-3.2821 6.2534 -2.3476 0.9707
-3.5312 6.1162 -2.3476 0.9707
-3.7746 5.9691 -2.3476 0.9707
-4.0119 5.8122 -2.3476 0.9707
-4.4666 5.4706 -2.3476 0.9707
-4.6833 5.2863 -2.3476 0.9707
-5.0934 4.8923 -2.3476 0.9707
-5.4706 4.4666 -2.3476 0.9707
-5.8123 4.0119 -2.3476 0.9707
-5.9691 3.7746 -2.3476 0.9707
-6.2535 3.2821 -2.3476 0.9707
-6.3805 3.0276 -2.3476 0.9707
-6.4973 2.7682 -2.3476 0.9707
-7.1338 2.3816 -2.5000 0.9688
-7.4235 1.2064 -2.5000 0.9688
-7.5148 0.3028 -2.5000 0.9688
-6.8496 -1.3984 -2.5000 0.9707
-6.7878 -1.6730 -2.5000 0.9707
-6.7149 -1.9450 -2.5000 0.9707
-6.6311 -2.2138 -2.5000 0.9707
-6.5366 -2.4790 -2.5000 0.9707
-6.4315 -2.7402 -2.5000 0.9707
-6.3159 -2.9969 -2.5000 0.9707
-6.1901 -3.2488 -2.5000 0.9707
-5.9086 -3.7364 -2.5000 0.9707
-5.7534 -3.9713 -2.5000 0.9707
-4.8428 -5.0418 -2.5000 0.9707
-4.6358 -5.2327 -2.5000 0.9707
-4.4214 -5.4152 -2.5000 0.9707
-4.1997 -5.5888 -2.5000 0.9707
-3.7364 -5.9086 -2.5000 0.9707
-3.2488 -6.1901 -2.5000 0.9707
-2.9969 -6.3159 -2.5000 0.9707
-1.9450 -6.7149 -2.5000 0.9707
-1.6730 -6.7877 -2.5000 0.9707
-1.3984 -6.8496 -2.5000 0.9707
-1.1214 -6.9003 -2.5000 0.9707
-0.2815 -6.9852 -2.5000 0.9707
0.2815 -6.9852 -2.5000 0.9707
0.8426 -6.9399 -2.5000 0.9707
1.1214 -6.9003 -2.5000 0.9707
1.3983 -6.8496 -2.5000 0.9707
1.9450 -6.7149 -2.5000 0.9707
2.7402 -6.4315 -2.5000 0.9707
2.9969 -6.3159 -2.5000 0.9707
3.4954 -6.0543 -2.5000 0.9707
3.7364 -5.9086 -2.5000 0.9707
3.9712 -5.7534 -2.5000 0.9707
4.1997 -5.5888 -2.5000 0.9707
4.4213 -5.4152 -2.5000 0.9707
4.6358 -5.2327 -2.5000 0.9707
5.0418 -4.8427 -2.5000 0.9707
5.5888 -4.1997 -2.5000 0.9707
6.0543 -3.4954 -2.5000 0.9707
6.3159 -2.9969 -2.5000 0.9707
6.4314 -2.7402 -2.5000 0.9707
6.5366 -2.4790 -2.5000 0.9707
6.7148 -1.9450 -2.5000 0.9707
6.9852 -0.2815 -2.5000 0.9707
6.9908 0.0000 -2.5000 0.9707
6.9852 0.2815 -2.5000 0.9707
6.9682 0.5625 -2.5000 0.9707
6.9399 0.8426 -2.5000 0.9707
6.9003 1.1214 -2.5000 0.9707
6.7149 1.9450 -2.5000 0.9707
6.5366 2.4790 -2.5000 0.9707
5.9309 2.8142 -2.3476 0.9725
5.8127 3.0508 -2.3476 0.9725
5.6852 3.2824 -2.3476 0.9725
5.5484 3.5086 -2.3476 0.9725
5.2481 3.9437 -2.3476 0.9725
4.7345 4.5475 -2.3476 0.9725
4.3532 4.9137 -2.3476 0.9725
4.1518 5.0850 -2.3476 0.9725
3.9437 5.2481 -2.3476 0.9725
3.7292 5.4026 -2.3476 0.9725
3.5086 5.5484 -2.3476 0.9725
3.0507 5.8127 -2.3476 0.9725
2.8142 5.9309 -2.3476 0.9725
1.8264 6.3055 -2.3476 0.9725
-0.0000 6.5647 -2.3476 0.9725
-0.7913 6.5168 -2.3476 0.9725
-1.0531 6.4797 -2.3476 0.9725
-1.3131 6.4320 -2.3476 0.9725
-1.5710 6.3739 -2.3476 0.9725
-1.8264 6.3055 -2.3476 0.9725
-2.3279 6.1381 -2.3476 0.9725
-2.8143 5.9309 -2.3476 0.9725
-3.2824 5.6852 -2.3476 0.9725
-3.5086 5.5484 -2.3476 0.9725
-4.1518 5.0850 -2.3476 0.9725
-4.3532 4.9137 -2.3476 0.9725
-4.5475 4.7345 -2.3476 0.9725
-4.7345 4.5475 -2.3476 0.9725
-4.9138 4.3532 -2.3476 0.9725
-5.0851 4.1518 -2.3476 0.9725
-5.4027 3.7292 -2.3476 0.9725
-5.5484 3.5086 -2.3476 0.9725
-5.9309 2.8142 -2.3476 0.9725
-6.3339 2.6986 -2.4621 0.9712
-6.5366 2.4790 -2.5000 0.9707
-6.6311 2.2138 -2.5000 0.9707
-6.7149 1.9450 -2.5000 0.9707
-6.7877 1.6730 -2.5000 0.9707
-6.8496 1.3983 -2.5000 0.9707
-6.9004 1.1214 -2.5000 0.9707
-6.9852 0.2815 -2.5000 0.9707
-3.5687 -0.2881 -1.3720 0.9848
-6.3341 -1.5612 -2.5000 0.9724
-6.2661 -1.8150 -2.5000 0.9724
-6.1879 -2.0658 -2.5000 0.9724
-5.6497 -3.2618 -2.5000 0.9724
-5.3689 -3.7059 -2.5000 0.9724
-5.2153 -3.9191 -2.5000 0.9724
-5.0533 -4.1259 -2.5000 0.9724
-4.7049 -4.5191 -2.5000 0.9724
-4.3260 -4.8830 -2.5000 0.9724
-3.7059 -5.3689 -2.5000 0.9724
-3.4867 -5.5137 -2.5000 0.9724
-2.7967 -5.8938 -2.5000 0.9724
-2.3133 -6.0997 -2.5000 0.9724
-2.0658 -6.1879 -2.5000 0.9724
-1.8150 -6.2661 -2.5000 0.9724
-1.3049 -6.3918 -2.5000 0.9724
-0.7863 -6.4761 -2.5000 0.9724
-0.0000 -6.5237 -2.5000 0.9724
0.5249 -6.5025 -2.5000 0.9724
0.7863 -6.4761 -2.5000 0.9724
1.0465 -6.4392 -2.5000 0.9724
1.8150 -6.2661 -2.5000 0.9724
2.0658 -6.1879 -2.5000 0.9724
2.5570 -6.0016 -2.5000 0.9724
2.7966 -5.8938 -2.5000 0.9724
3.2618 -5.6497 -2.5000 0.9724
3.4867 -5.5137 -2.5000 0.9724
4.3260 -4.8830 -2.5000 0.9724
4.5191 -4.7049 -2.5000 0.9724
4.7049 -4.5191 -2.5000 0.9724
5.2153 -3.9190 -2.5000 0.9724
5.7764 -3.0317 -2.5000 0.9724
5.8938 -2.7967 -2.5000 0.9724
6.1879 -2.0658 -2.5000 0.9724
6.3918 -1.3049 -2.5000 0.9724
6.4392 -1.0465 -2.5000 0.9724
6.4761 -0.7863 -2.5000 0.9724
6.5025 -0.5249 -2.5000 0.9724
6.5184 -0.2627 -2.5000 0.9724
6.5237 -0.0000 -2.5000 0.9724
6.4761 0.7863 -2.5000 0.9724
6.4392 1.0465 -2.5000 0.9724
6.3918 1.3049 -2.5000 0.9724
6.3341 1.5612 -2.5000 0.9724
6.2661 1.8150 -2.5000 0.9724
6.1879 2.0658 -2.5000 0.9724
6.0016 2.5570 -2.5000 0.9724
5.7126 2.7106 -2.4231 0.9733
5.4244 2.8469 -2.3476 0.9741
5.1776 3.2741 -2.3476 0.9741
4.7452 3.8743 -2.3476 0.9741
4.5854 4.0623 -2.3476 0.9741
4.4181 4.2436 -2.3476 0.9741
4.2436 4.4181 -2.3476 0.9741
3.6801 4.8974 -2.3476 0.9741
3.0630 5.3052 -2.3476 0.9741
2.8469 5.4243 -2.3476 0.9741
2.6261 5.5345 -2.3476 0.9741
2.4012 5.6358 -2.3476 0.9741
0.9827 6.0466 -2.3476 0.9741
0.7384 6.0813 -2.3476 0.9741
0.4929 6.1061 -2.3476 0.9741
-0.2467 6.1210 -2.3476 0.9741
-0.4929 6.1061 -2.3476 0.9741
-0.9827 6.0466 -2.3476 0.9741
-2.4012 5.6358 -2.3476 0.9741
-2.6262 5.5345 -2.3476 0.9741
-3.0630 5.3052 -2.3476 0.9741
-3.4800 5.0416 -2.3476 0.9741
-3.6802 4.8974 -2.3476 0.9741
-4.0623 4.5854 -2.3476 0.9741
-4.2436 4.4181 -2.3476 0.9741
-4.4181 4.2436 -2.3476 0.9741
-4.7452 3.8743 -2.3476 0.9741
-4.8974 3.6801 -2.3476 0.9741
-5.1776 3.2741 -2.3476 0.9741
-5.3053 3.0630 -2.3476 0.9741
-5.4243 2.8469 -2.3476 0.9741
-5.7043 2.7067 -2.4196 0.9733
-6.1879 2.0658 -2.5000 0.9724
-6.3341 1.5612 -2.5000 0.9724
-6.4392 1.0465 -2.5000 0.9724
-3.5921 0.4362 -1.3867 0.9846
-3.5687 0.2881 -1.3720 0.9848
-2.8160 0.0000 -1.1525 0.9879
-5.9308 -1.4618 -2.5000 0.9739
-5.7940 -1.9343 -2.5000 0.9739
-5.6196 -2.3943 -2.5000 0.9739
-5.4087 -2.8387 -2.5000 0.9739
-5.1627 -3.2647 -2.5000 0.9739
-4.8833 -3.6695 -2.5000 0.9739
-4.2314 -4.4053 -2.5000 0.9739
-4.0506 -4.5721 -2.5000 0.9739
-3.8632 -4.7315 -2.5000 0.9739
-3.4699 -5.0271 -2.5000 0.9739
-3.2647 -5.1627 -2.5000 0.9739
-2.3943 -5.6195 -2.5000 0.9739
-2.1661 -5.7114 -2.5000 0.9739
-1.4618 -5.9308 -2.5000 0.9739
-1.2218 -5.9849 -2.5000 0.9739
-0.9799 -6.0292 -2.5000 0.9739
-0.7363 -6.0638 -2.5000 0.9739
-0.0000 -6.1083 -2.5000 0.9739
0.7363 -6.0638 -2.5000 0.9739
1.2218 -5.9849 -2.5000 0.9739
2.1660 -5.7114 -2.5000 0.9739
2.3942 -5.6195 -2.5000 0.9739
2.6186 -5.5186 -2.5000 0.9739
3.4699 -5.0271 -2.5000 0.9739
3.6695 -4.8833 -2.5000 0.9739
4.0506 -4.5721 -2.5000 0.9739
4.5721 -4.0506 -2.5000 0.9739
5.0270 -3.4699 -2.5000 0.9739
5.1627 -3.2647 -2.5000 0.9739
5.2900 -3.0542 -2.5000 0.9739
5.4086 -2.8387 -2.5000 0.9739
5.7114 -2.1661 -2.5000 0.9739
5.8671 -1.6995 -2.5000 0.9739
5.9848 -1.2218 -2.5000 0.9739
6.0886 -0.4915 -2.5000 0.9739
6.1083 -0.0000 -2.5000 0.9739
6.0885 0.4915 -2.5000 0.9739
6.0638 0.7363 -2.5000 0.9739
5.5186 2.6186 -2.5000 0.9739
5.1753 2.7162 -2.3921 0.9751
4.5855 3.4458 -2.3476 0.9755
4.4431 3.6277 -2.3476 0.9755
4.2934 3.8036 -2.3476 0.9755
3.9734 4.1368 -2.3476 0.9755
3.8036 4.2934 -2.3476 0.9755
3.6277 4.4431 -2.3476 0.9755
3.0657 4.8480 -2.3476 0.9755
2.6656 5.0789 -2.3476 0.9755
2.4589 5.1821 -2.3476 0.9755
2.0340 5.3632 -2.3476 0.9755
1.3727 5.5693 -2.3476 0.9755
1.1473 5.6200 -2.3476 0.9755
0.2310 5.7313 -2.3476 0.9755
0.0000 5.7360 -2.3476 0.9755
-0.4616 5.7174 -2.3476 0.9755
-0.6914 5.6941 -2.3476 0.9755
-1.1474 5.6200 -2.3476 0.9755
-1.8164 5.4408 -2.3476 0.9755
-2.0340 5.3632 -2.3476 0.9755
-2.4590 5.1822 -2.3476 0.9755
-2.6656 5.0789 -2.3476 0.9755
-3.0657 4.8480 -2.3476 0.9755
-3.4458 4.5856 -2.3476 0.9755
-3.6277 4.4431 -2.3476 0.9755
-3.8037 4.2934 -2.3476 0.9755
-4.2934 3.8036 -2.3476 0.9755
-4.4431 3.6277 -2.3476 0.9755
-4.5856 3.4458 -2.3476 0.9755
-4.7206 3.2584 -2.3476 0.9755
-4.8480 3.0657 -2.3476 0.9755
-5.1685 2.7126 -2.3890 0.9751
-5.5186 2.6186 -2.5000 0.9739
-5.7940 1.9343 -2.5000 0.9739
-3.0070 0.6139 -1.2561 0.9868
-3.0246 0.4915 -1.2541 0.9868
-2.3650 -0.0000 -1.0307 0.9897
-2.3670 -0.0954 -1.0324 0.9897
-2.3650 -0.1909 -1.0340 0.9897
-2.4021 -0.3904 -1.0606 0.9894
-2.4207 -0.4942 -1.0767 0.9893
-5.5696 -1.3728 -2.5000 0.9753
-5.3636 -2.0341 -2.5000 0.9753
-5.2773 -2.2485 -2.5000 0.9753
-5.0793 -2.6658 -2.5000 0.9753
-4.4434 -3.6279 -2.5000 0.9753
-4.2937 -3.8039 -2.5000 0.9753
-3.6279 -4.4434 -2.5000 0.9753
-3.2586 -4.7209 -2.5000 0.9753
-2.6658 -5.0793 -2.5000 0.9753
-1.8165 -5.4411 -2.5000 0.9753
-1.5960 -5.5098 -2.5000 0.9753
-1.3728 -5.5696 -2.5000 0.9753
-0.9202 -5.6620 -2.5000 0.9753
-0.6915 -5.6945 -2.5000 0.9753
-0.2310 -5.7317 -2.5000 0.9753
0.2310 -5.7317 -2.5000 0.9753
0.4616 -5.7177 -2.5000 0.9753
0.9202 -5.6620 -2.5000 0.9753
1.1474 -5.6204 -2.5000 0.9753
1.8165 -5.4411 -2.5000 0.9753
2.0341 -5.3636 -2.5000 0.9753
2.2484 -5.2773 -2.5000 0.9753
2.4591 -5.1825 -2.5000 0.9753
3.2586 -4.7209 -2.5000 0.9753
3.6279 -4.4434 -2.5000 0.9753
3.8039 -4.2937 -2.5000 0.9753
3.9737 -4.1371 -2.5000 0.9753
4.1370 -3.9737 -2.5000 0.9753
4.2937 -3.8039 -2.5000 0.9753
4.5858 -3.4460 -2.5000 0.9753
4.7209 -3.2586 -2.5000 0.9753
4.8483 -3.0659 -2.5000 0.9753
5.1825 -2.4591 -2.5000 0.9753
5.5098 -1.5960 -2.5000 0.9753
5.6204 -1.1474 -2.5000 0.9753
5.7177 -0.4616 -2.5000 0.9753
5.7316 -0.2310 -2.5000 0.9753
5.7363 -0.0000 -2.5000 0.9753
5.7316 0.2310 -2.5000 0.9753
5.6945 0.6914 -2.5000 0.9753
5.6620 0.9202 -2.5000 0.9753
5.6204 1.1474 -2.5000 0.9753
5.5696 1.3728 -2.5000 0.9753
5.5098 1.5959 -2.5000 0.9753
5.2773 2.2484 -2.5000 0.9753
5.1825 2.4591 -2.5000 0.9753
5.0792 2.6658 -2.5000 0.9753
4.4331 3.0600 -2.3476 0.9768
3.8848 3.7314 -2.3476 0.9768
3.5720 4.0319 -2.3476 0.9768
3.4067 4.1725 -2.3476 0.9768
3.2360 4.3063 -2.3476 0.9768
3.0600 4.4331 -2.3476 0.9768
2.8790 4.5527 -2.3476 0.9768
2.3092 4.8665 -2.3476 0.9768
1.4986 5.1740 -2.3476 0.9768
0.8641 5.3169 -2.3476 0.9768
0.6493 5.3474 -2.3476 0.9768
0.2169 5.3823 -2.3476 0.9768
-0.0000 5.3866 -2.3476 0.9768
-0.4334 5.3692 -2.3476 0.9768
-1.2891 5.2301 -2.3476 0.9768
-1.4987 5.1740 -2.3476 0.9768
-1.7058 5.1094 -2.3476 0.9768
-2.6933 4.6650 -2.3476 0.9768
-3.2360 4.3063 -2.3476 0.9768
-3.4068 4.1725 -2.3476 0.9768
-3.3527 3.4905 -2.1093 0.9791
-4.0320 3.5720 -2.3476 0.9768
-4.1725 3.4068 -2.3476 0.9768
-4.3063 3.2360 -2.3476 0.9768
-4.4331 3.0600 -2.3476 0.9768
-4.5583 2.8825 -2.3504 0.9767
-4.7055 2.7167 -2.3680 0.9766
-5.0793 2.6658 -2.5000 0.9753
-5.2773 2.2484 -2.5000 0.9753
-5.3636 2.0341 -2.5000 0.9753
-5.4411 1.8165 -2.5000 0.9753
-5.5099 1.5959 -2.5000 0.9753
-5.5696 1.3728 -2.5000 0.9753
-2.4021 0.3904 -1.0606 0.9894
-2.3794 0.2889 -1.0446 0.9896
-2.2037 -0.0888 -1.0209 0.9903
-2.2008 -0.1777 -1.0220 0.9903
-2.2080 -0.2681 -1.0295 0.9902
-2.2302 -0.3624 -1.0459 0.9901
-2.2466 -0.4586 -1.0614 0.9899
-5.1877 -1.5026 -2.5000 0.9765
-5.1229 -1.7103 -2.5000 0.9765
-5.0499 -1.9152 -2.5000 0.9765
-4.6773 -2.7004 -2.5000 0.9765
-4.4449 -3.0681 -2.5000 0.9765
-4.3177 -3.2445 -2.5000 0.9765
-4.1836 -3.4158 -2.5000 0.9765
-3.7413 -3.8951 -2.5000 0.9765
-3.4158 -4.1836 -2.5000 0.9765
-3.2445 -4.3177 -2.5000 0.9765
-2.8866 -4.5648 -2.5000 0.9765
-2.7004 -4.6773 -2.5000 0.9765
-2.5099 -4.7822 -2.5000 0.9765
-1.5026 -5.1876 -2.5000 0.9765
-1.0803 -5.2917 -2.5000 0.9765
-0.6510 -5.3615 -2.5000 0.9765
-0.0000 -5.4009 -2.5000 0.9765
0.4346 -5.3834 -2.5000 0.9765
0.6510 -5.3615 -2.5000 0.9765
1.2925 -5.2439 -2.5000 0.9765
1.5026 -5.1876 -2.5000 0.9765
1.7103 -5.1229 -2.5000 0.9765
2.7004 -4.6773 -2.5000 0.9765
3.0680 -4.4448 -2.5000 0.9765
3.5814 -4.0426 -2.5000 0.9765
3.7413 -3.8951 -2.5000 0.9765
4.0426 -3.5815 -2.5000 0.9765
4.4448 -3.0680 -2.5000 0.9765
4.6773 -2.7004 -2.5000 0.9765
4.7822 -2.5099 -2.5000 0.9765
4.8794 -2.3153 -2.5000 0.9765
4.9687 -2.1170 -2.5000 0.9765
5.0499 -1.9152 -2.5000 0.9765
5.1876 -1.5026 -2.5000 0.9765
5.2917 -1.0803 -2.5000 0.9765
5.3309 -0.8664 -2.5000 0.9765
5.3615 -0.6510 -2.5000 0.9765
5.3833 -0.4346 -2.5000 0.9765
5.3965 -0.2175 -2.5000 0.9765
5.3965 0.2175 -2.5000 0.9765
5.3834 0.4346 -2.5000 0.9765
