ply
format ascii 1.0
element vertex 1575
property float32 x
property float32 y
property float32 z
property float32 I
end_header
-0.6673 8.2655 -0.2335 0.9674
-1.0203 8.4028 -0.2383 0.9667
-1.4758 9.0808 -0.2591 0.9639
-1.9649 9.6248 -0.2766 0.9615
-2.8042 9.6811 -0.2838 0.9605
-3.2324 9.6823 -0.2874 0.9600
-3.6585 9.6467 -0.2905 0.9596
-5.0811 9.6811 -0.3079 0.9572
-5.5920 8.8430 -0.2946 0.9590
-6.6400 8.8363 -0.3112 0.9567
-7.3441 8.2897 -0.3118 0.9567
-7.7963 8.1168 -0.3169 0.9560
-8.7265 8.3819 -0.3407 0.9527
-33.9889 30.1115 -1.2786 0.8338
-34.1582 27.8893 -1.2417 0.8382
-35.2682 26.5023 -1.2422 0.8382
-35.1323 20.2836 -1.1423 0.8502
-14.6680 7.6984 -0.4664 0.9359
-33.7473 11.2666 -1.0018 0.8673
-49.2555 -1.9849 -2.5000 0.8208
-48.9361 -5.9419 -2.5000 0.8208
-45.6527 -13.2235 -2.4104 0.8267
-43.9220 -14.6633 -2.3483 0.8307
-43.3150 -16.4272 -2.3494 0.8307
-31.4120 -16.4863 -1.7991 0.8675
-28.5213 -16.4667 -1.6702 0.8764
-25.9487 -16.4089 -1.5570 0.8843
-23.8587 -16.4685 -1.4702 0.8904
-21.9579 -16.5003 -1.3929 0.8958
-20.0615 -16.3797 -1.3135 0.9015
-16.8641 -16.1982 -1.1859 0.9106
-24.5731 -30.0966 -1.9705 0.8559
-15.7737 -24.9441 -1.4967 0.8885
-7.5668 -15.9467 -0.8952 0.9317
-8.9549 -23.6121 -1.2807 0.9038
-9.2630 -27.7461 -1.4835 0.8894
-12.7453 -44.0019 -2.3233 0.8324
-10.9613 -44.4715 -2.3228 0.8324
-9.1603 -44.8702 -2.3225 0.8324
-7.3453 -45.1975 -2.3222 0.8324
-3.2216 -26.5321 -1.3554 0.8985
1.6516 -40.9852 -2.0802 0.8485
3.5399 -43.8492 -2.2310 0.8385
5.5337 -27.1057 -1.4030 0.8951
6.5266 -26.4792 -1.3831 0.8965
4.5366 -15.6621 -0.8269 0.9368
6.1985 -18.5667 -0.9927 0.9246
19.7758 -41.6767 -2.3395 0.8313
9.8336 -15.5506 -0.9331 0.9290
10.6810 -15.4741 -0.9535 0.9275
12.6700 -15.5179 -1.0160 0.9229
14.8568 -15.4676 -1.0877 0.9177
16.0743 -15.4395 -1.1303 0.9146
17.3933 -15.4091 -1.1785 0.9111
38.1848 -31.1769 -2.5000 0.8208
41.8916 -19.8778 -2.3515 0.8305
42.5867 -18.1445 -2.3476 0.8308
47.8630 -11.7972 -2.5000 0.8208
48.6571 -7.9076 -2.5000 0.8208
49.1356 -3.9666 -2.5000 0.8208
49.2555 -1.9849 -2.5000 0.8208
46.1403 3.7248 -2.3476 0.8308
43.1941 5.2447 -2.2066 0.8401
42.6723 18.1810 -2.3523 0.8305
16.0180 8.4069 -0.9174 0.9301
12.8048 8.0973 -0.7683 0.9411
8.0827 8.4150 -0.5917 0.9543
7.8758 8.8900 -0.6023 0.9535
7.1920 9.5708 -0.6071 0.9532
5.0661 9.6526 -0.5528 0.9573
4.5802 9.6526 -0.5418 0.9581
3.6607 9.6526 -0.5235 0.9595
3.2225 9.6526 -0.5161 0.9601
2.7959 9.6526 -0.5096 0.9606
1.9539 9.5708 -0.4954 0.9616
1.5554 9.5708 -0.4917 0.9619
1.0400 8.5653 -0.4376 0.9660
0.6676 8.2694 -0.4207 0.9673
-1.0113 8.3283 -0.4255 0.9670
-1.4441 8.8860 -0.4566 0.9646
-1.9647 9.6239 -0.4981 0.9614
-2.2952 9.3119 -0.4864 0.9623
-2.5173 8.6906 -0.4589 0.9644
-3.6586 9.6468 -0.5232 0.9595
-5.0811 9.6811 -0.5545 0.9572
-5.5015 8.6999 -0.5220 0.9596
-6.7425 8.9726 -0.5692 0.9560
-7.0172 8.5945 -0.5627 0.9565
-7.3441 8.2897 -0.5617 0.9566
-7.9229 8.2485 -0.5800 0.9552
-8.7265 8.3819 -0.6136 0.9527
-33.9885 30.1112 -2.3028 0.8337
-34.1582 27.8893 -2.2364 0.8381
-34.0062 23.4728 -2.0955 0.8475
-32.8078 18.9416 -1.9212 0.8592
-28.0817 14.7384 -1.6084 0.8807
-35.3566 16.7769 -1.9847 0.8549
-33.7473 6.8896 -1.7468 0.8711
-37.5261 6.0986 -1.9281 0.8588
-49.2555 1.9849 -2.5000 0.8208
-34.0683 -1.3729 -2.5000 0.8722
-33.6544 -5.4694 -2.5000 0.8722
-33.1051 -8.1597 -2.5000 0.8722
-32.7497 -9.4861 -2.5000 0.8722
-31.8802 -12.0905 -2.5000 0.8722
-30.9969 -13.2065 -2.4704 0.8736
-28.9268 -13.7259 -2.3476 0.8795
-28.3528 -14.8807 -2.3478 0.8795
-27.7390 -16.0152 -2.3485 0.8794
-27.0815 -17.1248 -2.3493 0.8794
-21.7043 -16.3097 -1.9906 0.8968
-20.0644 -16.3820 -1.8992 0.9013
-16.8641 -16.1982 -1.7145 0.9105
-15.5291 -16.1675 -1.6437 0.9140
-14.2980 -16.1391 -1.5810 0.9172
-18.1428 -26.2843 -2.3418 0.8798
-10.1453 -16.0435 -1.3918 0.9267
-12.7234 -22.0375 -1.8658 0.9030
-7.5622 -15.9369 -1.2934 0.9317
-6.0487 -15.9491 -1.2507 0.9339
-4.6101 -15.9160 -1.2150 0.9357
-3.2428 -15.8845 -1.1887 0.9370
-1.9250 -15.8541 -1.1710 0.9380
-0.6377 -15.8245 -1.1612 0.9385
0.6365 -15.7951 -1.1591 0.9386
1.9143 -15.7657 -1.1645 0.9383
2.5598 -15.7508 -1.1700 0.9380
3.2125 -15.7358 -1.1776 0.9376
3.8748 -15.7205 -1.1872 0.9371
4.5232 -15.6159 -1.1920 0.9369
8.1985 -15.6209 -1.2935 0.9317
11.6781 -15.5408 -1.4253 0.9250
14.8568 -15.4676 -1.5725 0.9176
16.0742 -15.4395 -1.6342 0.9145
26.4110 -21.5639 -2.5000 0.8722
28.0606 -19.3688 -2.5000 0.8722
28.8177 -18.2232 -2.5000 0.8722
30.8041 -14.6167 -2.5000 0.8722
31.3676 -13.3645 -2.5000 0.8722
32.3413 -10.7971 -2.5000 0.8722
33.1052 -8.1597 -2.5000 0.8722
33.4069 -6.8201 -2.5000 0.8722
33.9854 -2.7436 -2.5000 0.8722
34.0683 -1.3729 -2.5000 0.8722
34.0959 0.0000 -2.5000 0.8722
34.0683 1.3729 -2.5000 0.8722
33.9854 2.7436 -2.5000 0.8722
33.4070 6.8201 -2.5000 0.8722
33.1053 8.1597 -2.5000 0.8722
32.3414 10.7972 -2.5000 0.8722
31.8804 12.0906 -2.5000 0.8722
31.3677 13.3645 -2.5000 0.8722
17.2043 8.1636 -1.3963 0.9265
11.3074 7.8050 -1.0074 0.9464
11.2009 8.4169 -1.0273 0.9454
11.1999 9.1444 -1.0602 0.9437
9.1609 8.1159 -0.8974 0.9521
8.0827 8.4150 -0.8555 0.9543
7.7553 8.7539 -0.8575 0.9542
6.5943 8.7755 -0.8049 0.9569
6.0982 8.8348 -0.7871 0.9579
3.6607 9.6526 -0.7569 0.9594
2.9798 8.9256 -0.6900 0.9630
2.5920 8.9486 -0.6831 0.9633
2.2104 8.9681 -0.6772 0.9636
1.0897 8.9746 -0.6629 0.9644
0.6770 8.3867 -0.6169 0.9668
0.3290 8.1635 -0.5990 0.9678
-0.3335 8.2749 -0.6072 0.9673
-1.0203 8.4028 -0.6206 0.9666
-1.9647 9.6239 -0.7202 0.9614
-2.3864 8.2388 -0.6289 0.9662
-3.2325 9.6824 -0.7485 0.9599
-3.9008 8.2207 -0.6672 0.9642
-5.0821 9.6832 -0.8018 0.9571
-5.5364 9.5892 -0.8119 0.9566
-5.5402 8.7611 -0.7600 0.9593
-6.9706 8.5375 -0.8081 0.9568
-7.3441 8.2897 -0.8120 0.9566
-8.7265 8.3819 -0.8872 0.9526
-25.1272 22.2608 -2.4614 0.8740
-26.8370 20.1667 -2.4614 0.8740
-27.6272 19.0697 -2.4614 0.8740
-27.8893 14.6374 -2.3094 0.8813
-30.3466 8.7900 -2.3165 0.8810
-30.6900 7.5644 -2.3176 0.8809
-31.6028 5.1360 -2.3476 0.8795
-31.7840 3.8593 -2.3476 0.8795
-33.3321 2.6908 -2.4519 0.8745
-34.0682 1.3729 -2.5000 0.8722
-26.0395 0.0000 -2.4999 0.9007
-26.0190 -1.0485 -2.5000 0.9006
-25.9557 -2.0953 -2.5000 0.9006
-25.8503 -3.1388 -2.5000 0.9006
-25.5139 -5.2087 -2.5000 0.9006
-25.0121 -7.2448 -2.5000 0.9006
-24.7000 -8.2461 -2.5000 0.9006
-24.3479 -9.2339 -2.5000 0.9006
-23.9564 -10.2068 -2.5000 0.9006
-22.5515 -13.0201 -2.5000 0.9006
-20.9061 -13.2202 -2.3747 0.9054
-17.6449 -16.9482 -2.3489 0.9064
-16.9632 -17.6605 -2.3509 0.9063
-12.0895 -16.0883 -1.9320 0.9223
-12.2256 -21.1753 -2.3474 0.9064
-8.3991 -16.0033 -1.7351 0.9299
-5.3190 -15.9323 -1.6126 0.9347
-3.9430 -15.9975 -1.5818 0.9359
-3.2833 -16.0828 -1.5759 0.9362
-3.9177 -24.1065 -2.3447 0.9065
-1.2714 -15.7494 -1.5169 0.9385
1.2739 -15.7804 -1.5199 0.9384
1.9143 -15.7657 -1.5247 0.9382
2.5598 -15.7508 -1.5320 0.9379
3.2125 -15.7358 -1.5419 0.9375
3.8748 -15.7205 -1.5544 0.9370
5.9482 -15.6842 -1.6104 0.9348
6.6704 -15.6561 -1.6338 0.9339
7.4207 -15.6389 -1.6619 0.9328
12.2313 -21.1852 -2.3485 0.9064
9.8960 -15.6493 -1.7776 0.9283
10.7099 -15.5160 -1.8100 0.9270
11.6781 -15.5408 -1.8663 0.9249
12.6700 -15.5179 -1.9233 0.9227
18.3034 -16.2152 -2.3476 0.9064
18.9412 -15.4650 -2.3476 0.9064
19.5486 -14.6898 -2.3476 0.9064
22.5515 -13.0201 -2.5000 0.9006
23.0575 -12.1015 -2.5000 0.9006
24.7001 -8.2461 -2.5000 0.9006
25.2835 -6.2318 -2.5000 0.9006
25.7030 -4.1771 -2.5000 0.9006
25.8503 -3.1388 -2.5000 0.9006
26.0402 0.0000 -2.5000 0.9006
25.9557 2.0954 -2.5000 0.9006
25.2836 6.2319 -2.5000 0.9006
23.4889 6.8037 -2.3477 0.9064
23.2023 7.7461 -2.3484 0.9064
22.5845 8.5652 -2.3189 0.9075
22.5211 9.5954 -2.3502 0.9063
17.2043 8.1636 -1.8282 0.9263
13.0047 7.5083 -1.4417 0.9414
11.2009 8.4169 -1.3451 0.9453
9.1609 8.1159 -1.1750 0.9520
6.8963 8.4465 -1.0469 0.9571
5.8311 8.4478 -0.9855 0.9596
5.5729 9.6526 -1.0701 0.9562
5.0661 9.6526 -1.0466 0.9571
4.5802 9.6526 -1.0257 0.9580
3.1714 8.3623 -0.8586 0.9647
2.8019 8.3928 -0.8495 0.9651
2.4387 8.4194 -0.8415 0.9654
2.0808 8.4421 -0.8347 0.9657
1.7273 8.4611 -0.8291 0.9659
1.5554 9.5708 -0.9309 0.9618
1.0495 8.6432 -0.8359 0.9656
0.3290 8.1634 -0.7844 0.9677
0.0000 8.2749 -0.7944 0.9673
-0.3335 8.2749 -0.7951 0.9673
-2.3708 8.1851 -0.8181 0.9663
-5.5363 9.5892 -1.0630 0.9565
-5.5591 8.0538 -0.9395 0.9614
-6.6747 8.8824 -1.0667 0.9563
-6.9660 8.5318 -1.0574 0.9567
-7.3441 8.2897 -1.0633 0.9565
-7.8400 8.1623 -1.0865 0.9555
-8.7265 8.3820 -1.1617 0.9525
-19.1904 17.0013 -2.4614 0.9021
-19.8595 16.2147 -2.4614 0.9021
-21.0998 14.5642 -2.4614 0.9021
-22.2034 12.8191 -2.4614 0.9021
-22.7015 11.9147 -2.4614 0.9021
-23.5866 10.0493 -2.4614 0.9021
-25.2606 5.1570 -2.4752 0.9016
-25.9407 2.0942 -2.4985 0.9007
-21.0462 0.0000 -2.5000 0.9187
-21.0291 -0.8474 -2.5000 0.9187
-20.8927 -2.5368 -2.5000 0.9187
-20.7736 -3.3760 -2.5000 0.9187
-20.6208 -4.2098 -2.5000 0.9187
-19.9630 -6.6646 -2.5000 0.9187
-18.6354 -9.7806 -2.5000 0.9187
-18.2265 -10.5231 -2.5000 0.9187
-16.8252 -12.6433 -2.5000 0.9187
-12.4991 -15.3086 -2.3476 0.9235
-11.2297 -16.2690 -2.3482 0.9235
-10.5668 -16.7100 -2.3485 0.9234
-9.8864 -17.1231 -2.3486 0.9234
-6.8027 -15.9665 -2.0616 0.9325
-6.0487 -15.9491 -2.0262 0.9336
-4.6101 -15.9160 -1.9683 0.9354
-3.2428 -15.8845 -1.9258 0.9368
-1.9250 -15.8541 -1.8971 0.9377
2.5598 -15.7508 -1.8955 0.9377
3.2125 -15.7358 -1.9077 0.9374
4.5232 -15.6159 -1.9312 0.9366
5.2378 -15.6891 -1.9648 0.9355
5.9439 -15.6729 -1.9911 0.9347
7.7593 -18.2118 -2.3515 0.9234
8.4877 -17.8875 -2.3519 0.9233
9.1927 -17.5152 -2.3497 0.9234
11.8726 -15.7995 -2.3476 0.9235
12.4991 -15.3086 -2.3476 0.9235
13.1054 -14.7929 -2.3476 0.9235
13.6904 -14.2532 -2.3476 0.9235
16.1505 -13.1865 -2.4767 0.9194
19.6785 -7.4631 -2.5000 0.9187
19.9630 -6.6646 -2.5000 0.9187
20.4346 -5.0367 -2.5000 0.9187
20.6208 -4.2097 -2.5000 0.9187
20.7736 -3.3760 -2.5000 0.9187
21.0461 0.0000 -2.5000 0.9187
20.9779 1.6935 -2.5000 0.9187
20.8927 2.5368 -2.5000 0.9187
19.5072 3.1703 -2.3476 0.9235
19.3638 3.9532 -2.3476 0.9235
18.9829 5.4985 -2.3476 0.9235
18.4754 7.0068 -2.3471 0.9235
14.4430 7.5803 -1.9376 0.9364
11.1644 7.0599 -1.5691 0.9482
11.2019 7.7321 -1.6168 0.9466
8.5564 8.2185 -1.4093 0.9533
8.0827 8.4150 -1.3860 0.9541
7.8758 8.8900 -1.4108 0.9533
6.8963 8.4465 -1.2953 0.9570
4.1126 9.6526 -1.2463 0.9586
2.7418 8.2128 -1.0285 0.9657
2.3789 8.2128 -1.0157 0.9661
1.0596 8.7266 -1.0442 0.9652
-0.0000 8.1638 -0.9697 0.9677
-1.0281 8.4670 -1.0131 0.9662
-1.4714 9.0535 -1.0895 0.9637
-2.2955 9.3131 -1.1394 0.9621
-2.3170 7.9992 -0.9892 0.9670
-3.4054 8.9794 -1.1408 0.9621
-3.8062 8.9334 -1.1535 0.9616
-5.5405 8.7615 -1.2314 0.9591
-5.5394 8.0252 -1.1583 0.9615
-7.3441 8.2897 -1.3155 0.9564
-14.5633 12.9019 -2.3111 0.9246
-15.0619 12.2976 -2.3097 0.9247
-16.5655 12.4481 -2.4614 0.9199
-17.9452 10.3606 -2.4614 0.9199
-18.7206 8.8831 -2.4614 0.9199
-19.0632 8.1221 -2.4614 0.9199
-19.3783 7.3492 -2.4618 0.9199
-20.0370 5.8038 -2.4780 0.9194
-20.2918 5.0015 -2.4825 0.9193
-20.7628 3.3743 -2.4987 0.9188
-17.6442 -0.0000 -2.5000 0.9312
-17.5155 -2.1268 -2.5000 0.9312
-17.4157 -2.8303 -2.5000 0.9312
-17.1314 -4.2225 -2.5000 0.9312
-16.9475 -4.9089 -2.5000 0.9312
-16.2322 -6.9159 -2.5000 0.9312
-15.9406 -7.5639 -2.5000 0.9312
-15.6231 -8.1996 -2.5000 0.9312
-13.6672 -11.1589 -2.5000 0.9312
-13.2068 -11.7002 -2.5000 0.9312
-12.7250 -12.2225 -2.5000 0.9312
-12.2225 -12.7250 -2.5000 0.9312
-11.6887 -13.1938 -2.4975 0.9313
-10.7844 -13.2085 -2.4161 0.9334
-9.9534 -13.2456 -2.3476 0.9353
-9.4120 -13.6356 -2.3476 0.9353
-8.2843 -14.3488 -2.3476 0.9353
-7.1028 -14.9688 -2.3476 0.9353
-5.2468 -15.7162 -2.3476 0.9353
-4.6100 -15.9155 -2.3478 0.9353
-3.3146 -16.2361 -2.3479 0.9352
-0.6673 -16.5585 -2.3481 0.9352
1.3334 -16.5175 -2.3480 0.9352
1.9974 -16.4500 -2.3479 0.9352
2.6581 -16.3556 -2.3478 0.9352
3.9651 -16.0871 -2.3476 0.9353
5.2467 -15.7159 -2.3476 0.9353
6.4943 -15.2427 -2.3476 0.9353
7.1028 -14.9688 -2.3476 0.9353
7.6998 -14.6707 -2.3476 0.9353
8.8553 -14.0036 -2.3476 0.9353
9.4120 -13.6356 -2.3476 0.9353
10.7776 -13.2002 -2.4145 0.9335
11.6807 -13.1848 -2.4958 0.9313
13.2068 -11.7002 -2.5000 0.9312
13.6672 -11.1589 -2.5000 0.9312
16.2322 -6.9159 -2.5000 0.9312
16.9475 -4.9089 -2.5000 0.9312
17.2875 -3.5293 -2.5000 0.9312
17.4156 -2.8303 -2.5000 0.9312
17.6298 0.7105 -2.5000 0.9312
17.5869 1.4198 -2.5000 0.9312
17.5155 2.1268 -2.5000 0.9312
16.2337 3.3141 -2.3476 0.9353
15.2427 6.4943 -2.3476 0.9353
14.2540 7.4811 -2.2809 0.9370
11.2017 7.7320 -1.9286 0.9465
11.1999 9.1445 -2.0487 0.9433
8.5564 8.2185 -1.6810 0.9532
7.8758 8.8900 -1.6828 0.9532
6.8963 8.4465 -1.5450 0.9569
6.3471 8.4465 -1.4970 0.9582
4.9918 7.8939 -1.3233 0.9630
5.0661 9.6526 -1.5446 0.9569
4.5802 9.6526 -1.5138 0.9578
3.1147 8.2128 -1.2445 0.9651
2.3789 8.2128 -1.2115 0.9660
2.0243 8.2128 -1.1985 0.9664
0.6770 8.3867 -1.1922 0.9666
0.3290 8.1635 -1.1576 0.9675
-0.6673 8.2655 -1.1749 0.9671
-1.4758 9.0807 -1.3035 0.9635
-2.2956 9.3136 -1.3591 0.9620
-2.9243 8.7593 -1.3084 0.9634
-3.7334 8.7626 -1.3496 0.9623
-4.9546 8.5815 -1.4040 0.9608
-7.3441 8.2897 -1.5692 0.9562
-7.9228 8.2485 -1.6205 0.9548
-8.7265 8.3819 -1.7144 0.9523
-12.2261 10.8313 -2.3143 0.9361
-12.6523 10.3302 -2.3143 0.9361
-13.0580 9.8124 -2.3143 0.9361
-13.4391 9.2764 -2.3138 0.9362
-14.7267 6.9879 -2.3096 0.9363
-16.6115 5.5457 -2.4814 0.9317
-16.8639 4.8847 -2.4876 0.9315
-17.5869 1.4198 -2.5000 0.9312
-17.6298 0.7105 -2.5000 0.9312
-15.1754 0.0000 -2.5000 0.9403
-14.9789 -2.4343 -2.5000 0.9403
-14.8687 -3.0355 -2.5000 0.9403
-14.5763 -4.2221 -2.5000 0.9403
-14.3944 -4.8055 -2.5000 0.9403
-14.1893 -5.3813 -2.5000 0.9403
-13.7102 -6.5056 -2.5000 0.9403
-13.1423 -7.5877 -2.5000 0.9403
-12.8261 -8.1107 -2.5000 0.9403
-12.4891 -8.6206 -2.5000 0.9403
-12.1319 -9.1165 -2.5000 0.9403
-11.7550 -9.5976 -2.5000 0.9403
-10.9445 -10.5124 -2.5000 0.9403
-10.5124 -10.9445 -2.5000 0.9403
-8.6206 -12.4891 -2.5000 0.9403
-8.1107 -12.8261 -2.5000 0.9403
-7.5877 -13.1423 -2.5000 0.9403
-5.6307 -13.2156 -2.3665 0.9434
-5.0532 -13.3243 -2.3476 0.9439
-4.5126 -13.5169 -2.3476 0.9439
-3.4104 -13.8362 -2.3476 0.9439
-1.7177 -14.1464 -2.3476 0.9439
-0.5738 -14.2387 -2.3476 0.9439
0.5738 -14.2387 -2.3476 0.9439
1.1467 -14.2041 -2.3476 0.9439
1.7177 -14.1464 -2.3476 0.9439
2.2859 -14.0658 -2.3476 0.9439
3.4103 -13.8362 -2.3476 0.9439
4.5126 -13.5169 -2.3476 0.9439
5.0532 -13.3243 -2.3476 0.9439
5.6288 -13.2113 -2.3657 0.9434
6.2650 -13.2033 -2.4075 0.9425
7.5877 -13.1423 -2.5000 0.9403
8.1107 -12.8261 -2.5000 0.9403
9.1165 -12.1319 -2.5000 0.9403
10.5124 -10.9445 -2.5000 0.9403
10.9445 -10.5124 -2.5000 0.9403
11.7550 -9.5976 -2.5000 0.9403
12.1318 -9.1165 -2.5000 0.9403
13.1423 -7.5877 -2.5000 0.9403
13.4371 -7.0524 -2.5000 0.9403
13.7102 -6.5056 -2.5000 0.9403
13.9611 -5.9482 -2.5000 0.9403
14.1892 -5.3813 -2.5000 0.9403
14.5762 -4.2221 -2.5000 0.9403
14.8687 -3.0355 -2.5000 0.9403
14.9789 -2.4343 -2.5000 0.9403
15.0647 -1.8292 -2.5000 0.9403
15.1262 -1.2211 -2.5000 0.9403
15.1631 0.6111 -2.5000 0.9403
13.8362 3.4104 -2.3476 0.9439
13.6877 3.9647 -2.3476 0.9439
13.3243 5.0532 -2.3476 0.9439
13.1100 5.5856 -2.3476 0.9439
12.8744 6.1090 -2.3476 0.9439
11.2007 8.4168 -2.3081 0.9448
9.3404 8.2749 -2.0557 0.9507
8.5564 8.2185 -1.9545 0.9530
5.8302 8.4465 -1.6908 0.9592
4.9914 7.8932 -1.5385 0.9628
4.7522 8.2311 -1.5658 0.9622
4.1126 9.6526 -1.7285 0.9584
3.1147 8.2128 -1.4470 0.9650
2.7418 8.2128 -1.4264 0.9655
2.3789 8.2128 -1.4086 0.9659
1.6767 8.2128 -1.3809 0.9666
0.3290 8.1635 -1.3459 0.9674
-1.0203 8.4028 -1.3944 0.9663
-2.5488 7.6346 -1.3260 0.9679
-3.6572 8.5837 -1.5371 0.9629
-3.9008 7.4323 -1.3828 0.9665
-4.8486 8.3980 -1.5975 0.9615
-7.0172 8.5945 -1.8278 0.9560
-8.7265 8.3820 -1.9933 0.9521
-10.5198 9.3198 -2.3153 0.9446
-10.8841 8.8866 -2.3148 0.9446
-11.5616 7.9804 -2.3143 0.9446
-12.1668 7.0245 -2.3144 0.9446
-12.5285 6.5755 -2.3309 0.9443
-13.0907 5.5774 -2.3441 0.9439
-13.3165 5.0503 -2.3462 0.9439
-13.5158 4.5122 -2.3474 0.9439
-14.8687 3.0355 -2.5000 0.9403
-14.9789 2.4343 -2.5000 0.9403
-15.0648 1.8292 -2.5000 0.9403
-15.1262 1.2211 -2.5000 0.9403
-15.1631 0.6111 -2.5000 0.9403
-13.3006 0.0000 -2.5000 0.9473
-13.2898 -0.5356 -2.5000 0.9473
-13.2036 -1.6032 -2.5000 0.9473
-13.1283 -2.1336 -2.5000 0.9473
-12.9141 -3.1830 -2.5000 0.9473
-12.4362 -4.7164 -2.5000 0.9473
-12.2363 -5.2134 -2.5000 0.9473
-12.0164 -5.7018 -2.5000 0.9473
-11.2415 -7.1087 -2.5000 0.9473
-10.6330 -7.9902 -2.5000 0.9473
-10.3027 -8.4119 -2.5000 0.9473
-9.5924 -9.2136 -2.5000 0.9473
-9.2137 -9.5924 -2.5000 0.9473
-8.8199 -9.9556 -2.5000 0.9473
-8.4119 -10.3027 -2.5000 0.9473
-7.9902 -10.6330 -2.5000 0.9473
-6.1811 -11.7771 -2.5000 0.9473
-5.7019 -12.0164 -2.5000 0.9473
-5.2129 -12.2362 -2.5000 0.9473
-4.7165 -12.4362 -2.5000 0.9473
-4.2119 -12.6161 -2.5000 0.9473
-3.1830 -12.9141 -2.5000 0.9473
-2.1336 -13.1283 -2.5000 0.9473
-0.5316 -13.1923 -2.4816 0.9477
0.5316 -13.1918 -2.4816 0.9477
1.0648 -13.1906 -2.4874 0.9476
2.6604 -13.0318 -2.5000 0.9473
3.1830 -12.9141 -2.5000 0.9473
4.7164 -12.4362 -2.5000 0.9473
7.5556 -10.9461 -2.5000 0.9473
9.2137 -9.5924 -2.5000 0.9473
9.9555 -8.8199 -2.5000 0.9473
12.7754 -3.7004 -2.5000 0.9473
12.9141 -3.1830 -2.5000 0.9473
13.1283 -2.1335 -2.5000 0.9473
13.2036 -1.6032 -2.5000 0.9473
13.2897 -0.5356 -2.5000 0.9473
13.2898 0.5356 -2.5000 0.9473
13.2574 1.0703 -2.5000 0.9473
13.2036 1.6032 -2.5000 0.9473
13.0318 2.6605 -2.5000 0.9473
12.1268 2.9890 -2.3476 0.9504
11.8470 3.9551 -2.3476 0.9504
11.2839 5.3543 -2.3476 0.9504
11.0591 5.8043 -2.3476 0.9504
10.2575 7.0802 -2.3427 0.9505
9.6354 7.8671 -2.3381 0.9506
9.2330 8.1798 -2.3185 0.9510
8.0827 8.4150 -2.1931 0.9536
7.7553 8.7539 -2.1982 0.9535
6.9998 8.5732 -2.0803 0.9560
6.9667 9.2710 -2.1798 0.9539
5.8302 8.4465 -1.9291 0.9591
4.9982 7.9040 -1.7578 0.9627
4.5709 8.7091 -1.8487 0.9608
3.9121 8.2447 -1.7153 0.9635
3.9316 9.2279 -1.8853 0.9600
3.1147 8.2128 -1.6510 0.9649
2.7418 8.2128 -1.6274 0.9654
2.3789 8.2128 -1.6071 0.9658
2.0243 8.2128 -1.5899 0.9662
1.6767 8.2128 -1.5755 0.9665
0.6770 8.3867 -1.5815 0.9663
0.3290 8.1635 -1.5357 0.9673
-0.3324 8.2480 -1.5516 0.9670
-0.6673 8.2655 -1.5586 0.9668
-1.0203 8.4028 -1.5910 0.9661
-1.9648 9.6243 -1.8463 0.9608
-2.4157 7.2358 -1.4338 0.9694
-3.1612 8.3353 -1.6756 0.9644
-3.8143 8.0384 -1.6724 0.9644
-3.7742 7.1911 -1.5265 0.9675
-5.1641 8.1663 -1.8161 0.9614
-5.5343 8.0179 -1.8312 0.9611
-7.0172 8.5945 -2.0855 0.9558
-7.3441 8.2897 -2.0817 0.9559
-7.9229 8.2485 -2.1497 0.9545
-9.5451 7.7934 -2.3162 0.9511
-9.8504 7.4021 -2.3160 0.9511
-10.5562 6.6754 -2.3476 0.9504
-10.8165 6.2449 -2.3476 0.9504
-11.2839 5.3542 -2.3476 0.9504
-11.4903 4.8956 -2.3476 0.9504
-11.6781 4.4289 -2.3476 0.9504
-12.1268 2.9890 -2.3476 0.9504
-13.2036 1.6032 -2.5000 0.9473
-11.8270 0.0000 -2.5000 0.9528
-11.8174 -0.4762 -2.5000 0.9528
-11.7887 -0.9517 -2.5000 0.9528
-11.7407 -1.4256 -2.5000 0.9528
-11.6738 -1.8972 -2.5000 0.9528
-11.5880 -2.3657 -2.5000 0.9528
-11.4833 -2.8304 -2.5000 0.9528
-11.3600 -3.2905 -2.5000 0.9528
-11.0584 -4.1939 -2.5000 0.9528
-10.6851 -5.0701 -2.5000 0.9528
-10.4723 -5.4963 -2.5000 0.9528
-9.9961 -6.3211 -2.5000 0.9528
-9.7334 -6.7185 -2.5000 0.9528
-9.4550 -7.1050 -2.5000 0.9528
-8.8526 -7.8427 -2.5000 0.9528
-6.3211 -9.9960 -2.5000 0.9528
-5.4963 -10.4723 -2.5000 0.9528
-5.0702 -10.6851 -2.5000 0.9528
-4.6359 -10.8806 -2.5000 0.9528
-3.7452 -11.2183 -2.5000 0.9528
-3.2904 -11.3600 -2.5000 0.9528
-1.8972 -11.6738 -2.5000 0.9528
-1.4256 -11.7407 -2.5000 0.9528
-0.4762 -11.8174 -2.5000 0.9528
0.4762 -11.8174 -2.5000 0.9528
0.9517 -11.7886 -2.5000 0.9528
1.4256 -11.7407 -2.5000 0.9528
4.1939 -11.0584 -2.5000 0.9528
5.4962 -10.4723 -2.5000 0.9528
5.9134 -10.2424 -2.5000 0.9528
6.3212 -9.9960 -2.5000 0.9528
6.7185 -9.7334 -2.5000 0.9528
7.4799 -9.1612 -2.5000 0.9528
7.8427 -8.8526 -2.5000 0.9528
8.5296 -8.1928 -2.5000 0.9528
8.8526 -7.8427 -2.5000 0.9528
9.1612 -7.4799 -2.5000 0.9528
9.4550 -7.1050 -2.5000 0.9528
9.7334 -6.7185 -2.5000 0.9528
9.9960 -6.3211 -2.5000 0.9528
10.2425 -5.9135 -2.5000 0.9528
10.4723 -5.4963 -2.5000 0.9528
10.6851 -5.0701 -2.5000 0.9528
11.2183 -3.7452 -2.5000 0.9528
11.3600 -3.2905 -2.5000 0.9528
11.4833 -2.8304 -2.5000 0.9528
11.7407 -1.4256 -2.5000 0.9528
11.8174 -0.4762 -2.5000 0.9528
11.8174 0.4762 -2.5000 0.9528
11.7407 1.4256 -2.5000 0.9528
11.5880 2.3657 -2.5000 0.9528
10.6675 3.0899 -2.3476 0.9556
10.5344 3.5169 -2.3476 0.9556
10.0337 4.7611 -2.3476 0.9556
8.8786 6.6718 -2.3476 0.9556
8.2701 7.3267 -2.3355 0.9558
7.3301 8.2740 -2.3366 0.9558
6.9924 8.5642 -2.3371 0.9558
5.8360 8.4549 -2.1716 0.9589
5.0052 7.9152 -1.9796 0.9624
4.7717 8.2649 -2.0173 0.9617
2.7418 8.2128 -1.8302 0.9652
1.6767 8.2128 -1.7718 0.9663
0.3290 8.1635 -1.7270 0.9671
-0.3335 8.2749 -1.7506 0.9667
-1.9649 9.6245 -2.0764 0.9606
-2.2957 9.3138 -2.0277 0.9615
-2.2976 7.9322 -1.7456 0.9668
-3.0466 8.0331 -1.8160 0.9655
-3.8070 8.0231 -1.8772 0.9643
-3.8126 7.2644 -1.7342 0.9670
-4.0800 7.0667 -1.7248 0.9672
-4.9573 7.8393 -1.9606 0.9628
-5.4098 7.8375 -2.0130 0.9618
-5.5382 7.3700 -1.9487 0.9630
-7.2762 8.2131 -2.3194 0.9561
-7.5972 7.9095 -2.3182 0.9562
-7.9087 7.5964 -2.3180 0.9562
-8.2074 7.2711 -2.3178 0.9562
-8.6027 7.0237 -2.3475 0.9556
-8.8786 6.6719 -2.3476 0.9556
-9.3867 5.9358 -2.3476 0.9556
-9.6181 5.5530 -2.3476 0.9556
-9.8339 5.1612 -2.3476 0.9556
-10.0337 4.7610 -2.3476 0.9556
-10.2173 4.3532 -2.3476 0.9556
-10.3843 3.9382 -2.3476 0.9556
-10.5345 3.5169 -2.3476 0.9556
-10.6675 3.0899 -2.3476 0.9556
-11.7407 1.4256 -2.5000 0.9528
-11.8174 0.4762 -2.5000 0.9528
-10.6286 -0.4283 -2.5000 0.9572
-10.6027 -0.8559 -2.5000 0.9572
-10.5596 -1.2822 -2.5000 0.9572
-10.4222 -2.1277 -2.5000 0.9572
-10.2172 -2.9594 -2.5000 0.9572
-10.0898 -3.3684 -2.5000 0.9572
-9.9459 -3.7720 -2.5000 0.9572
-9.2121 -5.3186 -2.5000 0.9572
-8.5038 -6.3902 -2.5000 0.9572
-7.9621 -7.0538 -2.5000 0.9572
-7.3686 -7.6716 -2.5000 0.9572
-6.7274 -8.2396 -2.5000 0.9572
-6.3902 -8.5038 -2.5000 0.9572
-5.6852 -8.9904 -2.5000 0.9572
-4.9433 -9.4187 -2.5000 0.9572
-4.5601 -9.6102 -2.5000 0.9572
-4.1694 -9.7860 -2.5000 0.9572
-3.7720 -9.9459 -2.5000 0.9572
-3.3685 -10.0898 -2.5000 0.9572
-2.9594 -10.2172 -2.5000 0.9572
-2.5457 -10.3281 -2.5000 0.9572
-2.1277 -10.4222 -2.5000 0.9572
-1.7063 -10.4994 -2.5000 0.9572
-0.8560 -10.6027 -2.5000 0.9572
-0.4283 -10.6286 -2.5000 0.9572
0.4285 -10.6285 -2.5000 0.9572
0.8561 -10.6027 -2.5000 0.9572
1.2823 -10.5596 -2.5000 0.9572
2.1280 -10.4222 -2.5000 0.9572
2.9595 -10.2172 -2.5000 0.9572
3.7720 -9.9459 -2.5000 0.9572
4.5601 -9.6102 -2.5000 0.9572
5.6852 -8.9904 -2.5000 0.9572
6.0426 -8.7542 -2.5000 0.9572
6.3902 -8.5038 -2.5000 0.9572
7.0538 -7.9620 -2.5000 0.9572
7.6716 -7.3686 -2.5000 0.9572
9.2121 -5.3186 -2.5000 0.9572
9.6102 -4.5601 -2.5000 0.9572
9.9459 -3.7720 -2.5000 0.9572
10.2172 -2.9595 -2.5000 0.9572
10.3281 -2.5457 -2.5000 0.9572
10.5596 -1.2822 -2.5000 0.9572
10.6027 -0.8559 -2.5000 0.9572
10.6372 0.0000 -2.5000 0.9572
10.4995 1.7063 -2.5000 0.9572
10.4222 2.1277 -2.5000 0.9572
10.3281 2.5457 -2.5000 0.9572
9.5944 2.7791 -2.3476 0.9598
9.4747 3.1631 -2.3476 0.9598
9.1894 3.9153 -2.3476 0.9598
9.0243 4.2821 -2.3476 0.9598
8.6505 4.9944 -2.3476 0.9598
8.4424 5.3386 -2.3476 0.9598
8.2206 5.6743 -2.3476 0.9598
7.2040 6.9194 -2.3476 0.9598
6.8795 7.1624 -2.3341 0.9600
6.2798 7.6913 -2.3336 0.9600
5.9659 7.9392 -2.3340 0.9600
5.6422 8.1742 -2.3343 0.9600
5.0125 7.9267 -2.2042 0.9622
3.0331 9.0852 -2.2511 0.9614
2.3762 9.6407 -2.3336 0.9600
1.6767 8.2128 -1.9700 0.9661
1.0897 8.9746 -2.1247 0.9635
0.3290 8.1635 -1.9202 0.9670
0.0000 8.2749 -1.9448 0.9666
-0.3335 8.2749 -1.9464 0.9665
-0.6673 8.2655 -1.9489 0.9665
-2.2975 7.9317 -1.9408 0.9666
-3.3404 7.8403 -2.0029 0.9656
-3.7210 7.8419 -2.0400 0.9650
-4.0851 7.0756 -1.9202 0.9670
-6.2425 7.6457 -2.3198 0.9603
-7.4767 6.6238 -2.3476 0.9598
-7.9854 6.0007 -2.3476 0.9598
-8.2206 5.6742 -2.3476 0.9598
-8.4424 5.3387 -2.3476 0.9598
-8.6505 4.9944 -2.3476 0.9598
-8.8446 4.6420 -2.3476 0.9598
-9.0243 4.2821 -2.3476 0.9598
-9.1894 3.9153 -2.3476 0.9598
-9.3396 3.5421 -2.3476 0.9598
-9.4747 3.1631 -2.3476 0.9598
-9.5944 2.7790 -2.3476 0.9598
-10.5596 1.2822 -2.5000 0.9572
-10.6027 0.8559 -2.5000 0.9572
-9.6555 0.0000 -2.5000 0.9609
-9.6477 -0.3888 -2.5000 0.9609
-9.6242 -0.7769 -2.5000 0.9609
-9.5305 -1.5488 -2.5000 0.9609
-8.8829 -3.7846 -2.5000 0.9609
-8.3619 -4.8278 -2.5000 0.9609
-7.4792 -6.1066 -2.5000 0.9609
-6.6886 -6.9636 -2.5000 0.9609
-6.1066 -7.4792 -2.5000 0.9609
-5.1605 -8.1607 -2.5000 0.9609
-4.4871 -8.5495 -2.5000 0.9609
-3.7846 -8.8829 -2.5000 0.9609
-3.0576 -9.1586 -2.5000 0.9609
-2.6863 -9.2743 -2.5000 0.9609
-1.1638 -9.5851 -2.5000 0.9609
-0.7770 -9.6242 -2.5000 0.9609
0.0000 -9.6555 -2.5000 0.9609
0.3888 -9.6477 -2.5000 0.9609
0.7769 -9.6242 -2.5000 0.9609
1.1638 -9.5851 -2.5000 0.9609
1.5489 -9.5304 -2.5000 0.9609
1.9313 -9.4604 -2.5000 0.9609
2.3108 -9.3749 -2.5000 0.9609
2.6864 -9.2743 -2.5000 0.9609
3.0576 -9.1586 -2.5000 0.9609
3.7846 -8.8829 -2.5000 0.9609
4.8278 -8.3619 -2.5000 0.9609
5.4850 -7.9463 -2.5000 0.9609
5.8005 -7.7190 -2.5000 0.9609
6.6886 -6.9636 -2.5000 0.9609
7.7190 -5.8005 -2.5000 0.9609
7.9463 -5.4850 -2.5000 0.9609
8.1607 -5.1605 -2.5000 0.9609
8.5495 -4.4871 -2.5000 0.9609
8.7233 -4.1392 -2.5000 0.9609
8.8829 -3.7846 -2.5000 0.9609
9.1586 -3.0576 -2.5000 0.9609
9.3749 -2.3107 -2.5000 0.9609
9.5305 -1.5488 -2.5000 0.9609
9.6242 -0.7769 -2.5000 0.9609
9.6477 0.3888 -2.5000 0.9609
9.6242 0.7770 -2.5000 0.9609
9.5851 1.1639 -2.5000 0.9609
9.5305 1.5489 -2.5000 0.9609
8.3414 3.5539 -2.3476 0.9632
7.4619 5.1506 -2.3476 0.9632
7.2485 5.4469 -2.3476 0.9632
6.7867 6.0125 -2.3476 0.9632
6.5391 6.2809 -2.3476 0.9632
6.2809 6.5391 -2.3476 0.9632
5.4118 7.2018 -2.3325 0.9635
5.1165 7.4126 -2.3321 0.9635
4.8131 7.6114 -2.3317 0.9635
4.5031 7.7997 -2.3319 0.9635
4.1857 7.9752 -2.3320 0.9635
3.1428 8.2869 -2.2948 0.9640
2.8524 8.5439 -2.3322 0.9635
2.1554 8.7449 -2.3320 0.9635
1.7042 8.3477 -2.2059 0.9654
1.4445 8.8884 -2.3316 0.9635
-0.3335 8.2749 -2.1443 0.9664
-0.6673 8.2655 -2.1471 0.9663
-1.7981 8.8079 -2.3275 0.9635
-2.1507 8.7258 -2.3269 0.9635
-2.3624 7.0761 -1.9315 0.9696
-2.9022 7.6524 -2.1191 0.9667
-3.2610 7.6539 -2.1541 0.9662
-3.6325 7.6554 -2.1939 0.9656
-4.7323 7.4836 -2.2925 0.9641
-6.7867 6.0125 -2.3476 0.9632
-7.6633 4.8460 -2.3476 0.9632
-8.1915 3.8869 -2.3476 0.9632
-8.3414 3.5539 -2.3476 0.9632
-8.6228 2.8787 -2.3537 0.9631
-9.3750 2.3107 -2.5000 0.9609
-9.4604 1.9313 -2.5000 0.9609
-9.5305 1.5489 -2.5000 0.9609
-9.6242 0.7770 -2.5000 0.9609
-9.6477 0.3888 -2.5000 0.9609
-8.8238 -0.3556 -2.5000 0.9640
-8.7666 -1.0645 -2.5000 0.9640
-8.3765 -2.7965 -2.5000 0.9640
-7.8195 -4.1039 -2.5000 0.9640
-7.6478 -4.4155 -2.5000 0.9640
-6.6101 -5.8560 -2.5000 0.9640
-6.3689 -6.1174 -2.5000 0.9640
-5.3052 -7.0598 -2.5000 0.9640
-3.4615 -8.1243 -2.5000 0.9640
-3.1315 -8.2571 -2.5000 0.9640
-2.4569 -8.4823 -2.5000 0.9640
-1.7664 -8.6525 -2.5000 0.9640
-1.4166 -8.7166 -2.5000 0.9640
-0.7106 -8.8023 -2.5000 0.9640
-0.3556 -8.8238 -2.5000 0.9640
0.0001 -8.8310 -2.5000 0.9640
0.3556 -8.8238 -2.5000 0.9640
0.7106 -8.8023 -2.5000 0.9640
1.0645 -8.7666 -2.5000 0.9640
1.4166 -8.7166 -2.5000 0.9640
1.7664 -8.6525 -2.5000 0.9640
2.4569 -8.4823 -2.5000 0.9640
2.7965 -8.3765 -2.5000 0.9640
3.1315 -8.2571 -2.5000 0.9640
4.1040 -7.8194 -2.5000 0.9640
4.4155 -7.6478 -2.5000 0.9640
4.7198 -7.4638 -2.5000 0.9640
5.0166 -7.2677 -2.5000 0.9640
5.5851 -6.8405 -2.5000 0.9640
5.8560 -6.6101 -2.5000 0.9640
6.3689 -6.1174 -2.5000 0.9640
6.6101 -5.8560 -2.5000 0.9640
7.0599 -5.3051 -2.5000 0.9640
7.2678 -5.0166 -2.5000 0.9640
7.4638 -4.7199 -2.5000 0.9640
7.9783 -3.7858 -2.5000 0.9640
8.1243 -3.4614 -2.5000 0.9640
8.5743 -2.1134 -2.5000 0.9640
8.6525 -1.7664 -2.5000 0.9640
8.7666 -1.0645 -2.5000 0.9640
8.8023 -0.7106 -2.5000 0.9640
8.8238 -0.3556 -2.5000 0.9640
8.8238 0.3556 -2.5000 0.9640
8.5743 2.1134 -2.5000 0.9640
8.1247 2.7124 -2.4248 0.9650
7.7537 2.9406 -2.3476 0.9661
7.6290 3.2504 -2.3476 0.9661
7.4920 3.5550 -2.3476 0.9661
7.3427 3.8538 -2.3476 0.9661
6.4235 5.2446 -2.3476 0.9661
6.2071 5.4990 -2.3476 0.9661
5.9807 5.7445 -2.3476 0.9661
4.7107 6.8247 -2.3476 0.9661
3.8261 7.2900 -2.3307 0.9664
3.5289 7.4370 -2.3303 0.9664
2.6060 7.8059 -2.3297 0.9664
1.3198 8.1209 -2.3291 0.9664
0.6619 8.1989 -2.3286 0.9664
0.3311 8.2162 -2.3278 0.9664
-0.6614 8.1934 -2.3270 0.9664
-0.9906 8.1584 -2.3265 0.9664
-1.3180 8.1101 -2.3260 0.9664
-1.6431 8.0485 -2.3255 0.9664
-2.2842 7.8860 -2.3242 0.9664
-2.8374 7.4816 -2.2652 0.9673
-3.1882 7.4830 -2.3026 0.9668
-4.0956 7.0938 -2.3189 0.9665
-4.7108 6.8247 -2.3476 0.9661
-4.9817 6.6295 -2.3476 0.9661
-5.2446 6.4235 -2.3476 0.9661
-5.4990 6.2071 -2.3476 0.9661
-6.2071 5.4990 -2.3476 0.9661
-6.4235 5.2446 -2.3476 0.9661
-7.1816 4.1463 -2.3476 0.9661
-7.3428 3.8538 -2.3476 0.9661
-7.6291 3.2504 -2.3476 0.9661
-8.1081 2.7069 -2.4199 0.9651
-8.4823 2.4569 -2.5000 0.9640
-8.7666 1.0645 -2.5000 0.9640
-8.8023 0.7106 -2.5000 0.9640
-8.8238 0.3556 -2.5000 0.9640
-8.1016 -0.6540 -2.5000 0.9666
-7.8918 -1.9451 -2.5000 0.9666
-7.7097 -2.5739 -2.5000 0.9666
-6.6892 -4.6172 -2.5000 0.9666
-6.2960 -5.1405 -2.5000 0.9666
-6.0838 -5.3898 -2.5000 0.9666
-5.6304 -5.8619 -2.5000 0.9666
-5.3898 -6.0838 -2.5000 0.9666
-4.8828 -6.4978 -2.5000 0.9666
-4.3441 -6.8697 -2.5000 0.9666
-4.0640 -7.0390 -2.5000 0.9666
-3.7773 -7.1969 -2.5000 0.9666
-3.4844 -7.3432 -2.5000 0.9666
-3.1859 -7.4775 -2.5000 0.9666
-1.6258 -7.9637 -2.5000 0.9666
-1.3038 -8.0227 -2.5000 0.9666
0.3273 -8.1214 -2.5000 0.9666
0.6540 -8.1016 -2.5000 0.9666
0.9797 -8.0687 -2.5000 0.9666
1.3038 -8.0227 -2.5000 0.9666
1.6258 -7.9637 -2.5000 0.9666
1.9452 -7.8918 -2.5000 0.9666
2.8822 -7.5998 -2.5000 0.9666
3.1859 -7.4776 -2.5000 0.9666
3.4844 -7.3432 -2.5000 0.9666
3.7772 -7.1969 -2.5000 0.9666
4.0640 -7.0390 -2.5000 0.9666
4.3441 -6.8696 -2.5000 0.9666
4.8828 -6.4978 -2.5000 0.9666
5.3898 -6.0838 -2.5000 0.9666
6.8696 -4.3441 -2.5000 0.9666
7.7097 -2.5738 -2.5000 0.9666
7.8071 -2.2613 -2.5000 0.9666
7.8918 -1.9451 -2.5000 0.9666
8.0227 -1.3038 -2.5000 0.9666
8.1016 -0.6540 -2.5000 0.9666
8.1213 -0.3273 -2.5000 0.9666
8.1280 0.0000 -2.5000 0.9666
8.1213 0.3273 -2.5000 0.9666
8.1016 0.6540 -2.5000 0.9666
8.0687 0.9797 -2.5000 0.9666
8.0227 1.3038 -2.5000 0.9666
7.9637 1.6258 -2.5000 0.9666
7.8918 1.9452 -2.5000 0.9666
7.7097 2.5739 -2.5000 0.9666
7.0217 2.9917 -2.3476 0.9686
6.8955 3.2720 -2.3476 0.9686
6.4509 4.0793 -2.3476 0.9686
6.2814 4.3358 -2.3476 0.9686
6.1017 4.5852 -2.3476 0.9686
5.9121 4.8271 -2.3476 0.9686
5.5046 5.2872 -2.3476 0.9686
4.8271 5.9122 -2.3476 0.9686
4.5851 6.1017 -2.3476 0.9686
4.0793 6.4509 -2.3476 0.9686
3.8162 6.6099 -2.3476 0.9686
2.6962 7.1093 -2.3386 0.9687
2.1066 7.2727 -2.3289 0.9688
1.5141 7.4164 -2.3282 0.9688
1.2140 7.4703 -2.3278 0.9688
0.9121 7.5120 -2.3275 0.9688
-0.0000 7.5640 -2.3265 0.9688
-0.3045 7.5568 -2.3262 0.9688
-1.8087 7.3383 -2.3246 0.9689
-2.3680 7.0929 -2.3000 0.9692
-2.9895 7.0166 -2.3459 0.9686
-3.2720 6.8956 -2.3476 0.9686
-3.5470 6.7582 -2.3476 0.9686
-3.8162 6.6099 -2.3476 0.9686
-4.8271 5.9122 -2.3476 0.9686
-5.2872 5.5046 -2.3476 0.9686
-5.5046 5.2872 -2.3476 0.9686
-5.7130 5.0613 -2.3476 0.9686
-6.4509 4.0793 -2.3476 0.9686
-6.3191 3.3165 -2.1950 0.9706
-7.8071 2.2614 -2.5000 0.9666
-7.9637 1.6258 -2.5000 0.9666
-8.1214 0.3273 -2.5000 0.9666
-7.5209 0.0000 -2.5000 0.9688
-7.5148 -0.3028 -2.5000 0.9688
-7.4235 -1.2064 -2.5000 0.9688
-7.2239 -2.0924 -2.5000 0.9688
-6.7948 -3.2241 -2.5000 0.9688
-6.1896 -4.2724 -2.5000 0.9688
-5.6295 -4.9873 -2.5000 0.9688
-5.4241 -5.2099 -2.5000 0.9688
-4.9873 -5.6295 -2.5000 0.9688
-4.7566 -5.8257 -2.5000 0.9688
-4.5181 -6.0125 -2.5000 0.9688
-4.2723 -6.1896 -2.5000 0.9688
-4.0197 -6.3566 -2.5000 0.9688
-3.4951 -6.6594 -2.5000 0.9688
-3.2241 -6.7947 -2.5000 0.9688
-0.6052 -7.4965 -2.5000 0.9688
-0.3028 -7.5148 -2.5000 0.9688
0.3029 -7.5148 -2.5000 0.9688
0.6052 -7.4965 -2.5000 0.9688
1.2064 -7.4235 -2.5000 0.9688
1.5044 -7.3689 -2.5000 0.9688
2.3816 -7.1338 -2.5000 0.9688
2.6669 -7.0321 -2.5000 0.9688
2.9479 -6.9191 -2.5000 0.9688
3.4951 -6.6594 -2.5000 0.9688
5.2099 -5.4241 -2.5000 0.9688
5.6295 -4.9873 -2.5000 0.9688
5.8257 -4.7565 -2.5000 0.9688
6.1896 -4.2723 -2.5000 0.9688
6.5133 -3.7604 -2.5000 0.9688
6.6594 -3.4951 -2.5000 0.9688
6.7947 -3.2241 -2.5000 0.9688
7.0321 -2.6669 -2.5000 0.9688
7.3024 -1.7999 -2.5000 0.9688
7.3689 -1.5044 -2.5000 0.9688
7.4965 -0.6052 -2.5000 0.9688
7.5148 -0.3028 -2.5000 0.9688
7.5148 0.3029 -2.5000 0.9688
7.4965 0.6052 -2.5000 0.9688
7.4660 0.9066 -2.5000 0.9688
7.3689 1.5044 -2.5000 0.9688
7.3023 1.7999 -2.5000 0.9688
7.2239 2.0925 -2.5000 0.9688
7.1338 2.3816 -2.5000 0.9688
7.0321 2.6670 -2.5000 0.9688
6.3805 3.0276 -2.3476 0.9707
6.1162 3.5312 -2.3476 0.9707
5.9691 3.7746 -2.3476 0.9707
5.8122 4.0119 -2.3476 0.9707
5.6460 4.2427 -2.3476 0.9707
4.8923 5.0934 -2.3476 0.9707
4.6832 5.2863 -2.3476 0.9707
4.4666 5.4706 -2.3476 0.9707
4.2427 5.6460 -2.3476 0.9707
4.0119 5.8122 -2.3476 0.9707
3.5312 6.1162 -2.3476 0.9707
3.2821 6.2535 -2.3476 0.9707
3.0276 6.3805 -2.3476 0.9707
2.5044 6.6035 -2.3476 0.9707
1.9649 6.7836 -2.3476 0.9707
0.2837 7.0397 -2.3419 0.9707
0.0000 7.0443 -2.3416 0.9707
-0.2837 7.0402 -2.3421 0.9707
-1.1331 6.9708 -2.3475 0.9707
-1.4127 6.9197 -2.3476 0.9707
-1.6901 6.8572 -2.3476 0.9707
-1.9649 6.7836 -2.3476 0.9707
-2.5044 6.6035 -2.3476 0.9707
-2.7682 6.4973 -2.3476 0.9707
-3.0276 6.3805 -2.3476 0.9707
-3.5312 6.1162 -2.3476 0.9707
-3.7746 5.9691 -2.3476 0.9707
-4.2427 5.6460 -2.3476 0.9707
-4.4666 5.4706 -2.3476 0.9707
-4.6832 5.2863 -2.3476 0.9707
-4.8923 5.0934 -2.3476 0.9707
-5.0934 4.8923 -2.3476 0.9707
-5.4706 4.4666 -2.3476 0.9707
-5.8122 4.0119 -2.3476 0.9707
-5.9691 3.7746 -2.3476 0.9707
-6.1162 3.5312 -2.3476 0.9707
-6.1881 3.2478 -2.3231 0.9710
-6.4973 2.7682 -2.3476 0.9707
-7.0322 2.6670 -2.5000 0.9688
-7.2240 2.0924 -2.5000 0.9688
-7.3024 1.7999 -2.5000 0.9688
-7.3689 1.5044 -2.5000 0.9688
-7.4660 0.9065 -2.5000 0.9688
-7.4965 0.6052 -2.5000 0.9688
-7.5148 0.3028 -2.5000 0.9688
-6.9852 -0.2815 -2.5000 0.9707
-6.9399 -0.8426 -2.5000 0.9707
-6.9003 -1.1214 -2.5000 0.9707
-6.8496 -1.3983 -2.5000 0.9707
-6.7878 -1.6730 -2.5000 0.9707
-6.6311 -2.2138 -2.5000 0.9707
-6.5366 -2.4790 -2.5000 0.9707
-6.1901 -3.2488 -2.5000 0.9707
-6.0543 -3.4954 -2.5000 0.9707
-5.9086 -3.7364 -2.5000 0.9707
-5.4152 -4.4213 -2.5000 0.9707
-4.4213 -5.4152 -2.5000 0.9707
-3.7364 -5.9086 -2.5000 0.9707
-3.4954 -6.0543 -2.5000 0.9707
-3.2488 -6.1901 -2.5000 0.9707
-2.9969 -6.3159 -2.5000 0.9707
-2.4790 -6.5366 -2.5000 0.9707
-1.3984 -6.8496 -2.5000 0.9707
-1.1214 -6.9003 -2.5000 0.9707
-0.5625 -6.9682 -2.5000 0.9707
-0.0000 -6.9909 -2.5000 0.9707
0.2815 -6.9852 -2.5000 0.9707
0.8427 -6.9399 -2.5000 0.9707
1.1214 -6.9003 -2.5000 0.9707
1.6730 -6.7877 -2.5000 0.9707
1.9450 -6.7148 -2.5000 0.9707
2.7402 -6.4315 -2.5000 0.9707
2.9969 -6.3159 -2.5000 0.9707
3.7364 -5.9086 -2.5000 0.9707
4.4213 -5.4152 -2.5000 0.9707
4.6358 -5.2327 -2.5000 0.9707
5.2327 -4.6358 -2.5000 0.9707
5.4152 -4.4213 -2.5000 0.9707
5.7534 -3.9712 -2.5000 0.9707
5.9086 -3.7364 -2.5000 0.9707
6.3159 -2.9969 -2.5000 0.9707
6.7148 -1.9450 -2.5000 0.9707
6.7877 -1.6730 -2.5000 0.9707
6.8496 -1.3983 -2.5000 0.9707
6.9003 -1.1214 -2.5000 0.9707
6.9399 -0.8426 -2.5000 0.9707
6.9682 -0.5625 -2.5000 0.9707
6.9852 -0.2815 -2.5000 0.9707
6.9852 0.2815 -2.5000 0.9707
6.9399 0.8427 -2.5000 0.9707
6.8496 1.3984 -2.5000 0.9707
6.5366 2.4790 -2.5000 0.9707
5.8128 3.0508 -2.3476 0.9725
5.5484 3.5086 -2.3476 0.9725
5.4026 3.7292 -2.3476 0.9725
4.9137 4.3532 -2.3476 0.9725
4.7345 4.5475 -2.3476 0.9725
4.3532 4.9138 -2.3476 0.9725
3.9437 5.2481 -2.3476 0.9725
3.7292 5.4026 -2.3476 0.9725
3.2823 5.6852 -2.3476 0.9725
2.5731 6.0394 -2.3476 0.9725
2.3279 6.1381 -2.3476 0.9725
2.0788 6.2269 -2.3476 0.9725
1.3131 6.4320 -2.3476 0.9725
1.0531 6.4797 -2.3476 0.9725
0.5282 6.5434 -2.3476 0.9725
-0.2643 6.5594 -2.3476 0.9725
-0.5282 6.5434 -2.3476 0.9725
-0.7913 6.5168 -2.3476 0.9725
-1.0531 6.4797 -2.3476 0.9725
-1.3131 6.4321 -2.3476 0.9725
-1.5710 6.3740 -2.3476 0.9725
-1.8264 6.3055 -2.3476 0.9725
-2.0788 6.2269 -2.3476 0.9725
-2.5731 6.0394 -2.3476 0.9725
-3.5086 5.5484 -2.3476 0.9725
-3.7292 5.4026 -2.3476 0.9725
-4.1518 5.0851 -2.3476 0.9725
-4.3532 4.9138 -2.3476 0.9725
-4.7345 4.5475 -2.3476 0.9725
-4.9137 4.3532 -2.3476 0.9725
-6.3362 2.6996 -2.4630 0.9712
-6.5366 2.4790 -2.5000 0.9707
-6.6311 2.2138 -2.5000 0.9707
-6.7149 1.9450 -2.5000 0.9707
-6.8496 1.3984 -2.5000 0.9707
-6.9004 1.1214 -2.5000 0.9707
-6.9399 0.8427 -2.5000 0.9707
-6.9682 0.5625 -2.5000 0.9707
-6.9852 0.2815 -2.5000 0.9707
-3.5687 -0.2881 -1.3720 0.9848
-3.5921 -0.4361 -1.3867 0.9846
-6.4392 -1.0465 -2.5000 0.9724
-6.3341 -1.5612 -2.5000 0.9724
-6.2661 -1.8150 -2.5000 0.9724
-6.0017 -2.5571 -2.5000 0.9724
-5.7764 -3.0317 -2.5000 0.9724
-5.2153 -3.9190 -2.5000 0.9724
-5.0533 -4.1258 -2.5000 0.9724
-4.7049 -4.5191 -2.5000 0.9724
-4.3260 -4.8830 -2.5000 0.9724
-3.9191 -5.2153 -2.5000 0.9724
-2.5571 -6.0016 -2.5000 0.9724
-2.3133 -6.0997 -2.5000 0.9724
-2.0658 -6.1879 -2.5000 0.9724
-1.8150 -6.2661 -2.5000 0.9724
-1.5612 -6.3341 -2.5000 0.9724
-1.0465 -6.4392 -2.5000 0.9724
-0.7863 -6.4761 -2.5000 0.9724
-0.5249 -6.5025 -2.5000 0.9724
-0.2627 -6.5184 -2.5000 0.9724
0.2627 -6.5184 -2.5000 0.9724
1.3049 -6.3918 -2.5000 0.9724
1.5612 -6.3341 -2.5000 0.9724
2.5571 -6.0016 -2.5000 0.9724
2.7967 -5.8938 -2.5000 0.9724
3.7058 -5.3689 -2.5000 0.9724
3.9190 -5.2153 -2.5000 0.9724
4.1259 -5.0533 -2.5000 0.9724
4.3260 -4.8830 -2.5000 0.9724
4.5191 -4.7049 -2.5000 0.9724
5.0532 -4.1258 -2.5000 0.9724
5.3688 -3.7059 -2.5000 0.9724
5.5137 -3.4867 -2.5000 0.9724
5.7764 -3.0317 -2.5000 0.9724
5.8938 -2.7966 -2.5000 0.9724
6.0016 -2.5570 -2.5000 0.9724
6.0997 -2.3133 -2.5000 0.9724
6.2661 -1.8150 -2.5000 0.9724
6.3918 -1.3049 -2.5000 0.9724
6.4392 -1.0465 -2.5000 0.9724
6.4761 -0.7863 -2.5000 0.9724
6.5025 -0.5249 -2.5000 0.9724
6.5184 -0.2627 -2.5000 0.9724
6.5237 0.0000 -2.5000 0.9724
6.4761 0.7863 -2.5000 0.9724
6.4392 1.0465 -2.5000 0.9724
6.3918 1.3049 -2.5000 0.9724
5.4244 2.8469 -2.3476 0.9741
5.1776 3.2741 -2.3476 0.9741
5.0416 3.4800 -2.3476 0.9741
4.8974 3.6801 -2.3476 0.9741
4.5854 4.0623 -2.3476 0.9741
4.4181 4.2436 -2.3476 0.9741
4.2436 4.4181 -2.3476 0.9741
4.0623 4.5854 -2.3476 0.9741
3.2741 5.1776 -2.3476 0.9741
3.0630 5.3053 -2.3476 0.9741
2.8469 5.4243 -2.3476 0.9741
2.4012 5.6358 -2.3476 0.9741
1.9399 5.8107 -2.3476 0.9741
0.9827 6.0467 -2.3476 0.9741
0.7384 6.0813 -2.3476 0.9741
-0.2467 6.1210 -2.3476 0.9741
-0.4929 6.1061 -2.3476 0.9741
-1.7043 5.8841 -2.3476 0.9741
-2.1723 5.7279 -2.3476 0.9741
-4.4181 4.2436 -2.3476 0.9741
-4.7452 3.8744 -2.3476 0.9741
-4.8974 3.6801 -2.3476 0.9741
-5.0416 3.4800 -2.3476 0.9741
-5.1776 3.2741 -2.3476 0.9741
-5.4243 2.8469 -2.3476 0.9741
-6.0016 2.5571 -2.5000 0.9724
-6.0997 2.3133 -2.5000 0.9724
-3.5921 0.4362 -1.3867 0.9846
-2.8160 0.0000 -1.1525 0.9879
-2.8203 -0.1136 -1.1552 0.9879
-5.8672 -1.6994 -2.5000 0.9739
-5.7940 -1.9343 -2.5000 0.9739
-5.7114 -2.1660 -2.5000 0.9739
-5.4087 -2.8387 -2.5000 0.9739
-4.7316 -3.8632 -2.5000 0.9739
-4.4053 -4.2314 -2.5000 0.9739
-4.2314 -4.4053 -2.5000 0.9739
-4.0506 -4.5721 -2.5000 0.9739
-3.4699 -5.0271 -2.5000 0.9739
-1.9343 -5.7940 -2.5000 0.9739
-1.6994 -5.8671 -2.5000 0.9739
-1.4618 -5.9308 -2.5000 0.9739
-1.2218 -5.9849 -2.5000 0.9739
-0.9799 -6.0292 -2.5000 0.9739
-0.4915 -6.0885 -2.5000 0.9739
-0.2460 -6.1034 -2.5000 0.9739
-0.0000 -6.1083 -2.5000 0.9739
0.4915 -6.0885 -2.5000 0.9739
0.9798 -6.0292 -2.5000 0.9739
1.2218 -5.9849 -2.5000 0.9739
1.4618 -5.9308 -2.5000 0.9739
1.6994 -5.8672 -2.5000 0.9739
1.9343 -5.7940 -2.5000 0.9739
2.1661 -5.7114 -2.5000 0.9739
2.3943 -5.6195 -2.5000 0.9739
3.2647 -5.1627 -2.5000 0.9739
3.4699 -5.0270 -2.5000 0.9739
3.6695 -4.8832 -2.5000 0.9739
4.0506 -4.5721 -2.5000 0.9739
4.2314 -4.4053 -2.5000 0.9739
4.4053 -4.2314 -2.5000 0.9739
4.7315 -3.8632 -2.5000 0.9739
4.8833 -3.6695 -2.5000 0.9739
5.1627 -3.2647 -2.5000 0.9739
5.2900 -3.0542 -2.5000 0.9739
5.4087 -2.8387 -2.5000 0.9739
5.5186 -2.6186 -2.5000 0.9739
5.6195 -2.3942 -2.5000 0.9739
5.7114 -2.1660 -2.5000 0.9739
5.7940 -1.9343 -2.5000 0.9739
5.8671 -1.6994 -2.5000 0.9739
5.9308 -1.4618 -2.5000 0.9739
6.0638 -0.7363 -2.5000 0.9739
6.1034 0.2460 -2.5000 0.9739
5.9849 1.2218 -2.5000 0.9739
5.9308 1.4618 -2.5000 0.9739
5.7940 1.9343 -2.5000 0.9739
5.7114 2.1660 -2.5000 0.9739
5.5186 2.6186 -2.5000 0.9739
5.1771 2.7172 -2.3930 0.9750
4.9675 2.8680 -2.3476 0.9755
4.7206 3.2584 -2.3476 0.9755
4.1368 3.9734 -2.3476 0.9755
3.8036 4.2934 -2.3476 0.9755
3.0657 4.8480 -2.3476 0.9755
2.8680 4.9675 -2.3476 0.9755
2.2483 5.2770 -2.3476 0.9755
1.8164 5.4408 -2.3476 0.9755
1.5958 5.5095 -2.3476 0.9755
1.3727 5.5693 -2.3476 0.9755
1.1473 5.6200 -2.3476 0.9755
0.6914 5.6942 -2.3476 0.9755
0.4615 5.7174 -2.3476 0.9755
0.2310 5.7313 -2.3476 0.9755
-0.2310 5.7313 -2.3476 0.9755
-0.9201 5.6617 -2.3476 0.9755
-1.5958 5.5095 -2.3476 0.9755
-1.8164 5.4408 -2.3476 0.9755
-2.0340 5.3632 -2.3476 0.9755
-2.2483 5.2770 -2.3476 0.9755
-2.4590 5.1822 -2.3476 0.9755
-3.0657 4.8480 -2.3476 0.9755
-3.2584 4.7206 -2.3476 0.9755
-3.4458 4.5856 -2.3476 0.9755
-3.9734 4.1368 -2.3476 0.9755
-4.2934 3.8036 -2.3476 0.9755
-4.4431 3.6277 -2.3476 0.9755
-4.8480 3.0657 -2.3476 0.9755
-5.1703 2.7136 -2.3898 0.9751
-5.7114 2.1661 -2.5000 0.9739
-5.7940 1.9343 -2.5000 0.9739
-5.8671 1.6995 -2.5000 0.9739
-3.0246 0.4916 -1.2541 0.9868
-2.9322 0.3560 -1.2089 0.9873
-2.8203 0.1137 -1.1552 0.9879
-2.3650 0.0000 -1.0307 0.9897
-2.3670 -0.0954 -1.0324 0.9897
-2.4207 -0.4942 -1.0767 0.9893
-5.5696 -1.3728 -2.5000 0.9753
-5.4411 -1.8165 -2.5000 0.9753
-5.3636 -2.0341 -2.5000 0.9753
-5.1825 -2.4591 -2.5000 0.9753
-5.0793 -2.6658 -2.5000 0.9753
-4.9678 -2.8682 -2.5000 0.9753
-4.7209 -3.2586 -2.5000 0.9753
-4.5859 -3.4460 -2.5000 0.9753
-4.4434 -3.6279 -2.5000 0.9753
-4.2937 -3.8039 -2.5000 0.9753
-3.9737 -4.1371 -2.5000 0.9753
-3.6279 -4.4434 -2.5000 0.9753
-3.4461 -4.5859 -2.5000 0.9753
-2.8682 -4.9678 -2.5000 0.9753
-2.6658 -5.0792 -2.5000 0.9753
-2.4591 -5.1825 -2.5000 0.9753
-2.2484 -5.2773 -2.5000 0.9753
-2.0341 -5.3635 -2.5000 0.9753
-1.8165 -5.4411 -2.5000 0.9753
-1.5959 -5.5098 -2.5000 0.9753
-0.6914 -5.6945 -2.5000 0.9753
-0.4616 -5.7177 -2.5000 0.9753
-0.2310 -5.7317 -2.5000 0.9753
1.3728 -5.5696 -2.5000 0.9753
1.8165 -5.4411 -2.5000 0.9753
2.2484 -5.2773 -2.5000 0.9753
2.8681 -4.9678 -2.5000 0.9753
3.2586 -4.7209 -2.5000 0.9753
3.4461 -4.5858 -2.5000 0.9753
3.9737 -4.1370 -2.5000 0.9753
4.5858 -3.4460 -2.5000 0.9753
4.7209 -3.2586 -2.5000 0.9753
4.8483 -3.0659 -2.5000 0.9753
4.9678 -2.8681 -2.5000 0.9753
5.5098 -1.5959 -2.5000 0.9753
5.5696 -1.3728 -2.5000 0.9753
5.6204 -1.1474 -2.5000 0.9753
5.6945 -0.6914 -2.5000 0.9753
5.7177 -0.4616 -2.5000 0.9753
5.7316 -0.2310 -2.5000 0.9753
5.7363 0.0000 -2.5000 0.9753
5.7317 0.2310 -2.5000 0.9753
5.5696 1.3728 -2.5000 0.9753
5.2773 2.2484 -2.5000 0.9753
5.1825 2.4591 -2.5000 0.9753
4.5624 2.8851 -2.3526 0.9767
3.8849 3.7315 -2.3476 0.9768
3.4067 4.1725 -2.3476 0.9768
3.2360 4.3063 -2.3476 0.9768
3.0600 4.4331 -2.3476 0.9768
2.8790 4.5527 -2.3476 0.9768
2.6933 4.6650 -2.3476 0.9768
2.3092 4.8666 -2.3476 0.9768
2.1114 4.9556 -2.3476 0.9768
1.9101 5.0366 -2.3476 0.9768
1.7058 5.1094 -2.3476 0.9768
1.4986 5.1740 -2.3476 0.9768
1.2891 5.2301 -2.3476 0.9768
0.8641 5.3169 -2.3476 0.9768
0.6493 5.3474 -2.3476 0.9768
-0.0000 5.3866 -2.3476 0.9768
-0.2169 5.3823 -2.3476 0.9768
-0.4335 5.3692 -2.3476 0.9768
-0.6493 5.3474 -2.3476 0.9768
-1.2891 5.2301 -2.3476 0.9768
-1.4987 5.1740 -2.3476 0.9768
-1.9101 5.0366 -2.3476 0.9768
-2.3092 4.8666 -2.3476 0.9768
-2.5033 4.7696 -2.3476 0.9768
-2.8790 4.5527 -2.3476 0.9768
-3.0600 4.4331 -2.3476 0.9768
-3.5720 4.0320 -2.3476 0.9768
-3.7314 3.8849 -2.3476 0.9768
-3.8849 3.7315 -2.3476 0.9768
-4.0319 3.5720 -2.3476 0.9768
-4.1725 3.4067 -2.3476 0.9768
-4.4331 3.0600 -2.3476 0.9768
-4.5593 2.8831 -2.3510 0.9767
-4.7071 2.7177 -2.3688 0.9766
-5.0792 2.6658 -2.5000 0.9753
-5.4411 1.8165 -2.5000 0.9753
-5.5696 1.3728 -2.5000 0.9753
-2.4207 0.4942 -1.0767 0.9893
-2.4021 0.3904 -1.0606 0.9894
-2.3649 0.1909 -1.0340 0.9897
-2.2030 0.0000 -1.0198 0.9903
-2.2037 -0.0888 -1.0209 0.9903
-2.2080 -0.2681 -1.0295 0.9902
-2.3851 -0.5879 -1.1371 0.9892
-5.1877 -1.5026 -2.5000 0.9765
-4.9687 -2.1170 -2.5000 0.9765
-4.7822 -2.5099 -2.5000 0.9765
-4.5648 -2.8866 -2.5000 0.9765
-4.4449 -3.0680 -2.5000 0.9765
-4.3177 -3.2445 -2.5000 0.9765
-3.7413 -3.8951 -2.5000 0.9765
-3.2445 -4.3177 -2.5000 0.9765
-2.8866 -4.5648 -2.5000 0.9765
-2.3153 -4.8794 -2.5000 0.9765
-0.6510 -5.3615 -2.5000 0.9765
-0.2175 -5.3965 -2.5000 0.9765
0.0000 -5.4009 -2.5000 0.9765
0.2175 -5.3965 -2.5000 0.9765
0.8664 -5.3309 -2.5000 0.9765
1.5027 -5.1876 -2.5000 0.9765
1.9152 -5.0499 -2.5000 0.9765
2.3153 -4.8794 -2.5000 0.9765
2.8866 -4.5648 -2.5000 0.9765
3.2445 -4.3177 -2.5000 0.9765
3.4158 -4.1836 -2.5000 0.9765
3.5814 -4.0426 -2.5000 0.9765
3.7413 -3.8951 -2.5000 0.9765
4.0426 -3.5814 -2.5000 0.9765
4.1835 -3.4158 -2.5000 0.9765
4.4448 -3.0680 -2.5000 0.9765
4.7822 -2.5099 -2.5000 0.9765
4.9687 -2.1170 -2.5000 0.9765
5.0499 -1.9152 -2.5000 0.9765
5.2440 -1.2925 -2.5000 0.9765
5.3615 -0.6510 -2.5000 0.9765
5.3965 -0.2175 -2.5000 0.9765
5.4009 0.0000 -2.5000 0.9765
5.3834 0.4346 -2.5000 0.9765
5.2917 1.0803 -2.5000 0.9765
5.2439 1.2925 -2.5000 0.9765
5.0499 1.9152 -2.5000 0.9765
4.9687 2.1170 -2.5000 0.9765
4.3094 2.7251 -2.3601 0.9778
4.1810 2.8860 -2.3516 0.9779
3.9285 3.2075 -2.3476 0.9779
3.7962 3.3631 -2.3476 0.9779
3.3631 3.7962 -2.3476 0.9779
3.0468 4.0545 -2.3476 0.9779
2.8810 4.1739 -2.3476 0.9779
2.7106 4.2865 -2.3476 0.9779
1.7984 4.7421 -2.3476 0.9779
1.0145 4.9692 -2.3476 0.9779
0.8135 5.0060 -2.3476 0.9779
0.6113 5.0347 -2.3476 0.9779
0.4081 5.0552 -2.3476 0.9779
-0.2042 5.0675 -2.3476 0.9779
-0.4081 5.0552 -2.3476 0.9779
-0.8136 5.0060 -2.3476 0.9779
-1.0145 4.9691 -2.3476 0.9779
-1.2137 4.9243 -2.3476 0.9779
-1.4110 4.8714 -2.3476 0.9779
-1.7984 4.7421 -2.3476 0.9779
-2.1742 4.5820 -2.3476 0.9779
-2.5358 4.3922 -2.3476 0.9779
-2.7106 4.2865 -2.3476 0.9779
-2.8810 4.1739 -2.3476 0.9779
-3.0467 4.0545 -2.3476 0.9779
-3.6577 3.5133 -2.3476 0.9779
-3.7962 3.3631 -2.3476 0.9779
-3.9285 3.2075 -2.3476 0.9779
-4.6669 2.6944 -2.4944 0.9765
-4.7822 2.5099 -2.5000 0.9765
-4.8794 2.3153 -2.5000 0.9765
-5.1230 1.7103 -2.5000 0.9765
-5.1876 1.5026 -2.5000 0.9765
-2.2302 0.3624 -1.0459 0.9901
-2.0590 0.0000 -1.0100 0.9909
-2.0750 -0.3372 -1.0312 0.9907
-2.9436 -0.8526 -1.5032 0.9864
-4.7654 -1.8073 -2.5000 0.9775
-4.6045 -2.1849 -2.5000 0.9775
-4.5128 -2.3685 -2.5000 0.9775
-4.3076 -2.7239 -2.5000 0.9775
-4.0744 -3.0617 -2.5000 0.9775
-3.9478 -3.2233 -2.5000 0.9775
-3.8148 -3.3796 -2.5000 0.9775
-3.6757 -3.5305 -2.5000 0.9775
-3.5305 -3.6756 -2.5000 0.9775
-3.2233 -3.9478 -2.5000 0.9775
-3.0617 -4.0744 -2.5000 0.9775
-2.8952 -4.1944 -2.5000 0.9775
-2.7239 -4.3075 -2.5000 0.9775
-2.5483 -4.4137 -2.5000 0.9775
-2.3685 -4.5128 -2.5000 0.9775
-1.6139 -4.8343 -2.5000 0.9775
-1.0194 -4.9936 -2.5000 0.9775
-0.6143 -5.0594 -2.5000 0.9775
-0.4101 -5.0800 -2.5000 0.9775
-0.0000 -5.0966 -2.5000 0.9775
0.2052 -5.0924 -2.5000 0.9775
0.4101 -5.0800 -2.5000 0.9775
0.8175 -5.0306 -2.5000 0.9775
1.0194 -4.9936 -2.5000 0.9775
1.6139 -4.8343 -2.5000 0.9775
1.9977 -4.6887 -2.5000 0.9775
2.7240 -4.3076 -2.5000 0.9775
3.0617 -4.0744 -2.5000 0.9775
3.5305 -3.6757 -2.5000 0.9775
3.6756 -3.5305 -2.5000 0.9775
3.9478 -3.2233 -2.5000 0.9775
4.1944 -2.8952 -2.5000 0.9775
4.5128 -2.3685 -2.5000 0.9775
4.6045 -2.1848 -2.5000 0.9775
4.8954 -1.4179 -2.5000 0.9775
5.0594 -0.6143 -2.5000 0.9775
5.0800 -0.4101 -2.5000 0.9775
5.0966 0.0000 -2.5000 0.9775
5.0924 0.2052 -2.5000 0.9775
5.0306 0.8175 -2.5000 0.9775
4.9485 1.2197 -2.5000 0.9775
4.8953 1.4180 -2.5000 0.9775
4.8343 1.6139 -2.5000 0.9775
4.7654 1.8073 -2.5000 0.9775
4.6887 1.9977 -2.5000 0.9775
4.6045 2.1849 -2.5000 0.9775
4.4138 2.5483 -2.5000 0.9775
3.8369 2.8832 -2.3542 0.9788
3.1736 3.5823 -2.3476 0.9789
2.3929 4.1447 -2.3476 0.9789
2.2241 4.2377 -2.3476 0.9789
2.0517 4.3238 -2.3476 0.9789
1.8759 4.4029 -2.3476 0.9789
