ply
format ascii 1.0
element vertex 1580
property float32 x
property float32 y
property float32 z
property float32 I
end_header
31.8803 -12.0906 -2.5000 0.8722
32.3413 -10.7971 -2.5000 0.8722
33.4069 -6.8201 -2.5000 0.8722
13.7003 -2.2265 -1.0177 0.9459
14.0963 -1.7116 -1.0412 0.9446
34.0959 0.0000 -2.5000 0.8722
33.8473 4.1098 -2.5000 0.8722
32.7499 9.4862 -2.5000 0.8722
17.3393 8.2276 -1.4072 0.9259
12.2597 7.7526 -1.0636 0.9435
12.1702 8.4005 -1.0843 0.9424
8.6149 8.9691 -0.9119 0.9513
7.6523 8.6376 -0.8461 0.9548
7.1115 8.7100 -0.8245 0.9559
4.1923 8.8352 -0.7170 0.9615
3.3750 8.8993 -0.6979 0.9625
2.9798 8.9257 -0.6900 0.9630
2.6466 9.1371 -0.6975 0.9626
2.2358 9.0711 -0.6850 0.9632
1.7198 8.4241 -0.6304 0.9661
0.3325 8.2500 -0.6054 0.9674
-1.1685 9.6235 -0.7108 0.9619
-1.4122 8.6896 -0.6455 0.9653
-1.9764 9.6811 -0.7245 0.9611
-2.7767 9.5861 -0.7318 0.9608
-3.1711 8.3615 -0.6557 0.9648
-4.1248 9.6811 -0.7716 0.9587
-4.7974 8.3092 -0.7035 0.9622
-5.7202 9.0457 -0.7847 0.9580
-5.9887 8.6761 -0.7730 0.9586
-6.2696 8.3433 -0.7652 0.9590
-25.1272 22.2608 -2.4614 0.8740
-26.7671 20.1141 -2.4550 0.8743
-26.7158 18.4406 -2.3802 0.8779
-27.9206 14.6539 -2.3120 0.8812
-29.5427 11.2041 -2.3167 0.8810
-26.8156 8.9524 -2.0729 0.8928
-31.0724 7.6587 -2.3465 0.8795
-31.3721 6.4047 -2.3477 0.8795
-31.6076 5.1368 -2.3479 0.8795
-31.7862 3.8595 -2.3477 0.8795
-33.3280 2.6905 -2.4516 0.8745
-25.9557 -2.0954 -2.5000 0.9006
-25.5139 -5.2087 -2.5000 0.9006
-25.2834 -6.2318 -2.5000 0.9006
-25.0120 -7.2448 -2.5000 0.9006
-23.9564 -10.2069 -2.5000 0.9006
-23.0574 -12.1014 -2.5000 0.9006
-22.5515 -13.0201 -2.5000 0.9006
-20.9067 -13.2206 -2.3748 0.9054
-20.1242 -13.8908 -2.3476 0.9064
-13.1743 -16.1356 -1.9999 0.9197
-11.1047 -16.0879 -1.8767 0.9245
-13.0708 -20.6698 -2.3479 0.9064
-9.2639 -16.0455 -1.7787 0.9283
-10.4309 -21.9826 -2.3360 0.9069
-6.0572 -15.9716 -1.6399 0.9337
-7.7364 -23.1735 -2.3455 0.9065
-2.5826 -15.8916 -1.5457 0.9374
-1.9278 -15.8765 -1.5354 0.9378
-1.2805 -15.8616 -1.5277 0.9381
0.9833 -24.4016 -2.3446 0.9065
1.9652 -24.3433 -2.3447 0.9065
2.9440 -24.2459 -2.3448 0.9065
7.7387 -23.1803 -2.3462 0.9065
10.4821 -22.0906 -2.3475 0.9064
8.2337 -15.6881 -1.7010 0.9313
10.7571 -15.5843 -1.8180 0.9267
11.6284 -15.4745 -1.8583 0.9252
12.6879 -15.5399 -1.9260 0.9225
15.6561 -16.2997 -2.1698 0.9132
17.6366 -16.9402 -2.3477 0.9064
19.5486 -14.6898 -2.3476 0.9064
20.9010 -13.2170 -2.3741 0.9054
22.5514 -13.0201 -2.5000 0.9006
24.7001 -8.2461 -2.5000 0.9006
25.2835 -6.2318 -2.5000 0.9006
12.9118 -1.5678 -1.2487 0.9491
26.0190 -1.0485 -2.5000 0.9006
26.0190 1.0485 -2.5000 0.9006
25.8503 3.1388 -2.5000 0.9006
22.9041 8.6864 -2.3517 0.9063
22.5449 9.6055 -2.3527 0.9062
12.1328 7.6723 -1.3782 0.9439
12.1693 9.1446 -1.4614 0.9407
8.9094 8.5576 -1.1860 0.9516
7.4829 8.4465 -1.0834 0.9557
6.5120 8.6660 -1.0407 0.9574
5.5729 9.6526 -1.0701 0.9562
3.1714 8.3623 -0.8586 0.9647
2.5924 8.9501 -0.8946 0.9632
2.1947 8.9044 -0.8804 0.9638
1.7198 8.4241 -0.8254 0.9660
0.6680 8.2749 -0.7970 0.9672
0.3325 8.2500 -0.7927 0.9674
-0.3500 8.6850 -0.8345 0.9657
-0.7770 9.6244 -0.9270 0.9619
-2.3862 9.6811 -0.9573 0.9607
-2.7767 9.5861 -0.9581 0.9607
-5.6659 8.9599 -1.0177 0.9583
-5.9330 8.5954 -1.0027 0.9589
-6.6880 8.1913 -1.0152 0.9584
-7.2558 8.1901 -1.0505 0.9570
-17.7602 18.4904 -2.4614 0.9021
-19.1904 17.0013 -2.4614 0.9021
-19.8595 16.2147 -2.4614 0.9021
-21.0998 14.5642 -2.4614 0.9021
-21.6692 13.7028 -2.4614 0.9021
-23.1629 10.9909 -2.4614 0.9021
-23.5866 10.0493 -2.4614 0.9021
-23.9721 9.0914 -2.4614 0.9021
-24.9623 6.1527 -2.4682 0.9018
-25.2482 5.1545 -2.4739 0.9016
-25.5802 4.1572 -2.4880 0.9011
-25.8264 3.1359 -2.4977 0.9007
-21.0291 -0.8474 -2.5000 0.9187
-20.8927 -2.5368 -2.5000 0.9187
-20.7736 -3.3760 -2.5000 0.9187
-20.6208 -4.2098 -2.5000 0.9187
-19.9630 -6.6646 -2.5000 0.9187
-19.6785 -7.4630 -2.5000 0.9187
-19.3620 -8.2494 -2.5000 0.9187
-19.0142 -9.0223 -2.5000 0.9187
-17.7880 -11.2485 -2.5000 0.9187
-16.1663 -13.1994 -2.4791 0.9194
-13.1054 -14.7929 -2.3476 0.9235
-10.5669 -16.7102 -2.3485 0.9234
-9.8856 -17.1234 -2.3487 0.9234
-9.1992 -17.5277 -2.3514 0.9234
-6.7737 -15.8984 -2.0528 0.9328
-4.6166 -15.9385 -1.9711 0.9353
-3.2474 -15.9069 -1.9285 0.9367
-1.9278 -15.8765 -1.8998 0.9376
-1.2805 -15.8616 -1.8903 0.9379
1.9170 -15.7880 -1.8892 0.9379
2.5634 -15.7731 -1.8982 0.9377
3.2170 -15.7580 -1.9104 0.9373
3.8803 -15.7427 -1.9260 0.9368
4.5554 -15.7272 -1.9450 0.9362
5.2452 -15.7113 -1.9675 0.9355
5.9523 -15.6950 -1.9939 0.9346
7.7592 -18.2115 -2.3514 0.9234
9.1935 -17.5168 -2.3499 0.9234
12.4991 -15.3086 -2.3476 0.9235
13.6904 -14.2532 -2.3476 0.9235
14.9086 -13.2079 -2.3659 0.9229
17.3206 -11.9556 -2.5000 0.9187
17.7880 -11.2484 -2.5000 0.9187
18.2265 -10.5231 -2.5000 0.9187
18.6354 -9.7806 -2.5000 0.9187
19.0142 -9.0223 -2.5000 0.9187
19.3620 -8.2494 -2.5000 0.9187
19.6785 -7.4630 -2.5000 0.9187
19.9630 -6.6646 -2.5000 0.9187
12.1162 -2.4735 -1.4689 0.9514
12.0672 -1.9611 -1.4522 0.9519
12.1905 -1.4802 -1.4587 0.9517
21.0291 -0.8474 -2.5000 0.9187
20.9779 1.6935 -2.5000 0.9187
20.8927 2.5368 -2.5000 0.9187
19.1889 4.7296 -2.3476 0.9235
18.9829 5.4985 -2.3476 0.9235
18.4713 7.0053 -2.3466 0.9235
13.6857 7.1828 -1.8360 0.9396
9.0138 8.6578 -1.4846 0.9509
8.1129 8.4465 -1.3912 0.9539
7.4829 8.4465 -1.3404 0.9556
6.6627 9.6526 -1.3932 0.9539
6.1039 9.6526 -1.3566 0.9550
1.3374 8.2293 -0.9903 0.9670
-0.3531 8.7613 -1.0416 0.9653
-1.9225 9.4171 -1.1417 0.9620
-2.6709 9.2208 -1.1403 0.9621
-2.8454 8.5232 -1.0674 0.9645
-3.8053 8.9312 -1.1532 0.9616
-16.5655 12.4481 -2.4614 0.9199
-17.0533 11.7710 -2.4614 0.9199
-17.5134 11.0748 -2.4614 0.9199
-17.9451 10.3606 -2.4614 0.9199
-18.3478 9.6297 -2.4614 0.9199
-18.7206 8.8831 -2.4614 0.9199
-19.3779 7.3491 -2.4618 0.9199
-20.0272 5.8009 -2.4767 0.9194
-20.9745 1.6933 -2.4996 0.9187
-17.6441 0.0000 -2.5000 0.9312
-17.6298 -0.7105 -2.5000 0.9312
-17.5155 -2.1268 -2.5000 0.9312
-17.2875 -3.5293 -2.5000 0.9312
-16.9475 -4.9089 -2.5000 0.9312
-16.7361 -5.5873 -2.5000 0.9312
-15.6231 -8.1996 -2.5000 0.9312
-15.2803 -8.8221 -2.5000 0.9312
-14.9127 -9.4302 -2.5000 0.9312
-13.2068 -11.7002 -2.5000 0.9312
-12.7250 -12.2225 -2.5000 0.9312
-11.6890 -13.1941 -2.4976 0.9313
-10.7847 -13.2089 -2.4161 0.9334
-9.9534 -13.2456 -2.3476 0.9353
-9.4120 -13.6356 -2.3476 0.9353
-7.1028 -14.9688 -2.3476 0.9353
-6.4943 -15.2427 -2.3476 0.9353
-5.8753 -15.4919 -2.3476 0.9353
-4.6101 -15.9157 -2.3478 0.9352
-3.9656 -16.0891 -2.3479 0.9352
-3.3146 -16.2363 -2.3480 0.9352
-2.6583 -16.3570 -2.3480 0.9352
-1.9975 -16.4511 -2.3481 0.9352
0.0000 -16.5721 -2.3481 0.9352
1.3335 -16.5177 -2.3480 0.9352
1.9974 -16.4502 -2.3479 0.9352
2.6581 -16.3558 -2.3479 0.9352
3.3144 -16.2348 -2.3477 0.9353
3.9652 -16.0874 -2.3476 0.9353
6.4943 -15.2427 -2.3476 0.9353
7.1028 -14.9688 -2.3476 0.9353
7.6998 -14.6707 -2.3476 0.9353
8.8553 -14.0036 -2.3476 0.9353
9.4120 -13.6356 -2.3476 0.9353
10.7779 -13.2005 -2.4146 0.9335
11.6810 -13.1851 -2.4959 0.9313
12.7250 -12.2225 -2.5000 0.9312
13.2068 -11.7002 -2.5000 0.9312
14.1055 -10.5996 -2.5000 0.9312
14.9126 -9.4302 -2.5000 0.9312
15.2805 -8.8220 -2.5000 0.9312
15.6231 -8.1996 -2.5000 0.9312
15.9406 -7.5639 -2.5000 0.9312
16.7361 -5.5873 -2.5000 0.9312
16.9475 -4.9089 -2.5000 0.9312
17.1314 -4.2225 -2.5000 0.9312
11.9524 -2.4401 -1.7285 0.9519
11.9404 -1.9405 -1.7140 0.9523
12.3683 -0.9985 -1.7582 0.9511
17.6441 0.0000 -2.5000 0.9312
15.4918 5.8753 -2.3476 0.9353
15.2427 6.4943 -2.3476 0.9353
12.2623 7.0797 -2.0062 0.9444
12.1710 7.6965 -2.0404 0.9435
12.1701 8.4004 -2.0953 0.9420
10.1021 8.2481 -1.8479 0.9487
9.3679 8.2992 -1.7733 0.9507
8.1129 8.4465 -1.6594 0.9538
7.4829 8.4465 -1.5989 0.9554
5.9257 7.8858 -1.3976 0.9609
6.1039 9.6526 -1.6182 0.9549
5.5729 9.6526 -1.5792 0.9560
5.0661 9.6526 -1.5446 0.9569
3.8970 8.2128 -1.2880 0.9639
3.4991 8.2128 -1.2649 0.9646
2.4739 8.5410 -1.2599 0.9647
2.2358 9.0711 -1.3237 0.9630
1.3374 8.2293 -1.1813 0.9669
0.6559 8.1248 -1.1549 0.9676
0.3325 8.2500 -1.1699 0.9672
-0.0000 8.4194 -1.1929 0.9666
-0.3500 8.6850 -1.2316 0.9655
-0.7770 9.6244 -1.3681 0.9617
-1.1686 9.6239 -1.3736 0.9616
-2.1592 8.7602 -1.2784 0.9642
-2.9550 7.7917 -1.1807 0.9669
-3.3123 7.7741 -1.1973 0.9664
-4.5712 8.7096 -1.3937 0.9610
-5.7034 9.0192 -1.5120 0.9578
-5.9887 8.6761 -1.4937 0.9583
-6.2696 8.3433 -1.4787 0.9587
-6.7489 8.2660 -1.5120 0.9578
-7.3161 8.2581 -1.5632 0.9564
-11.3148 11.7800 -2.3143 0.9361
-11.7800 11.3148 -2.3143 0.9361
-12.6471 10.3261 -2.3134 0.9362
-13.0464 9.8037 -2.3123 0.9362
-15.3819 8.0731 -2.4614 0.9322
-15.9895 6.8125 -2.4626 0.9322
-16.3104 6.1857 -2.4716 0.9320
-17.2817 3.5281 -2.4991 0.9312
-17.5869 1.4198 -2.5000 0.9312
-17.6298 0.7105 -2.5000 0.9312
-15.1754 0.0000 -2.5000 0.9403
-15.0648 -1.8292 -2.5000 0.9403
-14.9789 -2.4343 -2.5000 0.9403
-14.7344 -3.6317 -2.5000 0.9403
-14.1893 -5.3812 -2.5000 0.9403
-13.1423 -7.5877 -2.5000 0.9403
-11.7550 -9.5976 -2.5000 0.9403
-10.9445 -10.5124 -2.5000 0.9403
-9.1165 -12.1319 -2.5000 0.9403
-8.6206 -12.4891 -2.5000 0.9403
-8.1107 -12.8261 -2.5000 0.9403
-6.9279 -13.2000 -2.4559 0.9414
-6.2675 -13.2085 -2.4085 0.9425
-5.0532 -13.3243 -2.3476 0.9439
-3.9647 -13.6877 -2.3476 0.9439
-2.8504 -13.9623 -2.3476 0.9439
-1.7177 -14.1464 -2.3476 0.9439
-1.1467 -14.2041 -2.3476 0.9439
-0.5738 -14.2387 -2.3476 0.9439
-0.0000 -14.2503 -2.3476 0.9439
0.5738 -14.2387 -2.3476 0.9439
1.7177 -14.1464 -2.3476 0.9439
2.2859 -14.0658 -2.3476 0.9439
2.8504 -13.9623 -2.3476 0.9439
3.4103 -13.8362 -2.3476 0.9439
3.9647 -13.6877 -2.3476 0.9439
4.5126 -13.5169 -2.3476 0.9439
5.0532 -13.3243 -2.3476 0.9439
5.6289 -13.2116 -2.3658 0.9434
6.9251 -13.1946 -2.4549 0.9414
7.5876 -13.1423 -2.5000 0.9403
8.6206 -12.4891 -2.5000 0.9403
9.1165 -12.1319 -2.5000 0.9403
10.0632 -11.3589 -2.5000 0.9403
10.5124 -10.9445 -2.5000 0.9403
10.9445 -10.5124 -2.5000 0.9403
11.7551 -9.5976 -2.5000 0.9403
12.8261 -8.1107 -2.5000 0.9403
13.1423 -7.5877 -2.5000 0.9403
13.9611 -5.9482 -2.5000 0.9403
14.3944 -4.8055 -2.5000 0.9403
14.5762 -4.2221 -2.5000 0.9403
11.9699 -1.4534 -1.9864 0.9523
12.2485 -0.9888 -2.0244 0.9514
15.1631 -0.6111 -2.5000 0.9403
15.1631 0.6110 -2.5000 0.9403
15.1262 1.2211 -2.5000 0.9403
15.0647 1.8292 -2.5000 0.9403
14.9789 2.4343 -2.5000 0.9403
13.8362 3.4103 -2.3476 0.9439
13.6877 3.9647 -2.3476 0.9439
13.5169 4.5126 -2.3476 0.9439
13.1100 5.5856 -2.3476 0.9439
12.8745 6.1090 -2.3476 0.9439
12.6180 6.6224 -2.3476 0.9439
12.2886 7.0948 -2.3376 0.9441
11.6895 8.0687 -2.3399 0.9440
10.1242 8.2662 -2.1532 0.9484
9.3679 8.2992 -2.0618 0.9505
6.8963 8.4465 -1.7964 0.9568
5.9342 7.8971 -1.6273 0.9607
4.9009 9.3379 -1.7373 0.9581
3.8970 8.2128 -1.4976 0.9638
3.4991 8.2128 -1.4707 0.9645
3.1147 8.2128 -1.4470 0.9650
2.7418 8.2128 -1.4264 0.9655
2.2358 9.0711 -1.5391 0.9628
0.6680 8.2749 -1.3676 0.9669
-0.0000 8.4194 -1.3870 0.9664
-0.3624 8.9938 -1.4828 0.9642
-0.7770 9.6244 -1.5907 0.9616
-1.3279 8.1711 -1.3638 0.9670
-2.1151 8.5814 -1.4560 0.9648
-2.8887 7.6169 -1.3420 0.9675
-3.1745 7.4508 -1.3342 0.9677
-4.0034 8.4370 -1.5384 0.9628
-4.4065 8.3958 -1.5620 0.9623
-4.7356 7.4887 -1.4596 0.9647
-5.9887 8.6761 -1.7367 0.9582
-6.2696 8.3433 -1.7193 0.9586
-10.1326 9.7325 -2.3145 0.9446
-10.5154 9.3158 -2.3143 0.9446
-11.2309 8.4395 -2.3143 0.9446
-11.5616 7.9804 -2.3143 0.9446
-11.8736 7.5084 -2.3143 0.9446
-12.4761 6.5480 -2.3212 0.9445
-12.7805 6.0644 -2.3305 0.9443
-14.3419 4.7881 -2.4909 0.9405
-14.7324 3.6312 -2.4996 0.9403
-14.9789 2.4343 -2.5000 0.9403
-15.0648 1.8292 -2.5000 0.9403
-15.1262 1.2211 -2.5000 0.9403
-13.3006 0.0000 -2.5000 0.9473
-13.2898 -0.5355 -2.5000 0.9473
-13.2574 -1.0702 -2.5000 0.9473
-12.0164 -5.7018 -2.5000 0.9473
-11.5186 -6.6503 -2.5000 0.9473
-10.9461 -7.5556 -2.5000 0.9473
-10.6331 -7.9902 -2.5000 0.9473
-9.9556 -8.8199 -2.5000 0.9473
-9.2136 -9.5924 -2.5000 0.9473
-8.8199 -9.9556 -2.5000 0.9473
-8.4119 -10.3027 -2.5000 0.9473
-6.6503 -11.5186 -2.5000 0.9473
-6.1812 -11.7771 -2.5000 0.9473
-4.7164 -12.4362 -2.5000 0.9473
-4.2119 -12.6161 -2.5000 0.9473
-2.6605 -13.0318 -2.5000 0.9473
-2.1336 -13.1283 -2.5000 0.9473
-1.6016 -13.1901 -2.4974 0.9474
-1.0649 -13.1917 -2.4876 0.9476
-0.5317 -13.1926 -2.4817 0.9477
0.0000 -13.1928 -2.4797 0.9477
0.5316 -13.1922 -2.4816 0.9477
1.0649 -13.1909 -2.4874 0.9476
2.1335 -13.1283 -2.5000 0.9473
2.6604 -13.0318 -2.5000 0.9473
3.7004 -12.7754 -2.5000 0.9473
4.2119 -12.6161 -2.5000 0.9473
4.7164 -12.4362 -2.5000 0.9473
5.7018 -12.0164 -2.5000 0.9473
7.5556 -10.9461 -2.5000 0.9473
7.9902 -10.6330 -2.5000 0.9473
8.4119 -10.3027 -2.5000 0.9473
8.8202 -9.9556 -2.5000 0.9473
9.2137 -9.5924 -2.5000 0.9473
9.5923 -9.2136 -2.5000 0.9473
9.9556 -8.8199 -2.5000 0.9473
10.3027 -8.4119 -2.5000 0.9473
10.6330 -7.9902 -2.5000 0.9473
10.9462 -7.5556 -2.5000 0.9473
11.5186 -6.6503 -2.5000 0.9473
11.7771 -6.1811 -2.5000 0.9473
12.0164 -5.7018 -2.5000 0.9473
12.2362 -5.2133 -2.5000 0.9473
12.4362 -4.7164 -2.5000 0.9473
12.7754 -3.7004 -2.5000 0.9473
13.0318 -2.6605 -2.5000 0.9473
13.1283 -2.1336 -2.5000 0.9473
13.2036 -1.6032 -2.5000 0.9473
13.3006 0.0000 -2.5000 0.9473
13.2036 1.6032 -2.5000 0.9473
12.1268 2.9890 -2.3476 0.9504
11.9966 3.4749 -2.3476 0.9504
11.8470 3.9551 -2.3476 0.9504
11.6781 4.4289 -2.3476 0.9504
11.4903 4.8956 -2.3476 0.9504
9.6307 7.8632 -2.3369 0.9507
9.3093 8.2473 -2.3377 0.9506
8.9468 8.5935 -2.3317 0.9508
8.2543 9.3171 -2.3397 0.9506
7.8738 9.6437 -2.3401 0.9506
4.3807 8.3467 -1.7718 0.9624
3.8970 8.2128 -1.7087 0.9637
3.4991 8.2128 -1.6780 0.9643
1.3374 8.2293 -1.5671 0.9666
1.0047 8.2749 -1.5668 0.9666
0.6658 8.2480 -1.5554 0.9669
-0.0000 8.4194 -1.5825 0.9663
-0.3624 8.9938 -1.6919 0.9640
-0.7770 9.6244 -1.8149 0.9615
-1.1686 9.6243 -1.8223 0.9613
-1.5332 7.5099 -1.4407 0.9693
-2.0698 8.3973 -1.6256 0.9654
-2.8249 7.4486 -1.4973 0.9681
-4.3063 8.2050 -1.7417 0.9630
-4.5702 7.9159 -1.7180 0.9635
-6.2696 8.3433 -1.9616 0.9584
-8.5381 8.8891 -2.3167 0.9511
-9.5409 7.7899 -2.3151 0.9511
-10.5548 6.6745 -2.3473 0.9504
-10.8159 6.2446 -2.3475 0.9504
-11.0590 5.8042 -2.3476 0.9504
-11.6781 4.4289 -2.3476 0.9504
-13.0318 2.6605 -2.5000 0.9473
-13.1283 2.1336 -2.5000 0.9473
-13.2898 0.5356 -2.5000 0.9473
-11.8270 0.0000 -2.5000 0.9528
-11.7886 -0.9517 -2.5000 0.9528
-11.5880 -2.3657 -2.5000 0.9528
-9.7334 -6.7185 -2.5000 0.9528
-9.4550 -7.1050 -2.5000 0.9528
-8.1929 -8.5296 -2.5000 0.9528
-7.4799 -9.1612 -2.5000 0.9528
-6.7185 -9.7334 -2.5000 0.9528
-5.4963 -10.4723 -2.5000 0.9528
-5.0702 -10.6851 -2.5000 0.9528
-4.6358 -10.8806 -2.5000 0.9528
-4.1939 -11.0584 -2.5000 0.9528
-2.3657 -11.5880 -2.5000 0.9528
-1.8972 -11.6738 -2.5000 0.9528
-0.9517 -11.7886 -2.5000 0.9528
-0.4762 -11.8174 -2.5000 0.9528
0.0000 -11.8270 -2.5000 0.9528
1.8972 -11.6738 -2.5000 0.9528
2.3657 -11.5879 -2.5000 0.9528
3.2905 -11.3600 -2.5000 0.9528
4.1939 -11.0584 -2.5000 0.9528
5.4963 -10.4723 -2.5000 0.9528
5.9137 -10.2424 -2.5000 0.9528
6.3212 -9.9960 -2.5000 0.9528
6.7185 -9.7334 -2.5000 0.9528
7.4798 -9.1612 -2.5000 0.9528
7.8428 -8.8526 -2.5000 0.9528
8.1928 -8.5296 -2.5000 0.9528
8.5296 -8.1928 -2.5000 0.9528
9.1613 -7.4799 -2.5000 0.9528
9.4550 -7.1050 -2.5000 0.9528
10.8806 -4.6358 -2.5000 0.9528
11.0584 -4.1939 -2.5000 0.9528
11.2183 -3.7452 -2.5000 0.9528
11.4833 -2.8304 -2.5000 0.9528
11.5879 -2.3657 -2.5000 0.9528
11.6738 -1.8972 -2.5000 0.9528
11.7886 -0.9517 -2.5000 0.9528
11.8174 -0.4762 -2.5000 0.9528
11.8270 0.0000 -2.5000 0.9528
11.7886 0.9517 -2.5000 0.9528
11.0263 2.7177 -2.4005 0.9546
10.3843 3.9382 -2.3476 0.9556
10.2173 4.3532 -2.3476 0.9556
9.6181 5.5530 -2.3476 0.9556
9.3867 5.9358 -2.3476 0.9556
9.1400 6.3089 -2.3476 0.9556
8.8786 6.6718 -2.3476 0.9556
8.5821 7.0071 -2.3419 0.9557
8.2664 7.3234 -2.3344 0.9559
7.6519 7.9665 -2.3349 0.9558
6.9890 8.5600 -2.3359 0.9558
6.0350 8.7432 -2.2457 0.9575
5.1308 8.1137 -2.0292 0.9615
3.4991 8.2128 -1.8870 0.9642
3.1147 8.2128 -1.8567 0.9647
2.5924 8.9501 -1.9696 0.9626
2.2358 9.0711 -1.9748 0.9625
1.3374 8.2293 -1.7623 0.9665
1.0047 8.2749 -1.7620 0.9665
0.6680 8.2749 -1.7548 0.9666
-0.0000 8.4194 -1.7797 0.9662
-0.3595 8.9197 -1.8870 0.9642
-0.7770 9.6245 -2.0410 0.9613
-1.4344 7.0261 -1.5158 0.9711
-2.0226 8.2059 -1.7865 0.9660
-2.7203 8.1482 -1.8158 0.9655
-3.8060 8.0210 -1.8767 0.9644
-4.2089 8.0193 -1.9144 0.9636
-6.2696 8.3433 -2.2060 0.9582
-6.6500 8.1448 -2.2226 0.9579
-7.5938 7.9060 -2.3172 0.9562
-8.2037 7.2679 -2.3167 0.9562
-8.6028 7.0237 -2.3475 0.9556
-8.8786 6.6718 -2.3476 0.9556
-9.1400 6.3089 -2.3476 0.9556
-9.6181 5.5530 -2.3476 0.9556
-9.8339 5.1612 -2.3476 0.9556
-10.0337 4.7610 -2.3476 0.9556
-10.2173 4.3532 -2.3476 0.9556
-10.3843 3.9382 -2.3476 0.9556
-10.5345 3.5169 -2.3476 0.9556
-11.4833 2.8304 -2.5000 0.9528
-11.5880 2.3657 -2.5000 0.9528
-11.7886 0.9517 -2.5000 0.9528
-11.8174 0.4762 -2.5000 0.9528
-10.6372 0.0000 -2.5000 0.9572
-10.6286 -0.4283 -2.5000 0.9572
-10.5596 -1.2822 -2.5000 0.9572
-10.4222 -2.1277 -2.5000 0.9572
-10.3281 -2.5457 -2.5000 0.9572
-10.0898 -3.3684 -2.5000 0.9572
-9.7860 -4.1694 -2.5000 0.9572
-9.2121 -5.3186 -2.5000 0.9572
-8.9905 -5.6852 -2.5000 0.9572
-8.7542 -6.0426 -2.5000 0.9572
-8.5038 -6.3902 -2.5000 0.9572
-8.2396 -6.7274 -2.5000 0.9572
-7.9620 -7.0538 -2.5000 0.9572
-6.7275 -8.2396 -2.5000 0.9572
-6.3902 -8.5038 -2.5000 0.9572
-6.0426 -8.7542 -2.5000 0.9572
-5.6852 -8.9904 -2.5000 0.9572
-5.3186 -9.2121 -2.5000 0.9572
-4.5601 -9.6102 -2.5000 0.9572
-3.3685 -10.0898 -2.5000 0.9572
-2.5456 -10.3281 -2.5000 0.9572
-1.2821 -10.5596 -2.5000 0.9572
-0.8559 -10.6027 -2.5000 0.9572
1.2822 -10.5596 -2.5000 0.9572
2.1277 -10.4222 -2.5000 0.9572
2.5457 -10.3281 -2.5000 0.9572
3.3685 -10.0898 -2.5000 0.9572
4.1694 -9.7860 -2.5000 0.9572
5.3186 -9.2121 -2.5000 0.9572
6.0426 -8.7542 -2.5000 0.9572
6.3902 -8.5038 -2.5000 0.9572
6.7274 -8.2396 -2.5000 0.9572
7.3686 -7.6716 -2.5000 0.9572
7.6716 -7.3686 -2.5000 0.9572
7.9621 -7.0538 -2.5000 0.9572
8.7542 -6.0426 -2.5000 0.9572
9.2121 -5.3186 -2.5000 0.9572
9.6102 -4.5601 -2.5000 0.9572
9.7860 -4.1694 -2.5000 0.9572
10.2172 -2.9594 -2.5000 0.9572
10.3281 -2.5457 -2.5000 0.9572
10.6027 -0.8559 -2.5000 0.9572
10.6286 -0.4283 -2.5000 0.9572
10.6286 0.4283 -2.5000 0.9572
10.6027 0.8559 -2.5000 0.9572
10.5596 1.2822 -2.5000 0.9572
10.4995 1.7063 -2.5000 0.9572
10.3281 2.5457 -2.5000 0.9572
9.3396 3.5421 -2.3476 0.9598
9.1894 3.9153 -2.3476 0.9598
9.0243 4.2821 -2.3476 0.9598
8.8446 4.6420 -2.3476 0.9598
8.4424 5.3387 -2.3476 0.9598
8.2206 5.6743 -2.3476 0.9598
7.9854 6.0007 -2.3476 0.9598
7.4767 6.6238 -2.3476 0.9598
7.2038 6.9194 -2.3476 0.9598
6.5815 7.4289 -2.3326 0.9600
5.6394 8.1701 -2.3332 0.9600
3.8927 9.1364 -2.3340 0.9600
3.5214 9.2851 -2.3339 0.9600
2.7552 8.2530 -2.0449 0.9649
1.7198 8.4241 -2.0207 0.9653
1.3374 8.2293 -1.9594 0.9663
1.0047 8.2749 -1.9591 0.9663
0.3325 8.2500 -1.9405 0.9666
-0.0000 8.4194 -1.9788 0.9660
-1.1687 9.6247 -2.2786 0.9609
-1.3279 8.1709 -1.9455 0.9666
-1.4425 7.0656 -1.6948 0.9708
-2.3084 7.9696 -1.9500 0.9665
-2.6275 7.8701 -1.9500 0.9665
-2.8441 7.4992 -1.8850 0.9676
-3.0124 7.0704 -1.8062 0.9689
-6.5417 7.3840 -2.3185 0.9603
-7.2039 6.9195 -2.3476 0.9598
-7.4767 6.6238 -2.3476 0.9598
-7.7373 6.3173 -2.3476 0.9598
-8.2206 5.6743 -2.3476 0.9598
-8.4424 5.3387 -2.3476 0.9598
-8.6505 4.9944 -2.3476 0.9598
-9.0243 4.2821 -2.3476 0.9598
-9.1895 3.9152 -2.3476 0.9598
-9.4747 3.1631 -2.3476 0.9598
-9.5944 2.7790 -2.3476 0.9598
-10.4222 2.1277 -2.5000 0.9572
-10.4995 1.7063 -2.5000 0.9572
-10.6286 0.4283 -2.5000 0.9572
-9.6555 0.0000 -2.5000 0.9609
-9.5305 -1.5488 -2.5000 0.9609
-9.3749 -2.3107 -2.5000 0.9609
-9.2743 -2.6863 -2.5000 0.9609
-9.1586 -3.0576 -2.5000 0.9609
-9.0281 -3.4239 -2.5000 0.9609
-8.8829 -3.7846 -2.5000 0.9609
-8.5496 -4.4871 -2.5000 0.9609
-8.3619 -4.8278 -2.5000 0.9609
-8.1608 -5.1605 -2.5000 0.9609
-7.9463 -5.4850 -2.5000 0.9609
-7.4792 -6.1066 -2.5000 0.9609
-7.2273 -6.4028 -2.5000 0.9609
-6.6886 -6.9636 -2.5000 0.9609
-6.1066 -7.4792 -2.5000 0.9609
-5.4850 -7.9463 -2.5000 0.9609
-5.1605 -8.1607 -2.5000 0.9609
-4.8278 -8.3619 -2.5000 0.9609
-4.4871 -8.5495 -2.5000 0.9609
-4.1393 -8.7233 -2.5000 0.9609
-3.7846 -8.8829 -2.5000 0.9609
-1.9313 -9.4604 -2.5000 0.9609
0.3888 -9.6477 -2.5000 0.9609
0.7769 -9.6242 -2.5000 0.9609
1.1638 -9.5851 -2.5000 0.9609
2.3107 -9.3749 -2.5000 0.9609
3.0576 -9.1586 -2.5000 0.9609
3.4239 -9.0280 -2.5000 0.9609
3.7846 -8.8829 -2.5000 0.9609
4.1392 -8.7233 -2.5000 0.9609
4.4871 -8.5495 -2.5000 0.9609
5.1605 -8.1607 -2.5000 0.9609
5.4849 -7.9463 -2.5000 0.9609
5.8005 -7.7190 -2.5000 0.9609
6.9636 -6.6886 -2.5000 0.9609
7.2272 -6.4028 -2.5000 0.9609
7.4792 -6.1066 -2.5000 0.9609
8.1608 -5.1605 -2.5000 0.9609
8.3619 -4.8278 -2.5000 0.9609
8.5495 -4.4871 -2.5000 0.9609
9.1586 -3.0576 -2.5000 0.9609
9.5305 -1.5489 -2.5000 0.9609
9.6242 -0.7769 -2.5000 0.9609
9.6477 0.3888 -2.5000 0.9609
9.6242 0.7770 -2.5000 0.9609
9.5851 1.1639 -2.5000 0.9609
9.4604 1.9314 -2.5000 0.9609
9.2743 2.6863 -2.5000 0.9609
8.4777 3.2152 -2.3476 0.9632
8.3414 3.5539 -2.3476 0.9632
8.1915 3.8869 -2.3476 0.9632
7.8522 4.5335 -2.3476 0.9632
7.6632 4.8460 -2.3476 0.9632
7.4619 5.1506 -2.3476 0.9632
6.5391 6.2809 -2.3476 0.9632
4.1836 7.9713 -2.3309 0.9635
3.8594 8.1336 -2.3310 0.9635
3.5289 8.2827 -2.3311 0.9635
3.1925 8.4181 -2.3311 0.9635
2.7680 8.2913 -2.2632 0.9645
2.5047 8.6472 -2.3310 0.9635
2.1544 8.7406 -2.3308 0.9635
1.7198 8.4241 -2.2261 0.9651
1.3374 8.2293 -2.1587 0.9661
1.0024 8.2554 -2.1532 0.9662
0.6680 8.2749 -2.1495 0.9663
0.3325 8.2500 -2.1378 0.9665
-0.0000 8.4194 -2.1799 0.9658
-1.0835 8.9231 -2.3273 0.9635
-1.3278 8.1700 -2.1431 0.9664
-1.4441 7.0736 -1.8692 0.9706
-1.9320 7.8385 -2.0903 0.9672
-2.8441 7.4994 -2.0767 0.9674
-3.0160 7.0788 -1.9923 0.9687
-3.6322 7.6547 -2.1937 0.9656
-4.0012 7.6236 -2.2292 0.9651
-4.3194 7.4813 -2.2367 0.9649
-5.0902 7.3744 -2.3201 0.9637
-6.0125 6.7867 -2.3476 0.9632
-6.2809 6.5391 -2.3476 0.9632
-6.5391 6.2809 -2.3476 0.9632
-6.7867 6.0125 -2.3476 0.9632
-7.0233 5.7343 -2.3476 0.9632
-7.2485 5.4469 -2.3476 0.9632
-7.4619 5.1506 -2.3476 0.9632
-7.6633 4.8460 -2.3476 0.9632
-8.0284 4.2136 -2.3476 0.9632
-8.1915 3.8869 -2.3476 0.9632
-8.4777 3.2152 -2.3476 0.9632
-9.2743 2.6863 -2.5000 0.9609
-9.3749 2.3107 -2.5000 0.9609
-9.5305 1.5489 -2.5000 0.9609
-9.5851 1.1639 -2.5000 0.9609
-8.8238 -0.3556 -2.5000 0.9640
-8.7166 -1.4166 -2.5000 0.9640
-8.6525 -1.7664 -2.5000 0.9640
-8.5744 -2.1134 -2.5000 0.9640
-8.4823 -2.4569 -2.5000 0.9640
-8.2571 -3.1315 -2.5000 0.9640
-7.9783 -3.7858 -2.5000 0.9640
-7.6479 -4.4155 -2.5000 0.9640
-7.2678 -5.0166 -2.5000 0.9640
-7.0599 -5.3051 -2.5000 0.9640
-6.8405 -5.5851 -2.5000 0.9640
-6.1174 -6.3689 -2.5000 0.9640
-5.8560 -6.6101 -2.5000 0.9640
-5.3051 -7.0598 -2.5000 0.9640
-4.7199 -7.4638 -2.5000 0.9640
-4.4155 -7.6478 -2.5000 0.9640
-3.4614 -8.1243 -2.5000 0.9640
-3.1315 -8.2571 -2.5000 0.9640
-2.4569 -8.4823 -2.5000 0.9640
-2.1134 -8.5743 -2.5000 0.9640
-1.4166 -8.7166 -2.5000 0.9640
-0.3556 -8.8238 -2.5000 0.9640
0.7106 -8.8023 -2.5000 0.9640
1.4166 -8.7166 -2.5000 0.9640
2.7965 -8.3765 -2.5000 0.9640
3.1315 -8.2571 -2.5000 0.9640
3.4614 -8.1243 -2.5000 0.9640
4.1039 -7.8194 -2.5000 0.9640
4.4155 -7.6478 -2.5000 0.9640
4.7198 -7.4638 -2.5000 0.9640
5.3051 -7.0599 -2.5000 0.9640
5.5851 -6.8405 -2.5000 0.9640
7.8194 -4.1039 -2.5000 0.9640
8.2571 -3.1315 -2.5000 0.9640
8.5744 -2.1134 -2.5000 0.9640
8.6525 -1.7664 -2.5000 0.9640
8.7666 -1.0644 -2.5000 0.9640
8.8023 0.7106 -2.5000 0.9640
8.7666 1.0645 -2.5000 0.9640
8.6525 1.7664 -2.5000 0.9640
8.5744 2.1134 -2.5000 0.9640
8.4823 2.4569 -2.5000 0.9640
7.4920 3.5550 -2.3476 0.9661
7.1816 4.1463 -2.3476 0.9661
7.0089 4.4321 -2.3476 0.9661
6.6295 4.9817 -2.3476 0.9661
5.2446 6.4235 -2.3476 0.9661
4.9817 6.6295 -2.3476 0.9661
4.7107 6.8247 -2.3476 0.9661
3.5273 7.4337 -2.3293 0.9664
1.9683 7.9857 -2.3284 0.9664
-0.0000 8.2191 -2.3268 0.9664
-0.6611 8.1894 -2.3259 0.9664
-0.9901 8.1544 -2.3254 0.9664
-1.3174 8.1061 -2.3249 0.9664
-1.4457 7.0816 -2.0461 0.9704
-1.8844 7.6453 -2.2291 0.9678
-2.1909 7.5638 -2.2293 0.9678
-2.4986 7.4842 -2.2337 0.9677
-2.8389 7.4855 -2.2664 0.9673
-3.0196 7.0874 -2.1809 0.9685
-3.5158 7.4095 -2.3217 0.9665
-3.8109 7.2611 -2.3215 0.9665
-4.1231 7.1414 -2.3344 0.9663
-4.4320 7.0087 -2.3475 0.9661
-4.7108 6.8247 -2.3476 0.9661
-5.2446 6.4235 -2.3476 0.9661
-6.2071 5.4990 -2.3476 0.9661
-6.6295 4.9817 -2.3476 0.9661
-7.1816 4.1463 -2.3476 0.9661
-7.3428 3.8538 -2.3476 0.9661
-7.4920 3.5550 -2.3476 0.9661
-7.6291 3.2504 -2.3476 0.9661
-8.4823 2.4569 -2.5000 0.9640
-8.5744 2.1134 -2.5000 0.9640
-8.8238 0.3556 -2.5000 0.9640
-8.1280 0.0000 -2.5000 0.9666
-8.1214 -0.3273 -2.5000 0.9666
-8.0687 -0.9797 -2.5000 0.9666
-8.0227 -1.3038 -2.5000 0.9666
-7.8071 -2.2613 -2.5000 0.9666
-7.5998 -2.8822 -2.5000 0.9666
-7.4776 -3.1859 -2.5000 0.9666
-7.3432 -3.4844 -2.5000 0.9666
-7.0390 -4.0640 -2.5000 0.9666
-6.4978 -4.8828 -2.5000 0.9666
-5.6304 -5.8619 -2.5000 0.9666
-4.3441 -6.8697 -2.5000 0.9666
-4.0640 -7.0390 -2.5000 0.9666
-3.7773 -7.1969 -2.5000 0.9666
-3.1859 -7.4775 -2.5000 0.9666
-2.5739 -7.7097 -2.5000 0.9666
-2.2613 -7.8071 -2.5000 0.9666
-1.9451 -7.8918 -2.5000 0.9666
-1.6258 -7.9637 -2.5000 0.9666
-0.9797 -8.0687 -2.5000 0.9666
-0.6540 -8.1016 -2.5000 0.9666
1.6258 -7.9637 -2.5000 0.9666
1.9451 -7.8918 -2.5000 0.9666
3.1859 -7.4775 -2.5000 0.9666
3.4844 -7.3432 -2.5000 0.9666
4.0640 -7.0390 -2.5000 0.9666
4.8828 -6.4978 -2.5000 0.9666
5.3898 -6.0838 -2.5000 0.9666
5.6304 -5.8619 -2.5000 0.9666
5.8619 -5.6304 -2.5000 0.9666
6.0839 -5.3898 -2.5000 0.9666
6.2960 -5.1405 -2.5000 0.9666
7.3432 -3.4844 -2.5000 0.9666
7.8071 -2.2613 -2.5000 0.9666
7.8918 -1.9451 -2.5000 0.9666
7.9637 -1.6258 -2.5000 0.9666
8.0227 -1.3038 -2.5000 0.9666
8.1016 -0.6540 -2.5000 0.9666
7.8918 1.9452 -2.5000 0.9666
7.7096 2.5739 -2.5000 0.9666
7.0217 2.9917 -2.3476 0.9686
6.8956 3.2720 -2.3476 0.9686
6.6099 3.8162 -2.3476 0.9686
6.2814 4.3358 -2.3476 0.9686
6.1017 4.5852 -2.3476 0.9686
5.9121 4.8271 -2.3476 0.9686
5.2872 5.5046 -2.3476 0.9686
5.0613 5.7130 -2.3476 0.9686
4.8271 5.9122 -2.3476 0.9686
4.5851 6.1017 -2.3476 0.9686
4.3357 6.2814 -2.3476 0.9686
3.8162 6.6099 -2.3476 0.9686
3.2720 6.8956 -2.3476 0.9686
2.9872 7.0113 -2.3441 0.9686
0.6086 7.5382 -2.3261 0.9688
0.3045 7.5555 -2.3258 0.9689
-0.0000 7.5606 -2.3255 0.9689
-0.6082 7.5340 -2.3248 0.9689
-0.9109 7.5024 -2.3245 0.9689
-1.2121 7.4586 -2.3242 0.9689
-1.4474 7.0898 -2.2256 0.9702
-1.8079 7.3350 -2.3236 0.9689
-2.3942 7.1717 -2.3255 0.9689
-2.9899 7.0176 -2.3462 0.9686
-3.2720 6.8956 -2.3476 0.9686
-3.5470 6.7582 -2.3476 0.9686
-3.8162 6.6099 -2.3476 0.9686
-4.8271 5.9122 -2.3476 0.9686
-5.0613 5.7130 -2.3476 0.9686
-5.2872 5.5046 -2.3476 0.9686
-5.5046 5.2872 -2.3476 0.9686
-5.7130 5.0613 -2.3476 0.9686
-5.3995 3.4145 -1.9650 0.9736
-6.7582 3.5470 -2.3476 0.9686
-7.9637 1.6258 -2.5000 0.9666
-8.0227 1.3038 -2.5000 0.9666
-8.1214 0.3273 -2.5000 0.9666
-7.5148 -0.3028 -2.5000 0.9688
-7.4660 -0.9065 -2.5000 0.9688
-7.3689 -1.5044 -2.5000 0.9688
-7.3023 -1.7999 -2.5000 0.9688
-7.2239 -2.0924 -2.5000 0.9688
-7.1338 -2.3816 -2.5000 0.9688
-7.0321 -2.6669 -2.5000 0.9688
-6.9191 -2.9479 -2.5000 0.9688
-6.7948 -3.2241 -2.5000 0.9688
-6.1896 -4.2724 -2.5000 0.9688
-5.8257 -4.7565 -2.5000 0.9688
-5.6295 -4.9873 -2.5000 0.9688
-5.4241 -5.2099 -2.5000 0.9688
-4.9873 -5.6295 -2.5000 0.9688
-4.7565 -5.8257 -2.5000 0.9688
-4.2724 -6.1896 -2.5000 0.9688
-4.0197 -6.3566 -2.5000 0.9688
-3.7604 -6.5133 -2.5000 0.9688
-3.4951 -6.6594 -2.5000 0.9688
-3.2241 -6.7947 -2.5000 0.9688
-2.9479 -6.9191 -2.5000 0.9688
-2.6669 -7.0321 -2.5000 0.9688
-2.3816 -7.1338 -2.5000 0.9688
-1.7999 -7.3023 -2.5000 0.9688
-1.5044 -7.3689 -2.5000 0.9688
-0.3029 -7.5148 -2.5000 0.9688
0.0000 -7.5209 -2.5000 0.9688
0.3028 -7.5148 -2.5000 0.9688
0.9066 -7.4660 -2.5000 0.9688
2.0925 -7.2239 -2.5000 0.9688
2.3816 -7.1338 -2.5000 0.9688
2.6669 -7.0321 -2.5000 0.9688
3.2241 -6.7947 -2.5000 0.9688
3.7604 -6.5133 -2.5000 0.9688
4.0196 -6.3566 -2.5000 0.9688
4.7565 -5.8257 -2.5000 0.9688
4.9873 -5.6295 -2.5000 0.9688
5.8257 -4.7565 -2.5000 0.9688
6.0125 -4.5181 -2.5000 0.9688
6.1896 -4.2723 -2.5000 0.9688
6.5133 -3.7604 -2.5000 0.9688
6.6594 -3.4951 -2.5000 0.9688
6.9190 -2.9479 -2.5000 0.9688
7.1338 -2.3816 -2.5000 0.9688
7.3023 -1.7999 -2.5000 0.9688
7.3689 -1.5044 -2.5000 0.9688
7.4660 -0.9065 -2.5000 0.9688
7.5148 -0.3028 -2.5000 0.9688
7.5209 0.0000 -2.5000 0.9688
6.4973 2.7682 -2.3476 0.9707
6.3805 3.0276 -2.3476 0.9707
6.2535 3.2821 -2.3476 0.9707
6.1162 3.5312 -2.3476 0.9707
5.9691 3.7746 -2.3476 0.9707
5.6460 4.2427 -2.3476 0.9707
5.4706 4.4666 -2.3476 0.9707
5.2863 4.6833 -2.3476 0.9707
4.4666 5.4706 -2.3476 0.9707
4.2427 5.6460 -2.3476 0.9707
4.0119 5.8123 -2.3476 0.9707
3.7746 5.9691 -2.3476 0.9707
3.5312 6.1162 -2.3476 0.9707
3.2821 6.2535 -2.3476 0.9707
3.0276 6.3805 -2.3476 0.9707
2.5044 6.6035 -2.3476 0.9707
2.2364 6.6990 -2.3476 0.9707
1.6902 6.8572 -2.3476 0.9707
0.5673 7.0273 -2.3435 0.9707
0.2837 7.0407 -2.3423 0.9707
-0.5674 7.0285 -2.3439 0.9707
-1.4127 6.9197 -2.3476 0.9707
-1.6901 6.8572 -2.3476 0.9707
-1.9649 6.7836 -2.3476 0.9707
-2.5044 6.6035 -2.3476 0.9707
-2.7682 6.4973 -2.3476 0.9707
-3.0276 6.3806 -2.3476 0.9707
-3.2821 6.2535 -2.3476 0.9707
-3.5312 6.1162 -2.3476 0.9707
-3.7746 5.9691 -2.3476 0.9707
-4.2427 5.6460 -2.3476 0.9707
-4.4666 5.4706 -2.3476 0.9707
-4.8923 5.0934 -2.3476 0.9707
-5.0934 4.8923 -2.3476 0.9707
-5.2863 4.6833 -2.3476 0.9707
-5.4706 4.4666 -2.3476 0.9707
-5.6460 4.2427 -2.3476 0.9707
-5.8122 4.0119 -2.3476 0.9707
-6.1162 3.5312 -2.3476 0.9707
-6.2535 3.2821 -2.3476 0.9707
-6.3805 3.0276 -2.3476 0.9707
-6.4973 2.7682 -2.3476 0.9707
-7.1338 2.3816 -2.5000 0.9688
-7.2240 2.0924 -2.5000 0.9688
-7.3023 1.7999 -2.5000 0.9688
-7.4235 1.2065 -2.5000 0.9688
-6.9852 -0.2815 -2.5000 0.9707
-6.9399 -0.8426 -2.5000 0.9707
-6.7877 -1.6730 -2.5000 0.9707
-6.7149 -1.9450 -2.5000 0.9707
-6.6311 -2.2138 -2.5000 0.9707
-6.5366 -2.4790 -2.5000 0.9707
-6.1901 -3.2488 -2.5000 0.9707
-6.0543 -3.4954 -2.5000 0.9707
-5.7534 -3.9713 -2.5000 0.9707
-5.4152 -4.4213 -2.5000 0.9707
-5.2327 -4.6358 -2.5000 0.9707
-4.8428 -5.0418 -2.5000 0.9707
-4.4214 -5.4152 -2.5000 0.9707
-4.1997 -5.5888 -2.5000 0.9707
-3.9713 -5.7534 -2.5000 0.9707
-3.4954 -6.0543 -2.5000 0.9707
-3.2488 -6.1901 -2.5000 0.9707
-2.2138 -6.6311 -2.5000 0.9707
-1.9450 -6.7148 -2.5000 0.9707
-1.3983 -6.8496 -2.5000 0.9707
-1.1214 -6.9003 -2.5000 0.9707
-0.5625 -6.9682 -2.5000 0.9707
-0.0000 -6.9909 -2.5000 0.9707
0.2815 -6.9852 -2.5000 0.9707
0.5625 -6.9682 -2.5000 0.9707
0.8426 -6.9399 -2.5000 0.9707
1.1214 -6.9003 -2.5000 0.9707
1.3983 -6.8496 -2.5000 0.9707
1.6730 -6.7877 -2.5000 0.9707
1.9450 -6.7148 -2.5000 0.9707
2.4790 -6.5366 -2.5000 0.9707
2.7402 -6.4314 -2.5000 0.9707
2.9969 -6.3159 -2.5000 0.9707
3.2488 -6.1901 -2.5000 0.9707
3.4954 -6.0543 -2.5000 0.9707
3.7364 -5.9086 -2.5000 0.9707
3.9713 -5.7534 -2.5000 0.9707
4.8427 -5.0418 -2.5000 0.9707
6.0543 -3.4954 -2.5000 0.9707
6.3159 -2.9969 -2.5000 0.9707
6.5366 -2.4790 -2.5000 0.9707
6.7149 -1.9450 -2.5000 0.9707
6.7877 -1.6730 -2.5000 0.9707
6.9399 -0.8426 -2.5000 0.9707
6.9909 0.0000 -2.5000 0.9707
6.9852 0.2815 -2.5000 0.9707
6.8496 1.3984 -2.5000 0.9707
6.5366 2.4790 -2.5000 0.9707
6.3456 2.7036 -2.4666 0.9711
5.9309 2.8142 -2.3476 0.9725
5.8128 3.0508 -2.3476 0.9725
5.6852 3.2824 -2.3476 0.9725
5.5484 3.5086 -2.3476 0.9725
5.4026 3.7292 -2.3476 0.9725
5.2481 3.9437 -2.3476 0.9725
5.0850 4.1518 -2.3476 0.9725
4.9137 4.3532 -2.3476 0.9725
4.1518 5.0851 -2.3476 0.9725
3.9437 5.2481 -2.3476 0.9725
3.7292 5.4026 -2.3476 0.9725
3.2823 5.6852 -2.3476 0.9725
2.5731 6.0394 -2.3476 0.9725
2.3279 6.1381 -2.3476 0.9725
2.0788 6.2269 -2.3476 0.9725
1.8264 6.3055 -2.3476 0.9725
1.5710 6.3739 -2.3476 0.9725
1.3131 6.4320 -2.3476 0.9725
1.0531 6.4797 -2.3476 0.9725
0.5282 6.5434 -2.3476 0.9725
0.2643 6.5594 -2.3476 0.9725
-0.0000 6.5647 -2.3476 0.9725
-0.2643 6.5594 -2.3476 0.9725
-1.0531 6.4797 -2.3476 0.9725
-1.3131 6.4320 -2.3476 0.9725
-1.5711 6.3739 -2.3476 0.9725
-2.8142 5.9309 -2.3476 0.9725
-3.9437 5.2481 -2.3476 0.9725
-4.3532 4.9138 -2.3476 0.9725
-4.5475 4.7345 -2.3476 0.9725
-4.7345 4.5475 -2.3476 0.9725
-5.0851 4.1518 -2.3476 0.9725
-5.2701 3.3326 -2.2298 0.9739
-5.8128 3.0508 -2.3476 0.9725
-6.7149 1.9450 -2.5000 0.9707
-6.8496 1.3984 -2.5000 0.9707
-6.9003 1.1214 -2.5000 0.9707
-3.5921 -0.4361 -1.3867 0.9846
-6.3341 -1.5612 -2.5000 0.9724
-6.1879 -2.0658 -2.5000 0.9724
-5.8938 -2.7966 -2.5000 0.9724
-5.7764 -3.0317 -2.5000 0.9724
-5.3689 -3.7059 -2.5000 0.9724
-5.2153 -3.9190 -2.5000 0.9724
-5.0532 -4.1258 -2.5000 0.9724
-4.7049 -4.5191 -2.5000 0.9724
-4.1259 -5.0533 -2.5000 0.9724
-3.9190 -5.2153 -2.5000 0.9724
-3.7059 -5.3688 -2.5000 0.9724
-3.2618 -5.6496 -2.5000 0.9724
-2.7966 -5.8938 -2.5000 0.9724
-2.5571 -6.0016 -2.5000 0.9724
-2.0658 -6.1879 -2.5000 0.9724
-1.8150 -6.2661 -2.5000 0.9724
-1.3049 -6.3918 -2.5000 0.9724
-1.0465 -6.4392 -2.5000 0.9724
-0.7863 -6.4761 -2.5000 0.9724
-0.5250 -6.5025 -2.5000 0.9724
-0.2627 -6.5184 -2.5000 0.9724
0.0000 -6.5237 -2.5000 0.9724
0.7863 -6.4761 -2.5000 0.9724
1.0465 -6.4392 -2.5000 0.9724
1.3049 -6.3918 -2.5000 0.9724
2.0658 -6.1879 -2.5000 0.9724
2.3133 -6.0997 -2.5000 0.9724
2.5571 -6.0016 -2.5000 0.9724
3.7059 -5.3689 -2.5000 0.9724
4.7049 -4.5191 -2.5000 0.9724
4.8830 -4.3260 -2.5000 0.9724
5.0533 -4.1259 -2.5000 0.9724
5.2153 -3.9190 -2.5000 0.9724
5.5137 -3.4867 -2.5000 0.9724
5.6496 -3.2618 -2.5000 0.9724
6.0016 -2.5570 -2.5000 0.9724
6.1879 -2.0658 -2.5000 0.9724
6.2661 -1.8150 -2.5000 0.9724
6.3341 -1.5612 -2.5000 0.9724
6.5183 -0.2627 -2.5000 0.9724
6.5236 0.0000 -2.5000 0.9724
6.5184 0.2627 -2.5000 0.9724
6.3918 1.3049 -2.5000 0.9724
6.3341 1.5612 -2.5000 0.9724
6.2661 1.8150 -2.5000 0.9724
6.1879 2.0658 -2.5000 0.9724
6.0016 2.5571 -2.5000 0.9724
5.7140 2.7113 -2.4237 0.9733
5.4244 2.8469 -2.3476 0.9741
5.0416 3.4800 -2.3476 0.9741
4.7452 3.8744 -2.3476 0.9741
4.2436 4.4181 -2.3476 0.9741
4.0623 4.5854 -2.3476 0.9741
3.6801 4.8974 -2.3476 0.9741
3.4800 5.0416 -2.3476 0.9741
3.2741 5.1776 -2.3476 0.9741
3.0630 5.3053 -2.3476 0.9741
2.8469 5.4243 -2.3476 0.9741
2.4012 5.6358 -2.3476 0.9741
1.7044 5.8841 -2.3476 0.9741
1.4660 5.9480 -2.3476 0.9741
1.2253 6.0022 -2.3476 0.9741
0.7384 6.0813 -2.3476 0.9741
-0.0000 6.1260 -2.3476 0.9741
-0.2467 6.1210 -2.3476 0.9741
-0.7384 6.0813 -2.3476 0.9741
-0.9827 6.0467 -2.3476 0.9741
-1.2254 6.0022 -2.3476 0.9741
-1.4661 5.9480 -2.3476 0.9741
-1.9399 5.8107 -2.3476 0.9741
-2.6262 5.5345 -2.3476 0.9741
-2.8469 5.4243 -2.3476 0.9741
-3.0630 5.3053 -2.3476 0.9741
-3.2741 5.1776 -2.3476 0.9741
-3.4800 5.0416 -2.3476 0.9741
-3.6801 4.8974 -2.3476 0.9741
-4.0623 4.5854 -2.3476 0.9741
-4.2436 4.4181 -2.3476 0.9741
-4.8974 3.6801 -2.3476 0.9741
-5.1529 3.2585 -2.3364 0.9742
-5.4243 2.8469 -2.3476 0.9741
-5.7057 2.7074 -2.4202 0.9733
-6.0997 2.3133 -2.5000 0.9724
-6.1879 2.0658 -2.5000 0.9724
-6.3918 1.3049 -2.5000 0.9724
-6.4392 1.0465 -2.5000 0.9724
-3.5921 0.4362 -1.3867 0.9846
-3.5589 0.1434 -1.3649 0.9849
-2.8160 0.0000 -1.1525 0.9879
-2.8096 -0.2268 -1.1536 0.9879
-3.0246 -0.4915 -1.2541 0.9868
-3.0070 -0.6139 -1.2561 0.9868
-5.8672 -1.6994 -2.5000 0.9739
-5.5186 -2.6186 -2.5000 0.9739
-5.4087 -2.8387 -2.5000 0.9739
-5.2900 -3.0542 -2.5000 0.9739
-4.8833 -3.6695 -2.5000 0.9739
-4.5722 -4.0506 -2.5000 0.9739
-4.4054 -4.2314 -2.5000 0.9739
-4.2314 -4.4053 -2.5000 0.9739
-3.8632 -4.7315 -2.5000 0.9739
-3.6695 -4.8832 -2.5000 0.9739
-3.2647 -5.1627 -2.5000 0.9739
-3.0542 -5.2900 -2.5000 0.9739
-2.8387 -5.4087 -2.5000 0.9739
-1.9343 -5.7940 -2.5000 0.9739
-1.6995 -5.8672 -2.5000 0.9739
-1.4618 -5.9308 -2.5000 0.9739
-0.9799 -6.0292 -2.5000 0.9739
-0.7363 -6.0638 -2.5000 0.9739
-0.4915 -6.0885 -2.5000 0.9739
-0.2460 -6.1034 -2.5000 0.9739
0.4915 -6.0885 -2.5000 0.9739
0.7363 -6.0638 -2.5000 0.9739
0.9798 -6.0292 -2.5000 0.9739
1.2218 -5.9849 -2.5000 0.9739
1.4618 -5.9308 -2.5000 0.9739
1.6994 -5.8672 -2.5000 0.9739
1.9343 -5.7940 -2.5000 0.9739
2.1660 -5.7114 -2.5000 0.9739
2.3942 -5.6195 -2.5000 0.9739
2.6186 -5.5186 -2.5000 0.9739
2.8387 -5.4086 -2.5000 0.9739
3.6695 -4.8832 -2.5000 0.9739
3.8632 -4.7315 -2.5000 0.9739
4.2314 -4.4053 -2.5000 0.9739
4.4053 -4.2314 -2.5000 0.9739
4.8833 -3.6695 -2.5000 0.9739
5.2900 -3.0542 -2.5000 0.9739
5.5186 -2.6186 -2.5000 0.9739
5.6195 -2.3942 -2.5000 0.9739
5.7114 -2.1660 -2.5000 0.9739
5.9308 -1.4618 -2.5000 0.9739
6.0638 -0.7363 -2.5000 0.9739
6.0885 -0.4915 -2.5000 0.9739
6.1034 -0.2459 -2.5000 0.9739
6.1034 0.2460 -2.5000 0.9739
6.0885 0.4915 -2.5000 0.9739
6.0638 0.7363 -2.5000 0.9739
6.0292 0.9799 -2.5000 0.9739
5.8672 1.6994 -2.5000 0.9739
5.6195 2.3943 -2.5000 0.9739
5.5186 2.6186 -2.5000 0.9739
5.1765 2.7168 -2.3927 0.9750
4.9675 2.8680 -2.3476 0.9755
4.5856 3.4458 -2.3476 0.9755
4.2934 3.8037 -2.3476 0.9755
3.4458 4.5856 -2.3476 0.9755
3.2584 4.7206 -2.3476 0.9755
3.0657 4.8480 -2.3476 0.9755
2.6656 5.0789 -2.3476 0.9755
2.4590 5.1822 -2.3476 0.9755
2.0340 5.3632 -2.3476 0.9755
1.3727 5.5693 -2.3476 0.9755
0.9201 5.6617 -2.3476 0.9755
0.6914 5.6942 -2.3476 0.9755
0.2310 5.7313 -2.3476 0.9755
-0.0000 5.7360 -2.3476 0.9755
-0.4616 5.7174 -2.3476 0.9755
-0.6914 5.6941 -2.3476 0.9755
-1.1473 5.6200 -2.3476 0.9755
-1.3727 5.5693 -2.3476 0.9755
-1.8164 5.4408 -2.3476 0.9755
-2.0340 5.3632 -2.3476 0.9755
-2.2483 5.2770 -2.3476 0.9755
-3.2584 4.7206 -2.3476 0.9755
-3.4458 4.5856 -2.3476 0.9755
-3.8036 4.2934 -2.3476 0.9755
-3.9734 4.1368 -2.3476 0.9755
-4.7206 3.2584 -2.3476 0.9755
-4.8480 3.0657 -2.3476 0.9755
-5.1697 2.7133 -2.3895 0.9751
-5.5186 2.6186 -2.5000 0.9739
-5.7940 1.9343 -2.5000 0.9739
-5.9308 1.4618 -2.5000 0.9739
-2.8096 0.2268 -1.1536 0.9879
-2.8203 0.1137 -1.1552 0.9879
-2.3649 -0.1909 -1.0340 0.9897
-2.4021 -0.3904 -1.0606 0.9894
-2.4207 -0.4942 -1.0767 0.9893
-5.5696 -1.3728 -2.5000 0.9753
-5.3636 -2.0341 -2.5000 0.9753
-5.2773 -2.2484 -2.5000 0.9753
-5.1825 -2.4591 -2.5000 0.9753
-5.0793 -2.6658 -2.5000 0.9753
-4.8483 -3.0659 -2.5000 0.9753
-4.7209 -3.2586 -2.5000 0.9753
-4.1371 -3.9737 -2.5000 0.9753
-3.9737 -4.1371 -2.5000 0.9753
-3.8039 -4.2937 -2.5000 0.9753
-3.4461 -4.5859 -2.5000 0.9753
-3.2586 -4.7209 -2.5000 0.9753
-2.8682 -4.9678 -2.5000 0.9753
-2.6658 -5.0792 -2.5000 0.9753
-2.4591 -5.1825 -2.5000 0.9753
-2.2484 -5.2773 -2.5000 0.9753
-1.8165 -5.4411 -2.5000 0.9753
-1.5960 -5.5098 -2.5000 0.9753
-0.6914 -5.6945 -2.5000 0.9753
-0.4616 -5.7177 -2.5000 0.9753
-0.2310 -5.7317 -2.5000 0.9753
-0.0000 -5.7363 -2.5000 0.9753
0.4616 -5.7177 -2.5000 0.9753
0.6914 -5.6945 -2.5000 0.9753
1.1474 -5.6204 -2.5000 0.9753
1.5959 -5.5098 -2.5000 0.9753
1.8165 -5.4411 -2.5000 0.9753
2.6658 -5.0792 -2.5000 0.9753
2.8682 -4.9678 -2.5000 0.9753
3.0659 -4.8483 -2.5000 0.9753
3.4461 -4.5859 -2.5000 0.9753
3.8039 -4.2937 -2.5000 0.9753
4.1371 -3.9737 -2.5000 0.9753
4.2937 -3.8039 -2.5000 0.9753
4.4434 -3.6279 -2.5000 0.9753
4.5859 -3.4460 -2.5000 0.9753
4.7209 -3.2586 -2.5000 0.9753
4.8483 -3.0659 -2.5000 0.9753
5.2773 -2.2484 -2.5000 0.9753
5.4411 -1.8165 -2.5000 0.9753
5.6945 -0.6914 -2.5000 0.9753
5.7177 -0.4616 -2.5000 0.9753
5.7363 0.0000 -2.5000 0.9753
5.7317 0.2310 -2.5000 0.9753
5.7177 0.4616 -2.5000 0.9753
5.6945 0.6915 -2.5000 0.9753
5.6620 0.9202 -2.5000 0.9753
5.6204 1.1474 -2.5000 0.9753
5.4411 1.8165 -2.5000 0.9753
5.3635 2.0341 -2.5000 0.9753
5.1825 2.4591 -2.5000 0.9753
4.7123 2.7206 -2.3714 0.9765
4.5621 2.8849 -2.3524 0.9767
4.4331 3.0600 -2.3476 0.9768
4.3063 3.2360 -2.3476 0.9768
4.1725 3.4067 -2.3476 0.9768
4.0320 3.5720 -2.3476 0.9768
3.7314 3.8849 -2.3476 0.9768
3.4067 4.1725 -2.3476 0.9768
3.2360 4.3063 -2.3476 0.9768
3.0599 4.4331 -2.3476 0.9768
2.6933 4.6650 -2.3476 0.9768
2.1114 4.9556 -2.3476 0.9768
1.9101 5.0366 -2.3476 0.9768
1.7058 5.1094 -2.3476 0.9768
1.4986 5.1740 -2.3476 0.9768
1.2891 5.2301 -2.3476 0.9768
0.8641 5.3169 -2.3476 0.9768
0.6493 5.3474 -2.3476 0.9768
-0.4334 5.3692 -2.3476 0.9768
-0.6493 5.3474 -2.3476 0.9768
-0.8641 5.3169 -2.3476 0.9768
-1.0775 5.2778 -2.3476 0.9768
-1.2891 5.2301 -2.3476 0.9768
-1.4987 5.1740 -2.3476 0.9768
-1.7058 5.1094 -2.3476 0.9768
-1.9101 5.0366 -2.3476 0.9768
-2.3092 4.8666 -2.3476 0.9768
-2.5033 4.7696 -2.3476 0.9768
-2.6933 4.6650 -2.3476 0.9768
-2.8790 4.5527 -2.3476 0.9768
-3.4068 4.1725 -2.3476 0.9768
-3.8849 3.7315 -2.3476 0.9768
-4.0320 3.5720 -2.3476 0.9768
-4.5589 2.8829 -2.3508 0.9767
-4.7065 2.7174 -2.3685 0.9766
-5.0793 2.6658 -2.5000 0.9753
-5.1825 2.4591 -2.5000 0.9753
-5.2773 2.2484 -2.5000 0.9753
-5.5098 1.5959 -2.5000 0.9753
-5.5696 1.3728 -2.5000 0.9753
-2.3794 0.2889 -1.0446 0.9896
-2.3670 0.0954 -1.0324 0.9897
-2.2030 0.0000 -1.0198 0.9903
-2.2080 -0.2681 -1.0295 0.9902
-2.2302 -0.3624 -1.0459 0.9901
-2.2466 -0.4586 -1.0614 0.9899
-2.3851 -0.5879 -1.1371 0.9892
-5.1877 -1.5026 -2.5000 0.9765
-4.9687 -2.1170 -2.5000 0.9765
-4.8794 -2.3153 -2.5000 0.9765
-4.7822 -2.5099 -2.5000 0.9765
-4.5648 -2.8866 -2.5000 0.9765
-4.3177 -3.2445 -2.5000 0.9765
-4.0426 -3.5814 -2.5000 0.9765
-3.8951 -3.7413 -2.5000 0.9765
-3.0681 -4.4448 -2.5000 0.9765
-2.7004 -4.6773 -2.5000 0.9765
-2.5099 -4.7822 -2.5000 0.9765
-1.5026 -5.1876 -2.5000 0.9765
-1.2925 -5.2439 -2.5000 0.9765
-1.0803 -5.2917 -2.5000 0.9765
-0.8664 -5.3309 -2.5000 0.9765
-0.6510 -5.3615 -2.5000 0.9765
-0.2175 -5.3965 -2.5000 0.9765
0.0000 -5.4009 -2.5000 0.9765
0.4346 -5.3833 -2.5000 0.9765
0.8664 -5.3309 -2.5000 0.9765
1.0803 -5.2917 -2.5000 0.9765
1.2925 -5.2439 -2.5000 0.9765
1.5027 -5.1876 -2.5000 0.9765
1.9152 -5.0499 -2.5000 0.9765
2.1170 -4.9687 -2.5000 0.9765
2.3153 -4.8794 -2.5000 0.9765
2.8866 -4.5648 -2.5000 0.9765
3.2445 -4.3177 -2.5000 0.9765
3.4158 -4.1835 -2.5000 0.9765
3.7413 -3.8951 -2.5000 0.9765
3.8951 -3.7413 -2.5000 0.9765
4.4448 -3.0680 -2.5000 0.9765
4.5648 -2.8866 -2.5000 0.9765
4.6773 -2.7004 -2.5000 0.9765
4.8794 -2.3153 -2.5000 0.9765
4.9687 -2.1170 -2.5000 0.9765
5.1229 -1.7103 -2.5000 0.9765
5.1876 -1.5026 -2.5000 0.9765
5.2917 -1.0803 -2.5000 0.9765
5.3309 -0.8663 -2.5000 0.9765
5.3615 -0.6510 -2.5000 0.9765
5.3834 -0.4346 -2.5000 0.9765
5.3965 0.2175 -2.5000 0.9765
5.3615 0.6510 -2.5000 0.9765
5.1876 1.5026 -2.5000 0.9765
5.1230 1.7103 -2.5000 0.9765
4.8794 2.3153 -2.5000 0.9765
4.0545 3.0467 -2.3476 0.9779
3.9285 3.2075 -2.3476 0.9779
3.7962 3.3631 -2.3476 0.9779
3.6577 3.5132 -2.3476 0.9779
3.5132 3.6577 -2.3476 0.9779
3.3631 3.7962 -2.3476 0.9779
3.0467 4.0545 -2.3476 0.9779
2.8810 4.1739 -2.3476 0.9779
2.7106 4.2865 -2.3476 0.9779
2.5358 4.3922 -2.3476 0.9779
2.3569 4.4907 -2.3476 0.9779
1.9879 4.6658 -2.3476 0.9779
1.0145 4.9692 -2.3476 0.9779
0.8136 5.0060 -2.3476 0.9779
0.2042 5.0675 -2.3476 0.9779
0.0000 5.0716 -2.3476 0.9779
-0.6113 5.0347 -2.3476 0.9779
-1.0144 4.9691 -2.3476 0.9779
-1.2137 4.9243 -2.3476 0.9779
-1.6060 4.8107 -2.3476 0.9779
-1.9879 4.6658 -2.3476 0.9779
-2.1742 4.5820 -2.3476 0.9779
-3.0468 4.0545 -2.3476 0.9779
-3.2075 3.9285 -2.3476 0.9779
-3.9285 3.2075 -2.3476 0.9779
-4.0545 3.0467 -2.3476 0.9779
-4.1781 2.8839 -2.3499 0.9779
-4.3062 2.7230 -2.3583 0.9778
-4.6663 2.6941 -2.4941 0.9765
-4.7822 2.5099 -2.5000 0.9765
-4.8794 2.3153 -2.5000 0.9765
-5.1230 1.7103 -2.5000 0.9765
-2.3851 0.5879 -1.1371 0.9892
-2.2080 0.2681 -1.0295 0.9902
-2.0590 0.0000 -1.0100 0.9909
-2.0750 -0.3372 -1.0312 0.9907
-2.0897 -0.4266 -1.0462 0.9905
-2.1007 -0.5178 -1.0613 0.9904
-2.9436 -0.8526 -1.5032 0.9864
-4.8343 -1.6139 -2.5000 0.9775
-4.7654 -1.8073 -2.5000 0.9775
-4.6887 -1.9977 -2.5000 0.9775
-4.6045 -2.1849 -2.5000 0.9775
-4.5128 -2.3685 -2.5000 0.9775
-4.4137 -2.5483 -2.5000 0.9775
-3.9478 -3.2233 -2.5000 0.9775
-3.8148 -3.3796 -2.5000 0.9775
-3.6757 -3.5305 -2.5000 0.9775
-3.5305 -3.6757 -2.5000 0.9775
-2.8952 -4.1944 -2.5000 0.9775
-1.8073 -4.7654 -2.5000 0.9775
-1.2197 -4.9485 -2.5000 0.9775
-1.0194 -4.9936 -2.5000 0.9775
-0.4101 -5.0800 -2.5000 0.9775
-0.0000 -5.0966 -2.5000 0.9775
0.2052 -5.0924 -2.5000 0.9775
0.4101 -5.0800 -2.5000 0.9775
1.0194 -4.9936 -2.5000 0.9775
1.2197 -4.9485 -2.5000 0.9775
1.4179 -4.8953 -2.5000 0.9775
1.8073 -4.7654 -2.5000 0.9775
1.9977 -4.6887 -2.5000 0.9775
2.1849 -4.6045 -2.5000 0.9775
2.3685 -4.5128 -2.5000 0.9775
2.7239 -4.3076 -2.5000 0.9775
2.8952 -4.1944 -2.5000 0.9775
3.0617 -4.0744 -2.5000 0.9775
3.3797 -3.8148 -2.5000 0.9775
3.8148 -3.3796 -2.5000 0.9775
4.0744 -3.0617 -2.5000 0.9775
4.1944 -2.8952 -2.5000 0.9775
4.3076 -2.7239 -2.5000 0.9775
4.4137 -2.5483 -2.5000 0.9775
4.5128 -2.3685 -2.5000 0.9775
4.6045 -2.1848 -2.5000 0.9775
4.6887 -1.9977 -2.5000 0.9775
4.9485 -1.2197 -2.5000 0.9775
4.9936 -1.0194 -2.5000 0.9775
5.0594 -0.6143 -2.5000 0.9775
5.0924 -0.2052 -2.5000 0.9775
5.0966 0.0000 -2.5000 0.9775
5.0924 0.2052 -2.5000 0.9775
4.9936 1.0195 -2.5000 0.9775
4.8343 1.6139 -2.5000 0.9775
4.6887 1.9977 -2.5000 0.9775
4.6045 2.1849 -2.5000 0.9775
4.5128 2.3685 -2.5000 0.9775
4.4138 2.5483 -2.5000 0.9775
4.2706 2.7006 -2.4785 0.9777
3.7071 3.0268 -2.3476 0.9789
3.5823 3.1736 -2.3476 0.9789
3.4516 3.3153 -2.3476 0.9789
2.8751 3.8260 -2.3476 0.9789
2.7187 3.9387 -2.3476 0.9789
2.2241 4.2377 -2.3476 0.9789
1.8759 4.4029 -2.3476 0.9789
1.1453 4.6468 -2.3476 0.9789
0.5769 4.7510 -2.3476 0.9789
0.1927 4.7820 -2.3476 0.9789
-0.1927 4.7820 -2.3476 0.9789
-0.3851 4.7704 -2.3476 0.9789
-0.5769 4.7510 -2.3476 0.9789
-1.5155 4.5396 -2.3476 0.9789
-1.6971 4.4749 -2.3476 0.9789
-1.8759 4.4029 -2.3476 0.9789
-2.0517 4.3238 -2.3476 0.9789
-2.2241 4.2377 -2.3476 0.9789
-2.3929 4.1447 -2.3476 0.9789
-2.8751 3.8260 -2.3476 0.9789
-3.0268 3.7072 -2.3476 0.9789
-3.5823 3.1736 -2.3476 0.9789
-3.7072 3.0268 -2.3476 0.9789
-3.8343 2.8813 -2.3527 0.9789
-4.2660 2.6976 -2.4758 0.9778
-4.5128 2.3685 -2.5000 0.9775
-4.6045 2.1849 -2.5000 0.9775
-4.6887 1.9977 -2.5000 0.9775
-4.7653 1.8073 -2.5000 0.9775
-4.8343 1.6139 -2.5000 0.9775
-2.9436 0.8526 -1.5032 0.9864
-2.1007 0.5178 -1.0613 0.9904
-2.0898 0.4266 -1.0462 0.9905
-2.0750 0.3372 -1.0312 0.9907
-2.0595 0.0830 -1.0111 0.9909
-1.9494 -0.0786 -1.0121 0.9912
-1.9445 -0.2361 -1.0162 0.9912
-1.9687 -0.4852 -1.0519 0.9909
-2.3249 -0.6734 -1.2557 0.9892
-4.5710 -1.5260 -2.5000 0.9785
-4.5058 -1.7088 -2.5000 0.9785
-4.3537 -2.0658 -2.5000 0.9785
-4.2670 -2.2395 -2.5000 0.9785
-3.9659 -2.7375 -2.5000 0.9785
-3.6070 -3.1956 -2.5000 0.9785
-3.0477 -3.7328 -2.5000 0.9785
-2.8950 -3.8525 -2.5000 0.9785
-2.7375 -3.9659 -2.5000 0.9785
-2.5756 -4.0729 -2.5000 0.9785
-2.0659 -4.3537 -2.5000 0.9785
-1.8889 -4.4333 -2.5000 0.9785
-1.7088 -4.5058 -2.5000 0.9785
-1.5260 -4.5710 -2.5000 0.9785
-1.3407 -4.6287 -2.5000 0.9785
-0.9639 -4.7216 -2.5000 0.9785
-0.7730 -4.7566 -2.5000 0.9785
-0.3878 -4.8033 -2.5000 0.9785
-0.1941 -4.8151 -2.5000 0.9785
-0.0000 -4.8190 -2.5000 0.9785
0.1940 -4.8151 -2.5000 0.9785
0.5808 -4.7838 -2.5000 0.9785
1.1533 -4.6789 -2.5000 0.9785
1.3407 -4.6287 -2.5000 0.9785
1.8889 -4.4333 -2.5000 0.9785
2.0658 -4.3537 -2.5000 0.9785
2.2395 -4.2670 -2.5000 0.9785
2.7375 -3.9659 -2.5000 0.9785
3.0477 -3.7328 -2.5000 0.9785
3.1956 -3.6071 -2.5000 0.9785
3.3382 -3.4755 -2.5000 0.9785
4.1734 -2.4095 -2.5000 0.9785
4.3537 -2.0658 -2.5000 0.9785
4.5058 -1.7088 -2.5000 0.9785
4.5710 -1.5260 -2.5000 0.9785
4.7566 -0.7730 -2.5000 0.9785
4.7838 -0.5808 -2.5000 0.9785
4.8034 -0.3878 -2.5000 0.9785
4.8151 -0.1940 -2.5000 0.9785
4.8151 0.1940 -2.5000 0.9785
4.8033 0.3878 -2.5000 0.9785
4.7566 0.7730 -2.5000 0.9785
4.6790 1.1533 -2.5000 0.9785
4.6287 1.3407 -2.5000 0.9785
4.5710 1.5260 -2.5000 0.9785
4.3537 2.0659 -2.5000 0.9785
4.2670 2.2395 -2.5000 0.9785
4.0729 2.5756 -2.5000 0.9785
3.9151 2.7024 -2.4679 0.9788
3.5053 2.8619 -2.3476 0.9798
3.3872 3.0008 -2.3476 0.9798
3.2636 3.1347 -2.3476 0.9798
3.1347 3.2636 -2.3476 0.9798
3.0008 3.3872 -2.3476 0.9798
2.8619 3.5052 -2.3476 0.9798
2.7185 3.6177 -2.3476 0.9798
2.5706 3.7242 -2.3476 0.9798
1.9399 4.0883 -2.3476 0.9798
1.7737 4.1631 -2.3476 0.9798
1.4330 4.2923 -2.3476 0.9798
1.2590 4.3465 -2.3476 0.9798
1.0830 4.3937 -2.3476 0.9798
0.9052 4.4338 -2.3476 0.9798
0.5454 4.4922 -2.3476 0.9798
0.1822 4.5215 -2.3476 0.9798
0.0000 4.5252 -2.3476 0.9798
-0.1822 4.5215 -2.3476 0.9798
-0.5454 4.4922 -2.3476 0.9798
-1.4330 4.2923 -2.3476 0.9798
-1.6046 4.2312 -2.3476 0.9798
-2.2626 3.9190 -2.3476 0.9798
