ply
format ascii 1.0
element vertex 1558
property float32 x
property float32 y
property float32 z
property float32 I
end_header
6.7239 15.7815 2.6279 0.9329
7.8447 20.6846 3.3890 0.9144
4.8212 23.6158 3.6924 0.9071
2.9934 24.6524 3.8044 0.9044
1.9184 23.7640 3.6524 0.9080
-0.0000 16.2630 2.4914 0.9363
-1.3581 16.8235 2.5856 0.9340
-3.1877 15.6144 2.4414 0.9375
-4.3314 14.9535 2.3850 0.9389
-5.1726 15.4939 2.5024 0.9360
-5.6384 14.8672 2.4359 0.9377
-6.2680 14.7116 2.4498 0.9373
-8.0165 13.8849 2.4562 0.9372
-15.1163 23.9045 4.3328 0.8919
-17.2384 22.9402 4.3959 0.8904
-15.0899 18.4817 3.6552 0.9080
-15.7334 17.7593 3.6347 0.9085
-33.6156 32.2883 7.1405 0.8281
-18.9396 14.2322 3.6293 0.9086
-36.8939 25.4660 6.8676 0.8341
-16.7543 10.5947 3.0368 0.9229
-17.1471 9.8999 3.0332 0.9230
-30.7531 10.2669 4.9668 0.8770
-26.4178 -12.5354 3.8078 0.8887
-22.7273 -17.0784 3.7020 0.8917
-22.1565 -19.6289 3.8546 0.8875
-10.1448 -23.8106 3.3703 0.9009
-9.0295 -23.8089 3.3159 0.9024
-7.2614 -25.0691 3.3987 0.9001
-1.1288 -28.0085 3.6503 0.8931
-0.0001 -28.2678 3.6811 0.8922
3.5551 -29.2789 3.8407 0.8878
4.8270 -23.6440 3.1425 0.9072
5.8342 -23.6703 3.1746 0.9063
7.1493 -24.6824 3.3463 0.9015
7.9803 -23.9040 3.2817 0.9033
8.6273 -20.2490 2.8662 0.9150
9.2007 -19.3900 2.7948 0.9171
10.2695 -19.5670 2.8776 0.9147
13.6889 -19.8318 3.1380 0.9074
14.9268 -19.8640 3.2356 0.9046
17.5018 -19.7554 3.4369 0.8990
18.8662 -19.6418 3.5465 0.8960
19.3250 8.2336 2.7354 0.9188
19.7223 10.3511 2.9005 0.9141
28.8114 16.6343 4.3323 0.8744
27.2226 18.7904 4.3074 0.8751
21.3294 17.4149 3.5858 0.8949
24.3352 21.5591 4.2337 0.8771
13.0767 14.7606 2.5679 0.9235
9.6651 14.0023 2.2156 0.9337
9.0030 14.2370 2.1935 0.9343
8.5770 14.8558 2.2338 0.9331
8.9276 17.0101 2.5016 0.9254
8.9892 21.0984 2.9864 0.9116
5.0672 24.8204 3.2988 0.9029
3.8568 23.7315 3.1309 0.9076
2.8233 23.2515 3.0501 0.9098
1.9829 24.5621 3.2089 0.9054
-0.0000 16.8725 2.1971 0.9342
-1.2328 15.2706 1.9950 0.9401
-2.0877 17.1934 2.2554 0.9325
-3.8554 15.6418 2.0978 0.9371
-4.4948 15.5178 2.1038 0.9369
-5.5691 14.6844 2.0451 0.9386
-6.0542 14.2098 2.0114 0.9396
-21.8958 41.7189 6.1355 0.8269
-15.3654 24.2984 3.7437 0.8905
-15.3437 22.2292 3.5173 0.8968
-14.8309 19.7363 3.2148 0.9052
-15.6853 17.7049 3.0802 0.9090
-17.4983 10.1026 2.6311 0.9217
-29.5744 12.6005 4.1862 0.8784
-29.8755 11.3303 4.1608 0.8791
-33.1282 11.0598 4.5480 0.8686
-34.4612 9.9818 4.6720 0.8653
-22.4527 4.5837 2.9841 0.9117
-23.9893 -18.0268 3.2223 0.8863
-21.0356 -18.6359 3.0178 0.8931
-19.9672 -20.7880 3.0952 0.8905
-10.4243 -21.9687 2.6111 0.9068
-5.8462 -23.7190 2.6232 0.9064
-2.3719 -29.3802 3.1652 0.8882
-1.1769 -29.2030 3.1384 0.8891
1.1810 -29.3075 3.1496 0.8887
3.7821 -31.1484 3.3693 0.8814
3.8383 -23.6183 2.5694 0.9082
7.1493 -24.6824 2.7594 0.9018
8.7954 -20.6436 2.4096 0.9137
9.2007 -19.3900 2.3046 0.9173
11.9373 -18.8773 2.3984 0.9141
14.9268 -19.8640 2.6682 0.9049
17.5018 -19.7554 2.8341 0.8993
18.8662 -19.6418 2.9245 0.8962
31.1925 -11.8298 3.5823 0.8744
19.1985 8.1797 2.2409 0.9195
18.0017 8.5419 2.1396 0.9230
17.4066 9.1357 2.1109 0.9240
27.0241 18.6534 3.5261 0.8763
21.5048 16.1598 2.8885 0.8974
21.2001 18.7816 3.0414 0.8923
21.1658 22.0359 3.2810 0.8843
10.8955 12.2985 1.7643 0.9360
9.8071 12.0115 1.6651 0.9395
9.5421 12.6982 1.7056 0.9381
9.4634 13.7101 1.7889 0.9352
8.3634 14.4859 1.7962 0.9349
7.8314 14.9214 1.8096 0.9345
12.5523 37.5988 4.2565 0.8526
10.6784 36.8660 4.1215 0.8569
5.2260 25.5985 2.8055 0.9002
3.7980 23.3700 2.5424 0.9091
2.9236 24.0776 2.6045 0.9070
0.9599 23.8210 2.5600 0.9085
-0.6284 15.5935 1.6758 0.9391
-1.2960 16.0532 1.7294 0.9373
-1.9729 16.2476 1.7575 0.9363
-7.2061 15.1866 1.8050 0.9346
-13.8626 24.0108 2.9772 0.8945
-15.1632 20.1785 2.7104 0.9034
-14.8541 18.1929 2.5220 0.9098
-15.6398 17.6537 2.5326 0.9095
-20.0555 15.0707 2.6939 0.9040
-15.9445 10.0826 2.0257 0.9269
-17.1848 9.9216 2.1308 0.9233
-29.6639 12.6386 3.4624 0.8783
-29.6374 11.2400 3.4037 0.8803
-32.7754 10.9421 3.7104 0.8702
-22.4767 4.5886 2.4634 0.9118
-22.5206 -16.9231 2.3847 0.8931
-22.4972 -18.3684 2.4586 0.8900
-20.1410 -19.3457 2.3641 0.8939
-19.0096 -19.7910 2.3230 0.8957
-20.3510 -22.9715 2.5980 0.8841
-19.1204 -23.4182 2.5593 0.8857
-10.5848 -20.1677 1.9281 0.9126
-8.1986 -24.5579 2.1917 0.9013
-7.5256 -25.9813 2.2898 0.8971
-5.0939 -24.9516 2.1558 0.9028
-1.1398 -28.2836 2.3962 0.8926
-0.0001 -28.5979 2.4209 0.8915
4.0824 -25.1200 2.1544 0.9029
4.9686 -24.3379 2.1028 0.9051
6.2052 -25.1753 2.1949 0.9011
7.9202 -23.7241 2.1173 0.9045
9.6965 -20.4349 1.9147 0.9132
10.2695 -19.5670 1.8707 0.9151
13.0349 -18.8843 1.9425 0.9120
14.2997 -19.0294 2.0150 0.9089
18.8663 -19.6418 2.3055 0.8964
31.0781 -14.7467 2.9120 0.8710
19.1858 8.1743 1.7654 0.9197
27.1696 18.7538 2.7947 0.8759
22.7435 21.8454 2.6696 0.8811
21.1397 22.0087 2.5833 0.8847
11.5070 14.0935 1.5402 0.9296
10.2077 13.5839 1.4384 0.9341
10.1139 14.6526 1.5072 0.9310
8.2787 14.3392 1.4016 0.9357
7.6973 14.6659 1.4021 0.9357
10.0777 30.1865 2.6940 0.8801
8.8982 43.5863 3.7658 0.8365
3.9335 24.2036 2.0758 0.9063
2.9401 24.2137 2.0648 0.9067
1.8819 23.3114 1.9798 0.9104
-0.0000 16.0235 1.3564 0.9377
-1.3149 16.2872 1.3832 0.9365
-7.6971 47.3616 4.0619 0.8248
-5.1681 25.3153 2.1872 0.9015
-6.2778 25.4699 2.2206 0.9001
-7.7329 26.6971 2.3529 0.8944
-5.4837 14.4593 1.3091 0.9398
-6.0642 14.2331 1.3097 0.9398
-6.6425 13.9987 1.3117 0.9397
-7.8597 14.9754 1.4317 0.9344
-23.0880 39.9895 3.9089 0.8308
-8.8137 13.9377 1.3960 0.9359
-9.6124 13.9259 1.4324 0.9343
-15.8365 17.8757 2.0216 0.9086
-17.1958 16.5168 2.0184 0.9087
-19.5903 15.9951 2.1409 0.9035
-34.5402 25.9552 3.6575 0.8408
-16.1872 11.1732 1.6650 0.9241
-16.0033 10.1199 1.6029 0.9268
-17.3633 10.0247 1.6972 0.9227
-28.7667 13.6500 2.6954 0.8800
-25.3120 -19.0207 1.9634 0.8808
-10.5247 -20.0533 1.4044 0.9132
-5.2263 -25.6003 1.6202 0.9006
-4.1856 -25.7550 1.6180 0.9007
-2.2478 -27.8428 1.7322 0.8941
3.2444 -26.7201 1.6691 0.8977
5.8330 -23.6655 1.5114 0.9069
7.9202 -23.7241 1.5510 0.9046
11.9373 -18.8773 1.3850 0.9144
14.2997 -19.0294 1.4761 0.9090
15.4704 -18.9477 1.5168 0.9066
17.5018 -19.7554 1.6366 0.8996
20.1400 8.5809 1.3575 0.9160
22.1841 14.0284 1.6276 0.9002
21.4309 14.7927 1.6148 0.9009
20.9681 15.7565 1.6264 0.9002
20.7416 16.9350 1.6605 0.8982
18.5276 16.4141 1.5349 0.9056
20.0022 19.2123 1.7198 0.8948
10.5324 14.0160 1.0872 0.9321
9.2473 14.6234 1.0729 0.9330
8.7729 15.1952 1.0880 0.9321
8.2011 15.6259 1.0943 0.9317
9.1451 19.2729 1.3228 0.9181
12.0598 28.3055 1.9079 0.8840
11.4566 30.2087 2.0034 0.8786
10.0031 29.9630 1.9588 0.8811
10.6601 36.8029 2.3760 0.8577
5.5561 22.5419 1.4397 0.9112
3.9407 24.2477 1.5233 0.9062
1.4588 18.0705 1.1242 0.9299
-0.0000 16.4194 1.0182 0.9363
-0.6532 16.2077 1.0059 0.9371
-1.3108 16.2370 1.0101 0.9368
-1.8818 15.4982 0.9681 0.9393
-7.6117 46.8365 2.9424 0.8268
-5.3063 25.9922 1.6450 0.8991
-5.0171 15.0280 0.9825 0.9385
-5.7670 12.1537 0.8342 0.9475
-7.4585 12.9185 0.9250 0.9420
-12.7350 18.4498 1.3902 0.9141
-13.6685 18.1895 1.4109 0.9128
-14.3821 17.6148 1.4101 0.9129
-15.1261 17.0738 1.4145 0.9126
-16.4791 15.8284 1.4169 0.9125
-34.5294 30.5904 2.8606 0.8312
-16.3830 9.4587 1.1731 0.9270
-17.7024 9.2909 1.2397 0.9230
-28.0375 10.6332 1.8594 0.8868
-30.7782 8.9150 1.9870 0.8795
-37.4489 -19.6547 1.6677 0.8443
-36.1954 -20.8975 1.6480 0.8459
-29.2617 -21.9888 1.4433 0.8637
-29.4061 -24.0093 1.4969 0.8590
-20.6670 -23.3282 1.2289 0.8827
-20.0985 -24.6162 1.2531 0.8805
-5.6694 -46.6913 1.8546 0.8284
-1.0733 -26.6328 1.0510 0.8988
-0.0001 -27.4326 1.0817 0.8960
1.1328 -28.1123 1.1094 0.8935
2.3223 -28.7679 1.1380 0.8909
3.6604 -30.1456 1.1974 0.8855
5.8342 -23.6703 0.9613 0.9070
6.9160 -23.8769 0.9802 0.9053
7.9231 -23.7327 0.9866 0.9047
9.2007 -19.3900 0.8463 0.9177
11.0690 -21.0901 0.9392 0.9091
12.4075 -19.6210 0.9154 0.9113
13.5642 -19.6511 0.9415 0.9088
14.7908 -19.6830 0.9708 0.9061
18.8663 -19.6418 1.0739 0.8967
20.4332 5.9186 0.8388 0.9184
20.0223 7.5935 0.8444 0.9178
21.3020 16.0074 1.0507 0.8988
20.4942 16.7330 1.0433 0.8995
9.9729 13.2715 0.6546 0.9357
9.4023 13.6216 0.6526 0.9359
8.4236 13.3208 0.6215 0.9389
9.6878 22.7381 0.9746 0.9058
10.9394 28.8449 1.2164 0.8838
3.6565 22.4994 0.8988 0.9128
1.8392 22.7826 0.9013 0.9126
0.6416 15.9208 0.6283 0.9382
-0.0000 15.7302 0.6203 0.9390
-1.2480 15.4586 0.6115 0.9398
-1.8427 15.1757 0.6028 0.9406
-8.9647 43.9119 1.7672 0.8358
-5.8625 13.7598 0.5898 0.9419
-6.7318 12.8264 0.5712 0.9437
-18.9448 25.2109 1.2435 0.8814
-15.2988 18.7376 0.9538 0.9077
-16.6112 17.2940 0.9455 0.9085
-15.5526 10.7352 0.7452 0.9271
-29.2588 12.4660 1.2541 0.8805
-29.6509 11.2451 1.2504 0.8808
-31.7207 10.5900 1.3186 0.8747
-22.4644 4.5861 0.9041 0.9123
-41.5804 -17.7157 0.7635 0.8346
-34.1878 -17.9432 0.6522 0.8569
-31.2378 -18.0352 0.6093 0.8656
-28.6279 -18.1032 0.5722 0.8733
-26.7897 -20.1312 0.5661 0.8745
-26.8361 -21.9110 0.5852 0.8706
-23.4257 -20.7533 0.5287 0.8823
-27.1572 -36.1396 0.7636 0.8346
-3.6282 -22.3253 0.3821 0.9135
-0.0001 -28.2136 0.4766 0.8933
3.6589 -30.1340 0.5128 0.8856
4.8270 -23.6440 0.4076 0.9080
6.2075 -25.1850 0.4382 0.9014
8.6273 -20.2491 0.3718 0.9157
9.2007 -19.3900 0.3625 0.9177
11.0660 -21.0846 0.4022 0.9091
12.4075 -19.6210 0.3921 0.9113
14.7908 -19.6830 0.4159 0.9062
18.0404 -20.3634 0.4595 0.8969
18.8662 -19.6418 0.4600 0.8968
30.2164 17.4454 0.5894 0.8697
21.2265 13.4228 0.4242 0.9044
21.1526 14.6005 0.4342 0.9023
20.9712 15.7589 0.4431 0.9004
20.6444 16.8556 0.4502 0.8989
19.8581 17.5927 0.4481 0.8993
9.3914 12.4977 0.2641 0.9394
10.5192 15.2397 0.3128 0.9286
8.8979 15.4116 0.3006 0.9313
7.3073 13.9230 0.2656 0.9390
7.9161 16.6829 0.3119 0.9288
6.4261 16.9442 0.3061 0.9301
10.2646 30.7461 0.5475 0.8784
5.6767 23.0310 0.4007 0.9095
1.4550 18.0241 0.3054 0.9302
0.6837 16.9674 0.2868 0.9343
-0.0000 16.4512 0.2779 0.9363
-1.3163 16.3057 0.2763 0.9367
-1.9753 16.2678 0.2768 0.9365
-3.3560 16.4389 0.2834 0.9351
-4.8465 14.5170 0.2585 0.9406
-5.9646 13.9993 0.2570 0.9409
-6.8159 14.3643 0.2686 0.9384
-14.2210 16.0521 0.3623 0.9178
-29.4913 30.7037 0.7191 0.8434
-32.2054 30.9338 0.7543 0.8364
-33.6844 14.3516 0.6185 0.8637
-33.3844 12.6611 0.6031 0.8669
-32.7823 10.9444 0.5838 0.8709
-33.9704 9.8397 0.5974 0.8681
-33.5270 8.2637 0.5833 0.8710
-22.4603 4.5853 0.3872 0.9124
-41.6909 -17.7628 -0.2551 0.8342
-34.1878 -17.9432 -0.2174 0.8569
-31.2378 -18.0352 -0.2031 0.8656
-28.6279 -18.1032 -0.1907 0.8733
-23.4202 -20.7484 -0.1762 0.8824
-3.5275 -21.7056 -0.1238 0.9158
-2.5789 -21.2389 -0.1205 0.9180
-1.7331 -21.4683 -0.1213 0.9175
-0.0001 -26.5815 -0.1497 0.8991
2.3985 -29.7113 -0.1678 0.8876
3.7867 -31.1866 -0.1769 0.8819
3.8675 -23.7974 -0.1357 0.9081
4.8636 -23.8234 -0.1369 0.9073
6.8626 -23.6924 -0.1389 0.9060
8.5620 -22.5761 -0.1359 0.9079
8.7954 -20.6436 -0.1263 0.9142
9.2007 -19.3900 -0.1208 0.9177
11.4326 -21.7829 -0.1385 0.9063
11.8457 -20.5174 -0.1334 0.9096
13.9679 -20.2360 -0.1384 0.9063
15.3965 -20.4890 -0.1443 0.9026
18.1769 -20.5175 -0.1543 0.8962
26.4782 16.7438 -0.1764 0.8822
21.9879 15.1772 -0.1504 0.8986
12.8885 12.3796 -0.1006 0.9310
21.7380 24.5372 -0.1846 0.8771
11.6621 14.2835 -0.1038 0.9289
10.9320 14.5479 -0.1025 0.9298
10.0580 14.5716 -0.0997 0.9316
9.4123 14.8843 -0.0992 0.9320
12.2241 25.7619 -0.1605 0.8922
7.4250 19.5783 -0.1179 0.9197
8.1971 24.5533 -0.1457 0.9016
2.0219 16.6523 -0.0944 0.9351
0.6467 16.0470 -0.0904 0.9378
-1.2614 15.6254 -0.0883 0.9392
-1.9721 16.2412 -0.0921 0.9367
-7.0402 43.3193 -0.2471 0.8390
-5.3850 14.1991 -0.0855 0.9411
-6.2725 13.2191 -0.0824 0.9432
-7.1762 13.6730 -0.0869 0.9401
-26.3183 41.6191 -0.2772 0.8212
-16.9078 24.4951 -0.1676 0.8878
-21.9836 29.2548 -0.2060 0.8638
-21.4621 26.2863 -0.1911 0.8731
-29.2140 30.4149 -0.2374 0.8448
-16.7845 12.6127 -0.1182 0.9194
-15.1505 10.4576 -0.1036 0.9290
-16.3902 9.4629 -0.1066 0.9271
-18.5940 8.8229 -0.1159 0.9210
-32.0825 13.6691 -0.1963 0.8698
-32.0619 12.1595 -0.1931 0.8718
-32.1684 10.7394 -0.1909 0.8731
-22.4562 4.5845 -0.1290 0.9124
-46.5059 -17.6374 -1.4005 0.8195
-41.6909 -17.7628 -1.2760 0.8342
-37.6559 -17.8679 -1.1736 0.8464
-34.1878 -17.9432 -1.0872 0.8568
-31.2378 -18.0352 -1.0157 0.8656
-28.6279 -18.1032 -0.9537 0.8732
-26.8361 -21.9110 -0.9755 0.8705
-23.4147 -20.7436 -0.8808 0.8823
-26.9394 -25.8757 -1.0518 0.8612
-32.7679 -36.9873 -1.3914 0.8206
-30.2527 -37.0528 -1.3469 0.8258
-14.4983 -34.0287 -1.0415 0.8624
-6.4402 -16.9813 -0.5114 0.9299
-5.7870 -17.3341 -0.5146 0.9295
-4.9960 -17.2479 -0.5056 0.9307
-2.8234 -17.3730 -0.4956 0.9320
-2.1110 -17.3857 -0.4931 0.9323
-1.3709 -16.9809 -0.4797 0.9341
0.6934 -17.2060 -0.4849 0.9334
1.4153 -17.5316 -0.4953 0.9320
2.1183 -17.4454 -0.4948 0.9321
2.8277 -17.3993 -0.4964 0.9319
3.6238 -17.7508 -0.5101 0.9301
5.1076 -17.6335 -0.5169 0.9292
5.7938 -17.3546 -0.5152 0.9294
9.2714 -17.6651 -0.5618 0.9233
11.8460 -20.5178 -0.6671 0.9096
12.9156 -20.4244 -0.6804 0.9078
18.4838 -20.8639 -0.7849 0.8945
28.9771 -30.1683 -1.1779 0.8459
18.0286 -17.3167 -0.7039 0.9048
21.6382 -17.6670 -0.7866 0.8942
27.6341 -17.4747 -0.9206 0.8774
21.0967 14.5620 -0.7218 0.9025
18.8354 18.0916 -0.7354 0.9008
10.8298 13.2642 -0.4822 0.9338
10.3499 13.7732 -0.4851 0.9334
12.7821 24.3544 -0.7745 0.8958
10.8266 25.4111 -0.7778 0.8954
7.9234 23.7335 -0.7045 0.9047
5.9172 24.0069 -0.6962 0.9058
4.8607 23.8092 -0.6842 0.9073
3.8012 23.3894 -0.6672 0.9095
2.1913 18.0472 -0.5119 0.9298
1.2293 15.2283 -0.4302 0.9407
-0.0000 15.6538 -0.4408 0.9393
-0.6520 16.1780 -0.4559 0.9373
-1.1965 14.8211 -0.4187 0.9422
-1.9855 16.3518 -0.4638 0.9362
-2.6198 16.1204 -0.4599 0.9367
-3.3732 16.5229 -0.4748 0.9347
-4.3790 15.1179 -0.4432 0.9390
-4.9106 14.7089 -0.4366 0.9398
-6.7335 14.1905 -0.4423 0.9391
-16.9037 24.4893 -0.8379 0.8877
-22.1607 27.1419 -0.9866 0.8692
-31.8257 30.5690 -1.2426 0.8381
-15.4075 11.5780 -0.5427 0.9258
-15.4970 8.9472 -0.5039 0.9309
-16.8941 8.8667 -0.5372 0.9265
-32.6554 12.3846 -0.9834 0.8696
-32.4737 10.8413 -0.9640 0.8720
-31.2574 9.0538 -0.9163 0.8779
-49.2958 -0.0000 -2.5000 0.8208
-49.2558 -1.9850 -2.5000 0.8208
-49.1359 -3.9667 -2.5000 0.8208
-48.2995 -9.8605 -2.5000 0.8208
-43.3003 -16.4216 -2.3486 0.8307
-42.4648 -18.0925 -2.3409 0.8312
-37.5416 -17.8137 -2.1074 0.8467
-31.2378 -18.0352 -1.8293 0.8655
-26.8361 -21.9110 -1.7570 0.8704
-30.3884 -34.3014 -2.3240 0.8323
-28.9579 -35.4670 -2.3221 0.8324
-25.9537 -37.6004 -2.3170 0.8328
-24.3776 -38.5501 -2.3131 0.8330
-13.9553 -32.7542 -1.8056 0.8671
-4.9264 -17.0079 -0.8980 0.9315
-3.4804 -17.0481 -0.8824 0.9327
-0.6924 -17.1810 -0.8720 0.9334
0.6934 -17.2065 -0.8733 0.9334
1.4144 -17.5208 -0.8914 0.9320
2.0916 -17.2259 -0.8800 0.9329
2.8176 -17.3374 -0.8908 0.9321
4.2165 -17.1069 -0.8935 0.9319
5.7873 -17.3349 -0.9268 0.9294
8.3417 -17.5797 -0.9868 0.9250
12.9156 -20.4244 -1.2255 0.9078
13.9679 -20.2360 -1.2470 0.9062
15.3965 -20.4890 -1.2998 0.9024
18.0315 -17.3195 -1.2680 0.9047
23.1389 -17.3878 -1.4679 0.8905
43.6493 -22.9089 -2.5000 0.8208
44.5363 -21.1327 -2.5000 0.8208
46.7587 -15.6104 -2.5000 0.8208
47.3492 -13.7149 -2.5000 0.8208
48.2993 -9.8604 -2.5000 0.8208
49.1357 -3.9667 -2.5000 0.8208
24.7381 -0.9969 -1.2556 0.9056
49.1358 3.9667 -2.5000 0.8208
31.8311 6.4984 -1.6476 0.8780
32.2715 7.9542 -1.6856 0.8754
32.3341 10.7947 -1.7287 0.8724
31.8701 13.5785 -1.7569 0.8704
32.4353 15.3907 -1.8207 0.8661
32.4717 17.0425 -1.8598 0.8634
32.5497 20.5832 -1.9531 0.8571
28.5228 19.6879 -1.7576 0.8704
32.6841 26.6857 -2.1397 0.8445
22.2976 23.2142 -1.6324 0.8790
11.5416 16.7210 -1.0304 0.9218
9.6915 15.3259 -0.9196 0.9299
12.5709 23.9520 -1.3718 0.8973
11.6173 24.4831 -1.3743 0.8971
10.6525 25.0025 -1.3783 0.8969
14.8718 44.5464 -2.3817 0.8285
13.0857 45.1770 -2.3853 0.8283
9.4368 46.2243 -2.3926 0.8278
7.5795 46.6386 -2.3963 0.8276
2.0313 16.7296 -0.8547 0.9347
-0.0000 16.2009 -0.8216 0.9372
-0.6395 15.8685 -0.8054 0.9384
-2.2746 18.7331 -0.9570 0.9272
-6.7292 15.7941 -0.8707 0.9336
-20.7205 43.6675 -2.4512 0.8240
-25.9365 41.0153 -2.4611 0.8234
-30.7589 37.6727 -2.4665 0.8230
-32.1873 36.3319 -2.4616 0.8233
-33.5550 34.9345 -2.4566 0.8237
-33.8255 32.4899 -2.3786 0.8287
-16.3498 12.2860 -1.0372 0.9214
-15.8295 10.0099 -0.9498 0.9277
-18.7304 9.8305 -1.0728 0.9188
-17.6456 8.3729 -0.9905 0.9248
-43.9814 16.6799 -2.3855 0.8283
-44.5302 12.8983 -2.3511 0.8305
-44.9456 11.0781 -2.3476 0.8308
-46.1404 3.7248 -2.3476 0.8308
-34.0959 0.0000 -2.5000 0.8722
-33.9854 -2.7436 -2.5000 0.8722
-33.8473 -4.1098 -2.5000 0.8722
-32.7497 -9.4861 -2.5000 0.8722
-32.3412 -10.7971 -2.5000 0.8722
-31.0224 -13.2174 -2.4725 0.8735
-28.3540 -14.8814 -2.3479 0.8795
-26.8405 -15.4964 -2.2725 0.8831
-27.0617 -17.1128 -2.3477 0.8795
-26.0180 -17.9589 -2.3180 0.8809
-22.5773 -23.5054 -2.3897 0.8775
-22.2608 -25.1272 -2.4614 0.8740
-19.0697 -27.6272 -2.4614 0.8740
-11.6041 -20.0989 -1.7017 0.9111
-11.2009 -21.3415 -1.7672 0.9079
-11.4606 -24.1528 -1.9602 0.8983
-13.1582 -30.8833 -2.4614 0.8740
-6.4419 -16.9860 -1.3320 0.9297
-4.1760 -16.9426 -1.2795 0.9324
-3.4785 -17.0385 -1.2751 0.9326
-1.3689 -16.9572 -1.2474 0.9340
0.6857 -17.0143 -1.2485 0.9340
2.0871 -17.1887 -1.2696 0.9329
4.2168 -17.1079 -1.2919 0.9318
5.0644 -17.4843 -1.3347 0.9296
6.5698 -17.3231 -1.3584 0.9284
9.1808 -17.4926 -1.4485 0.9238
11.8492 -20.5234 -1.7376 0.9093
12.9156 -20.4244 -1.7719 0.9076
22.1952 -23.1076 -2.3493 0.8794
18.0320 -17.3199 -1.8332 0.9046
19.6965 -17.4496 -1.9294 0.8998
21.6746 -17.6967 -2.0517 0.8938
23.2786 -17.4927 -2.1350 0.8898
27.0608 -17.1122 -2.3476 0.8795
28.3500 -14.8792 -2.3476 0.8795
28.9261 -13.7256 -2.3476 0.8795
31.3675 -13.3644 -2.5000 0.8722
31.8802 -12.0906 -2.5000 0.8722
32.3412 -10.7971 -2.5000 0.8722
32.7497 -9.4865 -2.5000 0.8722
33.4069 -6.8201 -2.5000 0.8722
33.6544 -5.4694 -2.5000 0.8722
33.8474 -4.1098 -2.5000 0.8722
34.0684 1.3729 -2.5000 0.8722
33.9855 2.7436 -2.5000 0.8722
31.7840 3.8593 -2.3476 0.8795
24.6348 5.0293 -1.8435 0.9041
30.3840 10.1437 -2.3487 0.8794
29.4683 12.5553 -2.3486 0.8794
28.9533 13.7385 -2.3498 0.8794
27.7848 16.0416 -2.3524 0.8793
25.6982 19.3109 -2.3570 0.8790
24.9175 20.3445 -2.3586 0.8790
24.0959 21.3471 -2.3604 0.8789
20.4260 25.0173 -2.3681 0.8785
19.4192 25.8422 -2.3702 0.8784
11.5377 16.7154 -1.4892 0.9218
9.6891 15.3221 -1.3292 0.9299
12.5521 23.9162 -1.9804 0.8973
11.5993 24.4451 -1.9839 0.8972
10.6290 24.9472 -1.9883 0.8969
10.3164 30.9014 -2.3887 0.8775
6.5371 32.0206 -2.3962 0.8772
5.2480 32.2923 -2.3988 0.8770
-0.0000 14.7450 -1.0811 0.9426
-2.6496 32.8210 -2.4143 0.8763
-3.9732 32.7225 -2.4169 0.8762
-6.6526 26.9908 -2.0383 0.8945
-9.2092 31.7939 -2.4270 0.8757
-5.8191 15.3436 -1.2032 0.9363
-6.7268 15.7883 -1.2583 0.9335
-17.7239 28.0280 -2.4315 0.8755
-16.8957 24.4776 -2.1808 0.8876
-20.8970 25.5942 -2.4227 0.8759
-21.8813 24.6989 -2.4194 0.8760
-23.7291 22.7921 -2.4125 0.8764
-24.5889 21.7838 -2.4087 0.8766
-25.4047 20.7423 -2.4047 0.8767
-26.1754 19.6695 -2.4007 0.8769
-29.3153 13.9102 -2.3792 0.8780
-29.7947 12.6943 -2.3746 0.8782
-30.6002 10.2158 -2.3654 0.8786
-20.6944 5.1007 -1.5628 0.9181
-22.4440 4.5820 -1.6796 0.9122
-34.0683 1.3729 -2.5000 0.8722
-26.0402 -0.0000 -2.5000 0.9006
-26.0190 -1.0485 -2.5000 0.9006
-25.9557 -2.0954 -2.5000 0.9006
-25.2835 -6.2318 -2.5000 0.9006
-25.0120 -7.2448 -2.5000 0.9006
-24.7000 -8.2461 -2.5000 0.9006
-23.9564 -10.2069 -2.5000 0.9006
-23.5260 -11.1632 -2.5000 0.9006
-23.0574 -12.1015 -2.5000 0.9006
-22.5514 -13.0201 -2.5000 0.9006
-21.8794 -13.8357 -2.4853 0.9012
-21.1773 -14.6176 -2.4704 0.9018
-15.4020 -20.4963 -2.4614 0.9021
-12.9320 -20.4503 -2.3229 0.9073
-12.8191 -22.2033 -2.4614 0.9021
-11.1341 -21.2143 -2.3001 0.9082
-9.7638 -20.5767 -2.1866 0.9125
-4.9181 -16.9791 -1.6971 0.9314
-3.4871 -17.0811 -1.6737 0.9323
-2.7781 -17.0945 -1.6627 0.9328
-2.0939 -17.2448 -1.6677 0.9326
-1.3744 -17.0250 -1.6398 0.9337
-0.6884 -17.0827 -1.6414 0.9336
-0.0000 -17.3164 -1.6625 0.9328
1.4074 -17.4339 -1.6792 0.9321
2.0862 -17.1816 -1.6616 0.9328
2.8007 -17.2333 -1.6762 0.9322
3.5722 -17.4978 -1.7145 0.9308
5.0511 -17.4386 -1.7430 0.9296
7.3912 -17.3477 -1.8103 0.9270
8.3646 -17.6279 -1.8732 0.9246
9.2726 -17.6675 -1.9156 0.9230
12.5406 -19.8314 -2.2526 0.9100
14.7031 -19.5663 -2.3497 0.9063
15.4816 -18.9615 -2.3501 0.9063
16.9630 -17.6603 -2.3509 0.9063
17.6354 -16.9390 -2.3476 0.9064
18.3031 -16.2152 -2.3476 0.9064
20.1242 -13.8908 -2.3476 0.9064
22.5514 -13.0201 -2.5000 0.9006
23.5260 -11.1632 -2.5000 0.9006
23.9564 -10.2069 -2.5000 0.9006
25.0120 -7.2448 -2.5000 0.9006
25.7029 -4.1771 -2.5000 0.9006
25.8503 -3.1388 -2.5000 0.9006
25.9557 -2.0954 -2.5000 0.9006
24.6583 -0.0000 -2.3673 0.9057
25.9557 2.0954 -2.5000 0.9006
24.2744 2.9474 -2.3476 0.9064
23.9582 4.8911 -2.3476 0.9064
17.2805 5.0054 -1.7272 0.9303
14.9704 4.9979 -1.5152 0.9385
21.3293 12.3145 -2.3645 0.9058
20.8259 13.1695 -2.3656 0.9057
20.2888 14.0043 -2.3668 0.9057
19.7187 14.8176 -2.3680 0.9056
19.1165 15.6081 -2.3693 0.9056
17.8192 17.1156 -2.3721 0.9055
17.1261 17.8301 -2.3735 0.9054
11.5338 16.7097 -1.9493 0.9217
9.6867 15.3183 -1.7400 0.9298
12.4121 21.4985 -2.3833 0.9051
11.5450 21.9971 -2.3850 0.9050
10.6579 22.4611 -2.3868 0.9049
8.8296 23.2819 -2.3905 0.9048
5.9732 24.2343 -2.3962 0.9046
4.0103 24.6765 -2.4001 0.9044
2.0150 24.9601 -2.4041 0.9043
-2.0216 25.0422 -2.4120 0.9040
-5.0376 24.6757 -2.4179 0.9038
-6.0288 24.4597 -2.4185 0.9037
-7.0059 24.1873 -2.4175 0.9038
-6.7243 15.7825 -1.6470 0.9334
-11.6682 22.2319 -2.4105 0.9040
-12.5444 21.7275 -2.4086 0.9041
-13.3982 21.1876 -2.4067 0.9042
-15.0329 20.0051 -2.4024 0.9043
-16.5611 18.6936 -2.3977 0.9045
-17.9725 17.2628 -2.3925 0.9047
-20.4064 14.0856 -2.3805 0.9052
-20.9290 13.2347 -2.3773 0.9053
-21.8654 11.4758 -2.3707 0.9055
-22.2780 10.5710 -2.3674 0.9057
-22.6527 9.6514 -2.3639 0.9058
-15.0626 5.0287 -1.5245 0.9382
-17.4671 5.0594 -1.7460 0.9295
-26.0190 1.0485 -2.5000 0.9006
-21.0291 -0.8474 -2.5000 0.9187
-20.9779 -1.6935 -2.5000 0.9187
-20.8927 -2.5368 -2.5000 0.9187
-20.6208 -4.2098 -2.5000 0.9187
-20.4346 -5.0367 -2.5000 0.9187
-18.6354 -9.7806 -2.5000 0.9187
-18.2265 -10.5231 -2.5000 0.9187
-15.6890 -13.8991 -2.4898 0.9190
-13.7631 -15.5353 -2.4654 0.9198
-13.1260 -16.0765 -2.4653 0.9198
-11.0748 -17.5134 -2.4614 0.9199
-9.0334 -17.2118 -2.3090 0.9247
-6.4397 -16.9802 -2.1572 0.9295
-5.7130 -17.1124 -2.1430 0.9299
-4.9435 -17.0668 -2.1106 0.9309
-4.2393 -17.1992 -2.1042 0.9311
-2.1110 -17.3858 -2.0804 0.9319
2.8102 -17.2920 -2.0810 0.9319
5.7738 -17.2946 -2.1658 0.9292
7.3936 -17.3534 -2.2406 0.9268
9.1931 -17.5159 -2.3498 0.9234
9.8816 -17.1154 -2.3476 0.9235
10.5627 -16.7036 -2.3476 0.9235
11.2267 -16.2648 -2.3476 0.9235
11.8726 -15.7995 -2.3476 0.9235
12.4991 -15.3087 -2.3476 0.9235
13.6904 -14.2532 -2.3476 0.9235
14.2532 -13.6904 -2.3476 0.9235
16.8252 -12.6433 -2.5000 0.9187
17.3206 -11.9556 -2.5000 0.9187
19.3620 -8.2494 -2.5000 0.9187
19.6785 -7.4631 -2.5000 0.9187
20.2152 -5.8554 -2.5000 0.9187
20.6208 -4.2098 -2.5000 0.9187
20.8927 -2.5368 -2.5000 0.9187
20.9779 -1.6935 -2.5000 0.9187
21.0291 -0.8475 -2.5000 0.9187
21.0461 0.0000 -2.5000 0.9187
20.9779 1.6935 -2.5000 0.9187
19.5072 3.1702 -2.3476 0.9235
19.1889 4.7296 -2.3476 0.9235
17.2805 5.0054 -2.1371 0.9301
18.2626 7.7810 -2.3580 0.9232
17.6169 9.2461 -2.3633 0.9230
17.2491 9.9588 -2.3659 0.9229
16.4265 11.3384 -2.3709 0.9227
14.4392 13.8690 -2.3782 0.9225
13.2898 15.0011 -2.3806 0.9224
12.0526 16.0391 -2.3832 0.9224
10.0488 17.4050 -2.3873 0.9222
9.3454 17.8062 -2.3887 0.9222
7.8920 18.5232 -2.3917 0.9221
7.1442 18.8378 -2.3932 0.9221
5.6125 19.3765 -2.3963 0.9220
2.4380 20.0786 -2.4026 0.9218
0.8146 20.2144 -2.4031 0.9217
-0.6970 17.2966 -2.0563 0.9326
-3.2440 19.9613 -2.4022 0.9218
-5.6218 19.4086 -2.4002 0.9218
-6.3963 19.1593 -2.3993 0.9219
-10.0733 17.4475 -2.3931 0.9221
-10.7607 17.0166 -2.3916 0.9221
-11.4292 16.5580 -2.3899 0.9222
-13.3107 15.0247 -2.3844 0.9223
-13.8931 14.4642 -2.3823 0.9224
-14.4514 13.8807 -2.3802 0.9225
-15.4912 12.6481 -2.3756 0.9226
-16.4246 11.3371 -2.3707 0.9228
-16.8496 10.6550 -2.3681 0.9228
-10.4738 4.9699 -1.3771 0.9544
-11.7016 4.9856 -1.5109 0.9501
-19.1894 4.7298 -2.3477 0.9235
-19.5073 3.1702 -2.3476 0.9235
-20.9779 1.6935 -2.5000 0.9187
-21.0291 0.8475 -2.5000 0.9187
-17.6441 0.0000 -2.5000 0.9312
-17.6299 -0.7104 -2.5000 0.9312
-16.9475 -4.9089 -2.5000 0.9312
-16.7361 -5.5873 -2.5000 0.9312
-16.4976 -6.2567 -2.5000 0.9312
-16.2322 -6.9159 -2.5000 0.9312
-15.9406 -7.5639 -2.5000 0.9312
-15.2803 -8.8221 -2.5000 0.9312
-14.5208 -10.0230 -2.5000 0.9312
-14.1055 -10.5996 -2.5000 0.9312
-13.6672 -11.1589 -2.5000 0.9312
-13.2068 -11.7002 -2.5000 0.9312
-12.2225 -12.7250 -2.5000 0.9312
-11.1480 -13.6538 -2.4975 0.9313
-10.5666 -14.0616 -2.4922 0.9314
-8.2794 -14.3402 -2.3462 0.9353
-6.4943 -15.2427 -2.3476 0.9353
-5.8753 -15.4918 -2.3476 0.9353
-5.2467 -15.7159 -2.3476 0.9353
-3.9651 -16.0871 -2.3476 0.9353
-3.3141 -16.2337 -2.3476 0.9353
-1.9971 -16.4477 -2.3476 0.9353
-1.3332 -16.5148 -2.3476 0.9353
0.6671 -16.5551 -2.3476 0.9353
1.3332 -16.5148 -2.3476 0.9353
1.9971 -16.4477 -2.3476 0.9353
3.3141 -16.2337 -2.3476 0.9353
5.2467 -15.7159 -2.3476 0.9353
7.6998 -14.6707 -2.3476 0.9353
8.8553 -14.0036 -2.3476 0.9353
9.9534 -13.2456 -2.3476 0.9353
10.7784 -13.2012 -2.4147 0.9335
11.6814 -13.1855 -2.4960 0.9313
12.2225 -12.7250 -2.5000 0.9312
13.2068 -11.7002 -2.5000 0.9312
14.1055 -10.5996 -2.5000 0.9312
14.9126 -9.4302 -2.5000 0.9312
15.2802 -8.8221 -2.5000 0.9312
15.6231 -8.1996 -2.5000 0.9312
15.9406 -7.5639 -2.5000 0.9312
16.2322 -6.9159 -2.5000 0.9312
17.1314 -4.2225 -2.5000 0.9312
17.2876 -3.5293 -2.5000 0.9312
7.3540 -0.0000 -1.0420 0.9707
7.4030 0.2983 -1.0498 0.9705
17.5155 2.1268 -2.5000 0.9312
16.7404 2.7206 -2.4030 0.9338
16.2337 3.3141 -2.3476 0.9353
13.1629 4.9920 -1.9947 0.9447
15.2807 6.5105 -2.3534 0.9351
8.6209 4.9773 -1.4104 0.9606
13.3507 10.0324 -2.3662 0.9348
12.5204 11.0921 -2.3700 0.9347
11.6048 12.0819 -2.3736 0.9346
10.6098 12.9946 -2.3769 0.9345
10.0845 13.4200 -2.3785 0.9344
9.5418 13.8236 -2.3800 0.9344
8.9826 14.2049 -2.3813 0.9344
8.4080 14.5630 -2.3826 0.9343
4.6901 16.1921 -2.3885 0.9342
4.0354 16.3723 -2.3892 0.9341
3.3737 16.5253 -2.3898 0.9341
2.0337 16.7489 -2.3906 0.9341
1.3578 16.8190 -2.3908 0.9341
0.6795 16.8611 -2.3910 0.9341
-0.0000 16.8752 -2.3910 0.9341
-2.0337 16.7490 -2.3906 0.9341
-2.7061 16.6510 -2.3902 0.9341
-3.3737 16.5255 -2.3898 0.9341
-4.0354 16.3724 -2.3892 0.9341
-5.8150 15.3330 -2.3235 0.9359
-6.6007 15.4924 -2.3860 0.9342
-7.2160 15.2075 -2.3850 0.9343
-7.8189 14.8976 -2.3839 0.9343
-8.4081 14.5633 -2.3827 0.9343
-9.5420 13.8239 -2.3800 0.9344
-10.0847 13.4203 -2.3785 0.9344
-10.6100 12.9949 -2.3770 0.9345
-11.1171 12.5486 -2.3754 0.9345
-12.9462 10.5702 -2.3681 0.9347
-13.7309 9.4777 -2.3640 0.9348
-8.5816 4.9546 -1.4040 0.9608
-9.4442 4.9567 -1.5113 0.9578
-13.1964 5.0048 -1.9997 0.9446
-15.9144 4.6096 -2.3476 0.9353
-16.0871 3.9651 -2.3476 0.9353
-16.2338 3.3141 -2.3476 0.9353
-16.6185 2.7008 -2.3856 0.9342
-15.1754 0.0000 -2.5000 0.9403
-15.1631 -0.6111 -2.5000 0.9403
-15.1262 -1.2211 -2.5000 0.9403
-15.0648 -1.8292 -2.5000 0.9403
-14.9789 -2.4343 -2.5000 0.9403
-14.1893 -5.3812 -2.5000 0.9403
-13.9611 -5.9482 -2.5000 0.9403
-13.7102 -6.5056 -2.5000 0.9403
-13.1423 -7.5877 -2.5000 0.9403
-12.1319 -9.1165 -2.5000 0.9403
-11.7550 -9.5976 -2.5000 0.9403
-10.5124 -10.9445 -2.5000 0.9403
-9.5976 -11.7550 -2.5000 0.9403
-9.1165 -12.1319 -2.5000 0.9403
-8.1107 -12.8261 -2.5000 0.9403
-7.5877 -13.1423 -2.5000 0.9403
-5.6331 -13.2213 -2.3675 0.9434
-4.5126 -13.5169 -2.3476 0.9439
-3.9647 -13.6877 -2.3476 0.9439
-3.4103 -13.8362 -2.3476 0.9439
-1.7177 -14.1464 -2.3476 0.9439
-1.1467 -14.2041 -2.3476 0.9439
-0.5738 -14.2387 -2.3476 0.9439
0.0000 -14.2503 -2.3476 0.9439
0.5738 -14.2388 -2.3476 0.9439
1.1467 -14.2041 -2.3476 0.9439
2.8504 -13.9623 -2.3476 0.9439
3.9646 -13.6877 -2.3476 0.9439
4.5126 -13.5169 -2.3476 0.9439
6.2660 -13.2056 -2.4080 0.9425
6.9260 -13.1964 -2.4552 0.9414
8.1107 -12.8261 -2.5000 0.9403
9.5976 -11.7550 -2.5000 0.9403
10.0632 -11.3590 -2.5000 0.9403
10.5124 -10.9445 -2.5000 0.9403
10.9445 -10.5124 -2.5000 0.9403
11.3590 -10.0632 -2.5000 0.9403
11.7549 -9.5976 -2.5000 0.9403
12.8261 -8.1107 -2.5000 0.9403
13.1423 -7.5877 -2.5000 0.9403
13.4371 -7.0524 -2.5000 0.9403
14.1893 -5.3813 -2.5000 0.9403
14.5763 -4.2221 -2.5000 0.9403
15.0648 -1.8292 -2.5000 0.9403
15.1262 -1.2211 -2.5000 0.9403
6.5053 -0.2622 -1.0725 0.9740
6.4799 0.0000 -1.0675 0.9741
6.5039 0.2621 -1.0723 0.9740
14.9789 2.4343 -2.5000 0.9403
13.9623 2.8504 -2.3476 0.9439
13.6877 3.9647 -2.3476 0.9439
13.1372 4.9823 -2.3146 0.9446
10.5022 4.9834 -1.9150 0.9540
9.4887 4.9801 -1.7654 0.9575
10.3576 9.9486 -2.3659 0.9434
9.5354 10.7632 -2.3689 0.9434
9.0996 11.1449 -2.3702 0.9433
8.6482 11.5087 -2.3716 0.9433
8.1821 11.8538 -2.3728 0.9433
7.7020 12.1798 -2.3740 0.9433
7.2087 12.4858 -2.3751 0.9432
6.7030 12.7716 -2.3761 0.9432
6.1858 13.0364 -2.3771 0.9432
5.6580 13.2798 -2.3780 0.9432
5.1204 13.5014 -2.3788 0.9431
4.5740 13.7008 -2.3795 0.9431
4.0197 13.8776 -2.3802 0.9431
3.4585 14.0315 -2.3807 0.9431
2.3190 14.2695 -2.3816 0.9431
1.7428 14.3532 -2.3819 0.9431
1.1635 14.4130 -2.3821 0.9431
0.5823 14.4490 -2.3822 0.9431
-0.0000 14.4610 -2.3823 0.9431
-0.5823 14.4490 -2.3822 0.9431
-1.1636 14.4130 -2.3821 0.9431
-2.8913 14.1623 -2.3812 0.9431
-3.4585 14.0316 -2.3807 0.9431
-5.6581 13.2800 -2.3780 0.9432
-6.1859 13.0365 -2.3771 0.9432
-7.7021 12.1800 -2.3740 0.9433
-8.1823 11.8540 -2.3729 0.9433
-9.5356 10.7634 -2.3689 0.9434
-9.9552 10.3644 -2.3675 0.9434
-10.7428 9.5172 -2.3644 0.9435
-6.5669 4.9347 -1.3532 0.9672
-11.7857 8.1350 -2.3592 0.9436
-7.8052 4.9357 -1.5213 0.9633
-9.4442 4.9567 -1.7571 0.9577
-10.4738 4.9699 -1.9098 0.9541
-13.1645 4.9926 -2.3194 0.9445
-13.6877 3.9647 -2.3476 0.9439
-13.9623 2.8504 -2.3476 0.9439
-14.9789 2.4343 -2.5000 0.9403
-15.0648 1.8292 -2.5000 0.9403
-15.1262 1.2211 -2.5000 0.9403
-15.1631 0.6110 -2.5000 0.9403
-13.2574 -1.0703 -2.5000 0.9473
-13.2036 -1.6032 -2.5000 0.9473
-12.7754 -3.7004 -2.5000 0.9473
-12.6161 -4.2119 -2.5000 0.9473
-12.0164 -5.7018 -2.5000 0.9473
-11.7771 -6.1811 -2.5000 0.9473
-11.2415 -7.1087 -2.5000 0.9473
-10.9461 -7.5556 -2.5000 0.9473
-9.9556 -8.8199 -2.5000 0.9473
-7.9902 -10.6330 -2.5000 0.9473
-7.5556 -10.9461 -2.5000 0.9473
-6.6503 -11.5186 -2.5000 0.9473
-6.1811 -11.7771 -2.5000 0.9473
-5.7019 -12.0164 -2.5000 0.9473
-5.2134 -12.2362 -2.5000 0.9473
-3.1830 -12.9141 -2.5000 0.9473
-0.0000 -13.1965 -2.4804 0.9477
0.5318 -13.1958 -2.4823 0.9477
1.6018 -13.1922 -2.4978 0.9473
2.1336 -13.1283 -2.5000 0.9473
2.6604 -13.0318 -2.5000 0.9473
3.1830 -12.9141 -2.5000 0.9473
5.2143 -12.2362 -2.5000 0.9473
6.1811 -11.7771 -2.5000 0.9473
6.6503 -11.5186 -2.5000 0.9473
7.5556 -10.9462 -2.5000 0.9473
7.9902 -10.6330 -2.5000 0.9473
8.4119 -10.3027 -2.5000 0.9473
8.8199 -9.9556 -2.5000 0.9473
9.5924 -9.2136 -2.5000 0.9473
10.3027 -8.4119 -2.5000 0.9473
10.6330 -7.9902 -2.5000 0.9473
11.2415 -7.1087 -2.5000 0.9473
11.5186 -6.6503 -2.5000 0.9473
11.7771 -6.1811 -2.5000 0.9473
12.0164 -5.7018 -2.5000 0.9473
12.7754 -3.7005 -2.5000 0.9473
12.9141 -3.1830 -2.5000 0.9473
13.1283 -2.1336 -2.5000 0.9473
13.2036 -1.6032 -2.5000 0.9473
6.3665 -0.5140 -1.2006 0.9743
6.1222 -0.2467 -1.1517 0.9754
6.1093 0.0000 -1.1483 0.9754
6.1216 0.2467 -1.1516 0.9754
13.2036 1.6032 -2.5000 0.9473
13.1283 2.1336 -2.5000 0.9473
13.0317 2.6604 -2.5000 0.9473
11.9966 3.4749 -2.3476 0.9504
11.8470 3.9551 -2.3476 0.9504
11.4903 4.8956 -2.3476 0.9504
8.6209 4.9773 -1.8711 0.9603
7.1871 4.9609 -1.6415 0.9651
5.6071 4.9675 -1.4080 0.9700
8.7077 9.0657 -2.3627 0.9501
6.7347 10.6501 -2.3685 0.9500
5.4081 11.3972 -2.3712 0.9500
4.9463 11.6095 -2.3719 0.9499
4.4762 11.8028 -2.3726 0.9499
3.5137 12.1308 -2.3738 0.9499
2.5272 12.3789 -2.3747 0.9499
2.0270 12.4724 -2.3751 0.9499
0.5089 12.6288 -2.3756 0.9499
-1.5233 12.5453 -2.3753 0.9499
-2.5272 12.3790 -2.3747 0.9499
-3.0231 12.2650 -2.3743 0.9499
-3.5138 12.1309 -2.3739 0.9499
-5.4081 11.3974 -2.3712 0.9500
-5.8606 11.1664 -2.3704 0.9500
-6.3031 10.9172 -2.3695 0.9500
-7.1551 10.3659 -2.3675 0.9500
-8.3402 9.4142 -2.3640 0.9501
-8.7079 9.0659 -2.3628 0.9501
-9.0608 8.7030 -2.3614 0.9502
-6.0378 4.9297 -1.4651 0.9688
-6.5580 4.9280 -1.5419 0.9672
-7.8052 4.9358 -1.7358 0.9631
-8.5658 4.9455 -1.8591 0.9605
-11.4905 4.8956 -2.3476 0.9504
-11.8470 3.9551 -2.3476 0.9504
-13.0318 2.6605 -2.5000 0.9473
-13.1283 2.1336 -2.5000 0.9473
-13.2574 1.0702 -2.5000 0.9473
-13.2898 0.5356 -2.5000 0.9473
-11.8174 -0.4762 -2.5000 0.9528
-11.5880 -2.3657 -2.5000 0.9528
-11.0584 -4.1939 -2.5000 0.9528
-10.8806 -4.6358 -2.5000 0.9528
-10.4723 -5.4963 -2.5000 0.9528
-9.9960 -6.3211 -2.5000 0.9528
-9.7334 -6.7185 -2.5000 0.9528
-9.4550 -7.1050 -2.5000 0.9528
-9.1613 -7.4799 -2.5000 0.9528
-8.8526 -7.8427 -2.5000 0.9528
-8.5296 -8.1928 -2.5000 0.9528
-8.1928 -8.5296 -2.5000 0.9528
-5.0701 -10.6851 -2.5000 0.9528
-3.7452 -11.2183 -2.5000 0.9528
-3.2905 -11.3600 -2.5000 0.9528
-2.8304 -11.4833 -2.5000 0.9528
-1.8972 -11.6738 -2.5000 0.9528
-0.9517 -11.7886 -2.5000 0.9528
-0.4762 -11.8174 -2.5000 0.9528
-0.0000 -11.8270 -2.5000 0.9528
1.8972 -11.6738 -2.5000 0.9528
2.3657 -11.5880 -2.5000 0.9528
3.2905 -11.3600 -2.5000 0.9528
3.7452 -11.2183 -2.5000 0.9528
4.1939 -11.0584 -2.5000 0.9528
4.6358 -10.8806 -2.5000 0.9528
5.4963 -10.4723 -2.5000 0.9528
5.9135 -10.2425 -2.5000 0.9528
6.3211 -9.9960 -2.5000 0.9528
6.7185 -9.7334 -2.5000 0.9528
7.1050 -9.4550 -2.5000 0.9528
8.5296 -8.1928 -2.5000 0.9528
9.7334 -6.7185 -2.5000 0.9528
9.9960 -6.3211 -2.5000 0.9528
10.2424 -5.9135 -2.5000 0.9528
10.8806 -4.6358 -2.5000 0.9528
11.2183 -3.7452 -2.5000 0.9528
11.4833 -2.8304 -2.5000 0.9528
11.6738 -1.8972 -2.5000 0.9528
5.9654 -0.4816 -1.2651 0.9758
11.7408 1.4256 -2.5000 0.9528
11.5879 2.3657 -2.5000 0.9528
11.0241 2.7172 -2.4000 0.9546
10.6675 3.0899 -2.3476 0.9556
10.5344 3.5169 -2.3476 0.9556
10.3843 3.9382 -2.3476 0.9556
9.4887 4.9801 -2.2652 0.9571
8.6209 4.9773 -2.1042 0.9601
9.4020 5.9454 -2.3514 0.9555
9.1603 6.3229 -2.3528 0.9555
6.6149 4.9708 -1.7490 0.9667
4.7687 4.9648 -1.4551 0.9722
7.4040 8.3575 -2.3602 0.9554
5.5941 9.6894 -2.3650 0.9553
4.7995 10.1147 -2.3665 0.9553
3.9722 10.4738 -2.3678 0.9552
3.5481 10.6278 -2.3684 0.9552
2.2424 10.9840 -2.3697 0.9552
1.7985 11.0668 -2.3700 0.9552
0.9023 11.1775 -2.3704 0.9552
-0.0000 11.2145 -2.3705 0.9552
-0.4516 11.2053 -2.3705 0.9552
-0.9024 11.1775 -2.3704 0.9552
-1.3516 11.1313 -2.3702 0.9552
-3.1179 10.7644 -2.3689 0.9552
-3.9722 10.4739 -2.3679 0.9552
-4.7995 10.1148 -2.3666 0.9553
-5.2013 9.9102 -2.3658 0.9553
-6.3510 9.2010 -2.3632 0.9553
-7.0649 8.6529 -2.3613 0.9554
-5.5662 4.9313 -1.5718 0.9701
-8.5658 4.9455 -2.0907 0.9604
-10.0337 4.7610 -2.3476 0.9556
-10.2173 4.3532 -2.3476 0.9556
-10.3843 3.9382 -2.3476 0.9556
-10.5344 3.5169 -2.3476 0.9556
-10.6675 3.0899 -2.3476 0.9556
-11.5880 2.3657 -2.5000 0.9528
-11.6738 1.8972 -2.5000 0.9528
-11.7886 0.9517 -2.5000 0.9528
-10.6286 -0.4283 -2.5000 0.9572
-10.6027 -0.8559 -2.5000 0.9572
-10.5596 -1.2822 -2.5000 0.9572
-10.4222 -2.1277 -2.5000 0.9572
-10.2172 -2.9595 -2.5000 0.9572
-10.0898 -3.3685 -2.5000 0.9572
-9.9460 -3.7720 -2.5000 0.9572
-9.7860 -4.1694 -2.5000 0.9572
-8.5038 -6.3902 -2.5000 0.9572
-7.3687 -7.6716 -2.5000 0.9572
-7.0538 -7.9621 -2.5000 0.9572
-6.7274 -8.2396 -2.5000 0.9572
-5.6852 -8.9904 -2.5000 0.9572
-5.3186 -9.2121 -2.5000 0.9572
-4.5601 -9.6102 -2.5000 0.9572
-4.1694 -9.7860 -2.5000 0.9572
-3.3685 -10.0898 -2.5000 0.9572
-2.9595 -10.2172 -2.5000 0.9572
-2.5456 -10.3281 -2.5000 0.9572
-2.1277 -10.4222 -2.5000 0.9572
-1.2822 -10.5596 -2.5000 0.9572
-0.8559 -10.6027 -2.5000 0.9572
1.2822 -10.5596 -2.5000 0.9572
1.7063 -10.4995 -2.5000 0.9572
2.1277 -10.4222 -2.5000 0.9572
3.3685 -10.0898 -2.5000 0.9572
4.5601 -9.6102 -2.5000 0.9572
5.3186 -9.2121 -2.5000 0.9572
5.6852 -8.9904 -2.5000 0.9572
6.0426 -8.7542 -2.5000 0.9572
6.3902 -8.5038 -2.5000 0.9572
6.7274 -8.2396 -2.5000 0.9572
7.0538 -7.9620 -2.5000 0.9572
7.3686 -7.6716 -2.5000 0.9572
7.6716 -7.3687 -2.5000 0.9572
7.9621 -7.0538 -2.5000 0.9572
8.2396 -6.7275 -2.5000 0.9572
9.2121 -5.3186 -2.5000 0.9572
9.4188 -4.9433 -2.5000 0.9572
9.6102 -4.5601 -2.5000 0.9572
9.9459 -3.7720 -2.5000 0.9572
10.0898 -3.3685 -2.5000 0.9572
10.3281 -2.5457 -2.5000 0.9572
10.4222 -2.1277 -2.5000 0.9572
10.4994 -1.7063 -2.5000 0.9572
5.7981 -0.4681 -1.3671 0.9764
5.7808 -0.2330 -1.3597 0.9765
5.7762 0.0000 -1.3575 0.9765
5.7971 0.4680 -1.3669 0.9764
10.4994 1.7063 -2.5000 0.9572
10.4222 2.1277 -2.5000 0.9572
10.3281 2.5457 -2.5000 0.9572
9.5944 2.7790 -2.3476 0.9598
9.4747 3.1631 -2.3476 0.9598
9.0244 4.2821 -2.3476 0.9598
8.8446 4.6420 -2.3476 0.9598
8.6005 4.9655 -2.3340 0.9600
8.4483 5.3424 -2.3492 0.9598
6.0862 4.9693 -1.8466 0.9682
5.6071 4.9675 -1.7606 0.9697
3.7321 4.9665 -1.4601 0.9748
3.4239 4.9604 -1.4166 0.9755
5.0238 8.7014 -2.3614 0.9596
4.6707 8.8994 -2.3621 0.9595
4.3098 9.0828 -2.3628 0.9595
3.9416 9.2513 -2.3634 0.9595
3.5667 9.4048 -2.3640 0.9595
2.7995 9.6651 -2.3649 0.9595
2.4085 9.7716 -2.3653 0.9595
2.0133 9.8621 -2.3656 0.9595
1.2135 9.9941 -2.3661 0.9595
0.8102 10.0355 -2.3662 0.9595
-0.4054 10.0604 -2.3663 0.9595
-0.8102 10.0355 -2.3663 0.9595
-1.2135 9.9941 -2.3661 0.9595
-2.0134 9.8621 -2.3656 0.9595
-2.4085 9.7717 -2.3653 0.9595
-2.7996 9.6652 -2.3649 0.9595
-3.1859 9.5429 -2.3645 0.9595
-3.5668 9.4048 -2.3640 0.9595
-3.9417 9.2514 -2.3634 0.9595
-4.3099 9.0829 -2.3628 0.9595
-4.6708 8.8995 -2.3621 0.9595
-5.3684 8.4894 -2.3607 0.9596
-3.4086 4.9383 -1.4102 0.9756
-4.0303 4.9363 -1.4977 0.9742
-5.1233 4.9210 -1.6696 0.9712
-5.5662 4.9313 -1.7477 0.9699
-6.0378 4.9297 -1.8319 0.9685
-8.2303 5.6810 -2.3504 0.9597
-7.8052 4.9357 -2.1704 0.9628
-9.0244 4.2821 -2.3476 0.9598
-9.1895 3.9152 -2.3476 0.9598
-9.4747 3.1631 -2.3476 0.9598
-9.5944 2.7791 -2.3476 0.9598
-10.3281 2.5456 -2.5000 0.9572
-10.4222 2.1277 -2.5000 0.9572
-10.4994 1.7063 -2.5000 0.9572
-10.5596 1.2822 -2.5000 0.9572
-10.6027 0.8559 -2.5000 0.9572
-10.6286 0.4283 -2.5000 0.9572
-9.6477 -0.3888 -2.5000 0.9609
-9.6242 -0.7770 -2.5000 0.9609
-9.4604 -1.9314 -2.5000 0.9609
-9.2743 -2.6863 -2.5000 0.9609
-9.1586 -3.0576 -2.5000 0.9609
-8.8829 -3.7846 -2.5000 0.9609
-8.7233 -4.1393 -2.5000 0.9609
-8.5496 -4.4871 -2.5000 0.9609
-8.3619 -4.8278 -2.5000 0.9609
-8.1607 -5.1605 -2.5000 0.9609
-6.6886 -6.9636 -2.5000 0.9609
-6.1066 -7.4792 -2.5000 0.9609
-5.8005 -7.7190 -2.5000 0.9609
-5.1605 -8.1607 -2.5000 0.9609
-4.8278 -8.3619 -2.5000 0.9609
-4.4871 -8.5495 -2.5000 0.9609
-3.7846 -8.8829 -2.5000 0.9609
-3.4239 -9.0281 -2.5000 0.9609
-3.0576 -9.1586 -2.5000 0.9609
-2.3107 -9.3749 -2.5000 0.9609
-1.5488 -9.5305 -2.5000 0.9609
1.1638 -9.5851 -2.5000 0.9609
1.9313 -9.4604 -2.5000 0.9609
2.6863 -9.2743 -2.5000 0.9609
3.7846 -8.8829 -2.5000 0.9609
5.4850 -7.9463 -2.5000 0.9609
5.8005 -7.7190 -2.5000 0.9609
6.1066 -7.4792 -2.5000 0.9609
6.6886 -6.9636 -2.5000 0.9609
7.2272 -6.4028 -2.5000 0.9609
7.7190 -5.8005 -2.5000 0.9609
7.9463 -5.4850 -2.5000 0.9609
8.3619 -4.8278 -2.5000 0.9609
8.8829 -3.7846 -2.5000 0.9609
9.0280 -3.4239 -2.5000 0.9609
9.2743 -2.6863 -2.5000 0.9609
9.3749 -2.3107 -2.5000 0.9609
9.4604 -1.9314 -2.5000 0.9609
9.5305 -1.5489 -2.5000 0.9609
5.8819 -0.7142 -1.5341 0.9758
5.6407 -0.4554 -1.4652 0.9769
5.6218 -0.2266 -1.4568 0.9770
5.6205 -0.0000 -1.4552 0.9770
5.6213 0.2265 -1.4566 0.9770
5.6396 0.4553 -1.4649 0.9769
5.8491 0.7102 -1.5256 0.9759
9.4604 1.9314 -2.5000 0.9609
9.2743 2.6863 -2.5000 0.9609
8.3414 3.5539 -2.3476 0.9632
7.6628 4.8456 -2.3474 0.9632
7.4649 5.1527 -2.3485 0.9632
6.6149 4.9708 -2.1424 0.9664
6.0861 4.9692 -2.0343 0.9681
6.5533 6.2945 -2.3527 0.9632
4.7687 4.9648 -1.7824 0.9720
4.4150 4.9836 -1.7238 0.9729
4.0421 4.9507 -1.6548 0.9739
3.1362 4.9595 -1.5193 0.9760
4.5545 7.8885 -2.3585 0.9631
3.9070 8.2338 -2.3597 0.9630
2.1116 4.9562 -1.3948 0.9780
3.2332 8.5253 -2.3608 0.9630
2.8879 8.6503 -2.3612 0.9630
2.5377 8.7610 -2.3616 0.9630
2.1831 8.8574 -2.3620 0.9630
1.8250 8.9393 -2.3623 0.9630
1.0999 9.0588 -2.3627 0.9630
0.3675 9.1188 -2.3629 0.9630
-0.7343 9.0963 -2.3628 0.9630
-1.1000 9.0588 -2.3627 0.9630
-1.4637 9.0065 -2.3625 0.9630
-2.5377 8.7611 -2.3616 0.9630
-1.8792 4.9550 -1.3721 0.9783
-3.5732 8.3865 -2.3603 0.9630
-3.9070 8.2339 -2.3597 0.9630
-2.5932 4.9409 -1.4448 0.9772
-4.8670 7.6966 -2.3578 0.9631
-3.4086 4.9383 -1.5536 0.9755
-4.3618 4.9235 -1.7031 0.9732
-4.7391 4.9340 -1.7713 0.9721
-5.5662 4.9313 -1.9254 0.9697
-6.0378 4.9297 -2.0182 0.9683
-6.5580 4.9280 -2.1240 0.9667
-7.4648 5.1525 -2.3485 0.9632
-7.6633 4.8459 -2.3476 0.9632
-8.6003 2.8712 -2.3476 0.9632
-9.2694 2.6849 -2.4987 0.9609
-9.3749 2.3107 -2.5000 0.9609
-9.4604 1.9314 -2.5000 0.9609
-9.5305 1.5488 -2.5000 0.9609
-9.6242 0.7769 -2.5000 0.9609
-9.6477 0.3888 -2.5000 0.9609
-8.8238 -0.3556 -2.5000 0.9640
-8.8023 -0.7106 -2.5000 0.9640
-8.7666 -1.0645 -2.5000 0.9640
-8.5743 -2.1134 -2.5000 0.9640
-8.4823 -2.4569 -2.5000 0.9640
-8.1243 -3.4614 -2.5000 0.9640
-7.8194 -4.1040 -2.5000 0.9640
-6.8405 -5.5851 -2.5000 0.9640
-6.6101 -5.8560 -2.5000 0.9640
-6.3689 -6.1175 -2.5000 0.9640
-5.8560 -6.6101 -2.5000 0.9640
-5.5851 -6.8405 -2.5000 0.9640
-5.3051 -7.0599 -2.5000 0.9640
-4.7199 -7.4638 -2.5000 0.9640
-4.4155 -7.6479 -2.5000 0.9640
-4.1039 -7.8194 -2.5000 0.9640
-3.7858 -7.9783 -2.5000 0.9640
-3.4614 -8.1243 -2.5000 0.9640
-2.7965 -8.3765 -2.5000 0.9640
-2.4569 -8.4823 -2.5000 0.9640
-1.7664 -8.6525 -2.5000 0.9640
-1.4166 -8.7166 -2.5000 0.9640
-1.0645 -8.7666 -2.5000 0.9640
-0.7106 -8.8023 -2.5000 0.9640
-0.3556 -8.8238 -2.5000 0.9640
0.0000 -8.8310 -2.5000 0.9640
0.7106 -8.8023 -2.5000 0.9640
2.4569 -8.4823 -2.5000 0.9640
2.7965 -8.3765 -2.5000 0.9640
3.1315 -8.2571 -2.5000 0.9640
4.1039 -7.8194 -2.5000 0.9640
4.4155 -7.6478 -2.5000 0.9640
4.7199 -7.4639 -2.5000 0.9640
5.0166 -7.2678 -2.5000 0.9640
5.5851 -6.8405 -2.5000 0.9640
5.8560 -6.6101 -2.5000 0.9640
6.1174 -6.3689 -2.5000 0.9640
6.3689 -6.1174 -2.5000 0.9640
6.6101 -5.8560 -2.5000 0.9640
6.8405 -5.5851 -2.5000 0.9640
7.0598 -5.3051 -2.5000 0.9640
7.4638 -4.7199 -2.5000 0.9640
7.6478 -4.4155 -2.5000 0.9640
7.9783 -3.7858 -2.5000 0.9640
8.2571 -3.1315 -2.5000 0.9640
8.3765 -2.7965 -2.5000 0.9640
8.4823 -2.4569 -2.5000 0.9640
8.7166 -1.4166 -2.5000 0.9640
5.6378 -0.6846 -1.6077 0.9767
5.5357 0.2231 -1.5684 0.9772
8.6526 1.7664 -2.5000 0.9640
8.5744 2.1134 -2.5000 0.9640
7.7537 2.9406 -2.3476 0.9661
7.4920 3.5550 -2.3476 0.9661
7.3428 3.8538 -2.3476 0.9661
7.0088 4.4321 -2.3476 0.9661
6.8247 4.7107 -2.3476 0.9661
5.6071 4.9675 -2.1207 0.9693
4.4149 4.9835 -1.8847 0.9727
4.0658 4.9797 -1.8199 0.9736
3.7319 4.9663 -1.7586 0.9745
3.4158 4.9487 -1.7023 0.9753
3.1288 4.9478 -1.6572 0.9760
4.1612 7.2073 -2.3560 0.9660
3.5694 7.5225 -2.3571 0.9660
2.1116 4.9562 -1.5251 0.9779
1.6541 4.9547 -1.4787 0.9785
1.4349 4.9540 -1.4601 0.9788
1.9944 8.0915 -2.3592 0.9659
-0.0000 8.3368 -2.3601 0.9659
-0.1994 4.9487 -1.4021 0.9796
-0.3995 4.9480 -1.4053 0.9796
-1.2189 4.9454 -1.4419 0.9790
-1.4322 4.9447 -1.4573 0.9788
-2.6383 7.9025 -2.3585 0.9660
-1.8747 4.9433 -1.4967 0.9783
-2.1058 4.9425 -1.5209 0.9779
-2.8587 4.9515 -1.6186 0.9765
-3.7101 4.9373 -1.7484 0.9747
-4.0303 4.9362 -1.8040 0.9739
-4.7391 4.9340 -1.9367 0.9720
-5.5662 4.9313 -2.1051 0.9696
-6.5425 4.9164 -2.3168 0.9666
-7.1816 4.1463 -2.3476 0.9661
-7.4920 3.5550 -2.3476 0.9661
-7.6291 3.2504 -2.3476 0.9661
-7.7537 2.9406 -2.3476 0.9661
-8.4823 2.4569 -2.5000 0.9640
-8.6525 1.7664 -2.5000 0.9640
-8.7166 1.4166 -2.5000 0.9640
-8.8023 0.7106 -2.5000 0.9640
-8.1280 0.0000 -2.5000 0.9666
-8.0227 -1.3038 -2.5000 0.9666
-7.9637 -1.6258 -2.5000 0.9666
-7.8918 -1.9452 -2.5000 0.9666
-7.7097 -2.5739 -2.5000 0.9666
-7.5998 -2.8822 -2.5000 0.9666
-7.4775 -3.1859 -2.5000 0.9666
-7.1970 -3.7773 -2.5000 0.9666
-6.6892 -4.6172 -2.5000 0.9666
-6.2960 -5.1405 -2.5000 0.9666
-6.0839 -5.3898 -2.5000 0.9666
-5.8619 -5.6304 -2.5000 0.9666
-5.3898 -6.0839 -2.5000 0.9666
-5.1405 -6.2959 -2.5000 0.9666
-4.8828 -6.4978 -2.5000 0.9666
-4.3441 -6.8697 -2.5000 0.9666
-4.0640 -7.0390 -2.5000 0.9666
-3.7773 -7.1970 -2.5000 0.9666
-2.8822 -7.5998 -2.5000 0.9666
-1.3038 -8.0227 -2.5000 0.9666
-0.6540 -8.1016 -2.5000 0.9666
0.0000 -8.1280 -2.5000 0.9666
0.3273 -8.1214 -2.5000 0.9666
0.9797 -8.0687 -2.5000 0.9666
1.3038 -8.0227 -2.5000 0.9666
2.2613 -7.8071 -2.5000 0.9666
2.5739 -7.7097 -2.5000 0.9666
2.8822 -7.5998 -2.5000 0.9666
3.4844 -7.3432 -2.5000 0.9666
4.0640 -7.0390 -2.5000 0.9666
4.3441 -6.8697 -2.5000 0.9666
5.1405 -6.2960 -2.5000 0.9666
5.3898 -6.0839 -2.5000 0.9666
5.8619 -5.6304 -2.5000 0.9666
6.4978 -4.8828 -2.5000 0.9666
7.0390 -4.0640 -2.5000 0.9666
7.1969 -3.7772 -2.5000 0.9666
7.4776 -3.1859 -2.5000 0.9666
5.5303 -0.4465 -1.7065 0.9770
5.5093 -0.0000 -1.6945 0.9772
5.5154 0.2223 -1.6978 0.9772
5.5944 0.6793 -1.7334 0.9767
7.9637 1.6258 -2.5000 0.9666
7.8918 1.9451 -2.5000 0.9666
7.7097 2.5739 -2.5000 0.9666
6.8955 3.2720 -2.3476 0.9686
6.6099 3.8162 -2.3476 0.9686
6.2814 4.3357 -2.3476 0.9686
5.6071 4.9675 -2.3041 0.9691
5.5080 5.2905 -2.3490 0.9685
4.7687 4.9648 -2.1174 0.9716
4.0657 4.9796 -1.9773 0.9735
3.1362 4.9595 -1.8048 0.9757
2.6020 4.9578 -1.7222 0.9768
2.7160 7.1616 -2.3558 0.9685
1.4349 4.9540 -1.5864 0.9786
1.8338 7.4399 -2.3568 0.9684
0.8047 4.9519 -1.5431 0.9792
0.3996 4.9506 -1.5276 0.9794
0.3086 7.6589 -2.3576 0.9684
-0.1994 4.9487 -1.5233 0.9795
-0.3995 4.9480 -1.5268 0.9794
-0.9239 7.6087 -2.3575 0.9684
-1.2294 7.5648 -2.3573 0.9684
-1.2189 4.9454 -1.5666 0.9789
-1.4322 4.9447 -1.5834 0.9787
-2.4259 7.2663 -2.3562 0.9684
-1.8747 4.9433 -1.6261 0.9781
-2.3393 4.9300 -1.6784 0.9774
-4.0893 6.4667 -2.3533 0.9685
-3.4086 4.9383 -1.8456 0.9752
-4.7391 4.9339 -2.1042 0.9718
-5.5080 5.2906 -2.3491 0.9685
-5.9122 4.8271 -2.3476 0.9686
-6.1017 4.5851 -2.3476 0.9686
-6.4509 4.0793 -2.3476 0.9686
-6.7582 3.5470 -2.3476 0.9686
-7.1651 2.7173 -2.3570 0.9684
-7.8071 2.2613 -2.5000 0.9666
-7.9637 1.6258 -2.5000 0.9666
-8.0227 1.3038 -2.5000 0.9666
-8.1016 0.6540 -2.5000 0.9666
-8.1214 0.3273 -2.5000 0.9666
-7.5148 -0.3028 -2.5000 0.9688
-7.4235 -1.2064 -2.5000 0.9688
-7.1338 -2.3816 -2.5000 0.9688
-7.0322 -2.6670 -2.5000 0.9688
-6.7947 -3.2242 -2.5000 0.9688
-6.5133 -3.7604 -2.5000 0.9688
-6.3566 -4.0197 -2.5000 0.9688
-6.1896 -4.2724 -2.5000 0.9688
-6.0125 -4.5181 -2.5000 0.9688
-5.8257 -4.7565 -2.5000 0.9688
-5.6295 -4.9873 -2.5000 0.9688
-5.4241 -5.2099 -2.5000 0.9688
-4.2723 -6.1896 -2.5000 0.9688
-3.7604 -6.5133 -2.5000 0.9688
-3.2242 -6.7947 -2.5000 0.9688
-1.7999 -7.3023 -2.5000 0.9688
-1.5044 -7.3689 -2.5000 0.9688
-0.9065 -7.4660 -2.5000 0.9688
-0.6052 -7.4965 -2.5000 0.9688
-0.3028 -7.5148 -2.5000 0.9688
0.9065 -7.4661 -2.5000 0.9688
1.5044 -7.3689 -2.5000 0.9688
1.7999 -7.3023 -2.5000 0.9688
2.0924 -7.2240 -2.5000 0.9688
2.9479 -6.9191 -2.5000 0.9688
3.2241 -6.7947 -2.5000 0.9688
3.4951 -6.6594 -2.5000 0.9688
4.0196 -6.3566 -2.5000 0.9688
4.5181 -6.0125 -2.5000 0.9688
5.2099 -5.4241 -2.5000 0.9688
5.6295 -4.9873 -2.5000 0.9688
5.8257 -4.7566 -2.5000 0.9688
6.0125 -4.5181 -2.5000 0.9688
6.1896 -4.2724 -2.5000 0.9688
6.3566 -4.0197 -2.5000 0.9688
6.9191 -2.9479 -2.5000 0.9688
7.0321 -2.6669 -2.5000 0.9688
7.2239 -2.0925 -2.5000 0.9688
7.3023 -1.7999 -2.5000 0.9688
7.3689 -1.5044 -2.5000 0.9688
7.4235 -1.2064 -2.5000 0.9688
5.5549 -0.6745 -1.8600 0.9767
5.4999 -0.2216 -1.8297 0.9771
5.5471 0.6735 -1.8574 0.9767
7.1338 2.3816 -2.5000 0.9688
6.2535 3.2821 -2.3476 0.9707
6.1162 3.5312 -2.3476 0.9707
5.6460 4.2427 -2.3476 0.9707
5.2863 4.6832 -2.3476 0.9707
5.0934 4.8923 -2.3476 0.9707
4.4148 4.9833 -2.2130 0.9723
4.0656 4.9795 -2.1368 0.9733
3.4239 4.9604 -2.0035 0.9749
3.1362 4.9595 -1.9505 0.9756
2.6020 4.9578 -1.8612 0.9767
1.4349 4.9540 -1.7144 0.9785
0.1990 4.9383 -1.6428 0.9794
-0.1990 4.9370 -1.6424 0.9794
-0.8020 4.9350 -1.6619 0.9791
-1.2161 4.9337 -1.6891 0.9788
-2.2428 6.7179 -2.3542 0.9706
-1.8747 4.9433 -1.7574 0.9780
-2.3460 4.9442 -1.8191 0.9772
-3.7810 5.9792 -2.3516 0.9706
-3.4086 4.9383 -1.9946 0.9750
-3.7101 4.9373 -2.0529 0.9743
-4.0303 4.9362 -2.1183 0.9735
-5.0935 4.8924 -2.3476 0.9707
-5.2863 4.6832 -2.3476 0.9707
