ply
format ascii 1.0
element vertex 1573
property float32 x
property float32 y
property float32 z
property float32 I
end_header
16.6705 9.6247 -0.1084 0.9259
11.0119 8.2749 -0.0776 0.9464
8.5515 9.6526 -0.0726 0.9497
6.6627 9.6526 -0.0660 0.9542
6.1039 9.6526 -0.0643 0.9553
4.5802 9.6526 -0.0602 0.9582
3.1952 9.5708 -0.0568 0.9604
2.0120 8.1632 -0.0473 0.9669
1.6893 8.2749 -0.0476 0.9668
1.0044 8.2721 -0.0469 0.9672
0.6796 8.4180 -0.0475 0.9668
-0.7770 9.6248 -0.0544 0.9621
-1.1755 9.6811 -0.0549 0.9617
-1.5734 9.6811 -0.0552 0.9615
-1.9738 9.6681 -0.0556 0.9613
-2.3723 9.6247 -0.0558 0.9611
-2.8042 9.6811 -0.0567 0.9605
-3.2321 9.6811 -0.0575 0.9600
-3.6716 9.6811 -0.0583 0.9594
-4.1007 9.6247 -0.0589 0.9590
-4.5670 9.6248 -0.0600 0.9583
-5.3227 8.4171 -0.0561 0.9609
-5.7057 8.2661 -0.0566 0.9606
-6.2182 8.2749 -0.0583 0.9594
-6.6596 8.1566 -0.0593 0.9588
-33.2423 31.9296 -0.2595 0.8316
-33.9989 30.1204 -0.2557 0.8339
-33.0220 26.9616 -0.2400 0.8432
-32.3303 22.3160 -0.2212 0.8546
-13.3339 7.6983 -0.0867 0.9403
-33.7287 17.7022 -0.2145 0.8587
-32.8479 13.9952 -0.2010 0.8669
-32.0626 10.7041 -0.1903 0.8735
-32.0627 9.2871 -0.1879 0.8750
-32.0627 7.9028 -0.1859 0.8763
-49.5268 6.0136 -0.2809 0.8191
-44.4917 -16.8734 -1.3399 0.8266
-39.3240 -16.7544 -1.2036 0.8428
-40.8503 -23.5850 -1.3282 0.8280
-23.6595 -16.3310 -0.8095 0.8913
-22.1772 -21.3015 -0.8659 0.8842
-25.6806 -26.7363 -1.0439 0.8621
-12.6568 -24.1156 -0.7669 0.8967
-10.6586 -22.4625 -0.7001 0.9053
-6.0413 -15.9296 -0.4797 0.9341
-7.0933 -24.4889 -0.7179 0.9030
-6.6334 -26.9128 -0.7805 0.8950
-6.0253 -29.5139 -0.8482 0.8864
-4.4063 -27.1134 -0.7735 0.8959
-1.9896 -24.6459 -0.6962 0.9058
0.0000 -27.0016 -0.7603 0.8976
3.2395 -19.9335 -0.5686 0.9224
4.6189 -18.7396 -0.5435 0.9257
7.6498 -26.4099 -0.7742 0.8958
10.0856 -26.5935 -0.8009 0.8924
23.4954 -40.6951 -1.3231 0.8286
13.0520 -20.6401 -0.6876 0.9069
12.1737 -17.6367 -0.6034 0.9178
17.0844 -20.9245 -0.7606 0.8975
37.4203 0.0000 -1.0537 0.8609
16.9877 3.4681 -0.4882 0.9330
17.7097 8.4033 -0.5520 0.9246
16.2188 8.5122 -0.5158 0.9293
14.4043 9.1087 -0.4799 0.9341
12.8849 8.8938 -0.4408 0.9393
10.7882 8.1068 -0.3800 0.9474
10.1334 8.2737 -0.3684 0.9490
9.3328 8.9642 -0.3644 0.9495
9.2160 9.5948 -0.3746 0.9482
7.8811 9.6526 -0.3509 0.9514
6.6627 9.6526 -0.3303 0.9542
5.5729 9.6526 -0.3138 0.9564
5.0661 9.6526 -0.3070 0.9573
4.5802 9.6526 -0.3008 0.9581
3.6297 9.5708 -0.2882 0.9599
3.1952 9.5708 -0.2841 0.9604
2.4409 8.4270 -0.2470 0.9655
2.0121 8.1632 -0.2367 0.9669
1.6893 8.2749 -0.2378 0.9668
1.3448 8.2749 -0.2361 0.9670
1.0044 8.2721 -0.2346 0.9672
0.6796 8.4180 -0.2378 0.9668
-0.0000 9.6247 -0.2710 0.9622
-0.7151 8.8584 -0.2502 0.9651
-1.5747 9.6891 -0.2764 0.9615
-2.3723 9.6247 -0.2791 0.9611
-2.8042 9.6811 -0.2838 0.9605
-3.2321 9.6811 -0.2874 0.9600
-3.6716 9.6811 -0.2915 0.9594
-4.0158 9.4254 -0.2885 0.9598
-4.5670 9.6248 -0.3000 0.9583
-5.0291 8.7107 -0.2832 0.9606
-5.3227 8.4171 -0.2804 0.9609
-6.1007 8.1185 -0.2859 0.9602
-6.6596 8.1566 -0.2965 0.9587
-32.0348 33.3517 -1.3021 0.8311
-32.9290 31.6288 -1.2856 0.8330
-33.9858 30.1088 -1.2785 0.8339
-32.9109 26.8709 -1.1963 0.8437
-32.4152 20.4982 -1.0799 0.8577
-32.8759 17.2546 -1.0455 0.8619
-32.7285 13.9443 -1.0017 0.8673
-31.9809 12.1288 -0.9631 0.8721
-32.0626 10.7041 -0.9518 0.8735
-32.0627 9.2871 -0.9399 0.8750
-32.0627 7.9028 -0.9298 0.8762
-31.9809 6.5290 -0.9191 0.8776
-37.5261 6.0986 -1.0705 0.8589
-49.5268 6.0136 -1.4048 0.8190
-49.1356 -3.9666 -2.5000 0.8208
-48.6571 -7.9076 -2.5000 0.8208
-45.6550 -13.2241 -2.4105 0.8267
-43.9220 -14.6633 -2.3483 0.8307
-41.9122 -17.8571 -2.3104 0.8332
-35.1043 -16.6572 -1.9705 0.8559
-31.5831 -16.5761 -1.8089 0.8669
-28.6924 -16.5656 -1.6802 0.8757
-19.9746 -16.3087 -1.3078 0.9019
-18.3669 -16.2717 -1.2444 0.9064
-16.9055 -16.2380 -1.1888 0.9104
-15.4917 -16.1286 -1.1341 0.9143
-26.0893 -37.7968 -2.3291 0.8320
-24.5358 -38.8002 -2.3281 0.8320
-22.9444 -39.7409 -2.3272 0.8321
-12.4703 -23.7603 -1.3609 0.8981
-10.5345 -22.2010 -1.2462 0.9063
-10.9609 -44.4701 -2.3228 0.8324
-7.3451 -45.1961 -2.3222 0.8324
-1.0096 -25.0531 -1.2716 0.9045
0.0000 -42.4286 -2.1517 0.8437
3.3084 -40.9821 -2.0851 0.8482
5.3200 -43.8140 -2.2383 0.8380
7.9096 -18.5646 -1.0234 0.9224
9.9454 -15.7274 -0.9437 0.9282
12.6292 -15.4680 -1.0127 0.9231
13.7598 -15.5316 -1.0523 0.9203
23.4730 -20.7953 -1.5904 0.8820
19.0072 -15.5189 -1.2444 0.9064
40.5696 -28.0032 -2.5000 0.8208
41.7495 -24.1041 -2.4448 0.8244
41.8214 -19.8445 -2.3476 0.8308
43.2826 -16.4149 -2.3476 0.8308
47.8630 -11.7972 -2.5000 0.8208
48.2992 -9.8604 -2.5000 0.8208
48.9361 -5.9419 -2.5000 0.8208
35.9176 0.0000 -1.8215 0.8660
49.2555 1.9849 -2.5000 0.8208
46.1403 3.7248 -2.3476 0.8308
45.9529 5.5797 -2.3476 0.8308
45.6974 7.4266 -2.3479 0.8308
16.9877 3.4681 -0.8793 0.9329
43.3382 16.4360 -2.3506 0.8306
42.6191 18.1583 -2.3494 0.8307
17.7097 8.4033 -0.9941 0.9245
16.1287 8.4650 -0.9238 0.9296
13.0084 8.2260 -0.7805 0.9402
12.8850 8.8939 -0.7940 0.9392
10.1334 8.2737 -0.6634 0.9490
9.7462 8.6344 -0.6603 0.9492
9.4351 9.0625 -0.6635 0.9490
9.2160 9.5948 -0.6747 0.9481
7.8811 9.6526 -0.6320 0.9513
7.2534 9.6526 -0.6123 0.9528
6.1039 9.6526 -0.5792 0.9553
5.0661 9.6526 -0.5529 0.9573
1.9995 8.1122 -0.4237 0.9671
0.3479 8.6339 -0.4382 0.9660
-0.3878 9.6236 -0.4885 0.9622
-1.1763 9.6879 -0.4949 0.9617
-1.5736 9.6827 -0.4975 0.9615
-3.6716 9.6811 -0.5251 0.9594
-3.8562 9.0509 -0.4989 0.9614
-5.3227 8.4171 -0.5051 0.9609
-5.7057 8.2661 -0.5094 0.9606
-6.1007 8.1185 -0.5150 0.9601
-31.6911 32.9940 -2.3201 0.8326
-31.4632 30.2208 -2.2125 0.8397
-33.9863 30.1092 -2.3027 0.8337
-32.9109 26.8709 -2.1547 0.8435
-32.0663 20.2775 -1.9241 0.8590
-13.3339 7.6983 -0.7808 0.9402
-32.8758 17.2546 -1.8830 0.8618
-32.3224 15.3372 -1.8144 0.8665
-32.0627 7.9028 -1.6747 0.8761
-31.9809 6.5290 -1.6553 0.8775
-45.9862 5.5837 -2.3493 0.8307
-46.1477 3.7254 -2.3480 0.8307
-49.2555 1.9849 -2.5000 0.8208
-34.0682 -1.3729 -2.5000 0.8722
-33.9853 -2.7436 -2.5000 0.8722
-33.8473 -4.1098 -2.5000 0.8722
-33.6544 -5.4694 -2.5000 0.8722
-30.9984 -13.2072 -2.4706 0.8736
-28.9268 -13.7259 -2.3476 0.8795
-28.3528 -14.8807 -2.3478 0.8795
-27.7392 -16.0152 -2.3485 0.8794
-27.0814 -17.1253 -2.3494 0.8794
-21.7576 -16.3498 -1.9955 0.8966
-15.6592 -16.3030 -1.6575 0.9133
-14.3935 -16.2469 -1.5915 0.9166
-13.1880 -16.1524 -1.5289 0.9198
-17.0641 -26.9847 -2.3410 0.8798
-8.4197 -16.0425 -1.3284 0.9299
-9.3563 -21.9601 -1.7502 0.9087
-6.0292 -15.8978 -1.2467 0.9341
-3.9286 -15.9391 -1.2037 0.9363
-3.2508 -15.9235 -1.1916 0.9369
-2.5853 -15.9081 -1.1817 0.9374
-1.9298 -15.8930 -1.1739 0.9378
-1.2818 -15.8781 -1.1680 0.9381
0.0000 -15.8486 -1.1621 0.9384
0.6381 -15.8339 -1.1619 0.9384
1.2771 -15.8192 -1.1637 0.9383
1.9190 -15.8044 -1.1673 0.9381
2.5660 -15.7895 -1.1729 0.9379
3.8843 -15.7591 -1.1901 0.9370
8.2912 -15.7976 -1.3082 0.9309
9.0301 -15.6406 -1.3242 0.9301
18.1549 -26.3019 -2.3433 0.8797
24.0047 -21.2663 -2.3514 0.8793
18.8784 -15.4137 -1.7870 0.9069
30.1905 -15.8452 -2.5000 0.8722
32.7498 -9.4861 -2.5000 0.8722
33.1052 -8.1597 -2.5000 0.8722
33.8474 -4.1098 -2.5000 0.8722
34.0683 -1.3729 -2.5000 0.8722
33.9854 2.7436 -2.5000 0.8722
33.8473 4.1098 -2.5000 0.8722
33.6545 5.4694 -2.5000 0.8722
31.8804 12.0906 -2.5000 0.8722
31.3677 13.3645 -2.5000 0.8722
16.1283 7.6529 -1.3089 0.9309
14.4895 7.6047 -1.1998 0.9365
14.4032 8.3157 -1.2195 0.9355
12.8850 8.8939 -1.1480 0.9391
10.8766 8.1733 -0.9976 0.9469
9.6800 8.5757 -0.9482 0.9495
8.2198 8.5578 -0.8700 0.9535
7.6523 8.6377 -0.8461 0.9548
7.2655 8.8987 -0.8423 0.9550
7.2534 9.6526 -0.8853 0.9527
6.6627 9.6526 -0.8600 0.9540
6.1039 9.6526 -0.8374 0.9552
5.5729 9.6526 -0.8172 0.9563
4.6170 8.7970 -0.7285 0.9609
3.1952 9.5708 -0.7398 0.9603
1.6893 8.2749 -0.6192 0.9667
1.3448 8.2749 -0.6147 0.9669
1.0044 8.2721 -0.6110 0.9671
0.6796 8.4180 -0.6192 0.9667
0.3619 8.9814 -0.6591 0.9646
-0.3878 9.6236 -0.7062 0.9621
-1.1764 9.6881 -0.7156 0.9616
-1.5736 9.6826 -0.7193 0.9614
-2.1261 8.6258 -0.6514 0.9650
-3.8561 9.0506 -0.7213 0.9613
-3.9567 8.3386 -0.6767 0.9637
-5.1261 8.8787 -0.7517 0.9597
-5.3227 8.4171 -0.7302 0.9608
-6.2182 8.2749 -0.7589 0.9593
-6.6596 8.1566 -0.7721 0.9586
-22.2608 25.1272 -2.4614 0.8740
-24.2105 23.2545 -2.4614 0.8740
-26.0032 21.2309 -2.4614 0.8740
-4.6029 3.4588 -0.4222 0.9772
-26.6311 16.8405 -2.3103 0.8813
-27.9443 14.6663 -2.3140 0.8811
-29.5677 11.2135 -2.3186 0.8809
-30.3091 10.1187 -2.3429 0.8797
-31.0734 7.6589 -2.3466 0.8795
-25.8503 -3.1388 -2.5000 0.9006
-25.7029 -4.1771 -2.5000 0.9006
-25.2835 -6.2318 -2.5000 0.9006
-25.0120 -7.2448 -2.5000 0.9006
-24.3480 -9.2340 -2.5000 0.9006
-22.5515 -13.0201 -2.5000 0.9006
-20.9071 -13.2209 -2.3748 0.9054
-18.9422 -15.4658 -2.3477 0.9064
-17.6449 -16.9487 -2.3489 0.9064
-16.9626 -17.6600 -2.3509 0.9063
-14.3331 -16.1787 -2.0751 0.9168
-13.1880 -16.1524 -2.0019 0.9196
-11.1162 -16.1046 -1.8787 0.9244
-10.4116 -21.9421 -2.3317 0.9070
-9.4045 -22.0732 -2.3035 0.9081
-5.3320 -15.9714 -1.6165 0.9346
-6.7962 -23.4632 -2.3452 0.9065
-3.9286 -15.9391 -1.5760 0.9362
-3.2508 -15.9235 -1.5603 0.9368
-2.5853 -15.9081 -1.5473 0.9373
-1.2818 -15.8781 -1.5293 0.9380
-0.6393 -15.8633 -1.5242 0.9382
0.0000 -24.4204 -2.3445 0.9065
3.9182 -24.1093 -2.3450 0.9065
6.7980 -23.4693 -2.3458 0.9065
8.6671 -22.8534 -2.3465 0.9065
7.9059 -18.5558 -1.9364 0.9221
10.4820 -22.0903 -2.3474 0.9064
10.7683 -15.6006 -1.8199 0.9267
12.6292 -15.4680 -1.9171 0.9229
18.9412 -15.4650 -2.3476 0.9064
19.5486 -14.6898 -2.3476 0.9064
20.1242 -13.8907 -2.3476 0.9064
22.5514 -13.0201 -2.5000 0.9006
24.3480 -9.2343 -2.5000 0.9006
24.7001 -8.2461 -2.5000 0.9006
25.5139 -5.2087 -2.5000 0.9006
12.3354 -1.4978 -1.1930 0.9513
25.9557 -2.0954 -2.5000 0.9006
26.0190 -1.0485 -2.5000 0.9006
25.9557 2.0954 -2.5000 0.9006
25.7029 4.1771 -2.5000 0.9006
16.9877 3.4681 -1.6645 0.9327
23.7423 5.8520 -2.3476 0.9064
23.2451 7.7604 -2.3527 0.9062
22.9220 8.6932 -2.3536 0.9062
22.5624 9.6129 -2.3545 0.9061
14.8009 7.0231 -1.5728 0.9363
14.4020 7.5587 -1.5615 0.9367
10.1334 8.2737 -1.2559 0.9488
9.6411 8.5413 -1.2366 0.9496
7.2274 8.8520 -1.0971 0.9551
6.6627 9.6526 -1.1260 0.9540
6.1039 9.6526 -1.0964 0.9551
4.7598 8.2442 -0.9139 0.9625
4.3308 8.2517 -0.8947 0.9632
3.9329 8.2884 -0.8808 0.9638
3.3078 8.7220 -0.8955 0.9632
3.1952 9.5708 -0.9687 0.9603
2.4409 8.4271 -0.8423 0.9654
2.0120 8.1632 -0.8072 0.9668
1.3448 8.2749 -0.8049 0.9669
0.6796 8.4180 -0.8108 0.9666
0.3506 8.6997 -0.8359 0.9656
-0.0000 9.6246 -0.9240 0.9621
-0.3878 9.6236 -0.9247 0.9620
-1.5734 9.6811 -0.9416 0.9614
-1.9739 9.6690 -0.9474 0.9611
-3.2321 9.6811 -0.9799 0.9598
-4.8342 9.2108 -0.9987 0.9591
-5.7057 8.2661 -0.9643 0.9604
-6.7088 8.2168 -1.0184 0.9583
-17.0013 19.1904 -2.4614 0.9021
-17.7602 18.4903 -2.4614 0.9021
-19.8595 16.2147 -2.4614 0.9021
-21.0998 14.5642 -2.4614 0.9021
-21.6691 13.7028 -2.4614 0.9021
-23.1629 10.9909 -2.4614 0.9021
-24.6259 7.1330 -2.4614 0.9021
-21.0462 0.0000 -2.5000 0.9187
-21.0291 -0.8475 -2.5000 0.9187
-20.9779 -1.6935 -2.5000 0.9187
-20.8927 -2.5368 -2.5000 0.9187
-20.7736 -3.3761 -2.5000 0.9187
-20.6208 -4.2098 -2.5000 0.9187
-20.4346 -5.0367 -2.5000 0.9187
-20.2152 -5.8554 -2.5000 0.9187
-19.9630 -6.6646 -2.5000 0.9187
-19.3620 -8.2494 -2.5000 0.9187
-19.0141 -9.0223 -2.5000 0.9187
-18.2265 -10.5231 -2.5000 0.9187
-14.9220 -13.2197 -2.3681 0.9228
-14.2532 -13.6904 -2.3476 0.9235
-13.6904 -14.2532 -2.3476 0.9235
-12.4991 -15.3086 -2.3476 0.9235
-11.2300 -16.2694 -2.3483 0.9235
-9.1991 -17.5275 -2.3513 0.9234
-7.6033 -16.0237 -2.1068 0.9310
-6.0292 -15.8978 -2.0197 0.9338
-5.3320 -15.9714 -2.0001 0.9344
-3.9286 -15.9391 -1.9500 0.9360
-1.2818 -15.8781 -1.8922 0.9378
-0.6393 -15.8633 -1.8859 0.9381
0.6400 -15.8811 -1.8880 0.9380
1.2771 -15.8192 -1.8852 0.9381
1.9190 -15.8044 -1.8911 0.9379
2.5660 -15.7895 -1.9002 0.9376
3.2204 -15.7744 -1.9124 0.9372
3.8843 -15.7591 -1.9280 0.9367
4.5602 -15.7436 -1.9470 0.9361
9.8835 -17.1187 -2.3480 0.9235
11.2269 -16.2648 -2.3476 0.9235
11.8726 -15.7996 -2.3476 0.9235
12.4991 -15.3086 -2.3476 0.9235
13.1054 -14.7929 -2.3476 0.9235
16.1513 -13.1872 -2.4768 0.9194
17.3206 -11.9556 -2.5000 0.9187
17.7880 -11.2484 -2.5000 0.9187
18.2265 -10.5231 -2.5000 0.9187
19.3620 -8.2494 -2.5000 0.9187
19.6785 -7.4631 -2.5000 0.9187
20.2152 -5.8554 -2.5000 0.9187
11.6645 -2.3813 -1.4142 0.9532
11.5764 -1.4056 -1.3852 0.9541
21.0461 0.0000 -2.5000 0.9187
21.0291 0.8474 -2.5000 0.9187
20.9779 1.6935 -2.5000 0.9187
20.8927 2.5368 -2.5000 0.9187
19.5072 3.1702 -2.3476 0.9235
19.1889 4.7296 -2.3476 0.9235
18.7461 6.2583 -2.3476 0.9235
18.1669 7.7402 -2.3457 0.9235
14.4022 7.5588 -1.9321 0.9366
12.8869 7.4402 -1.7676 0.9418
11.0119 8.2749 -1.6362 0.9460
8.1129 8.4465 -1.3912 0.9539
6.7944 8.3216 -1.2761 0.9576
4.7417 8.2128 -1.1265 0.9625
3.4991 8.2128 -1.0604 0.9647
3.3078 8.7220 -1.1081 0.9631
2.4409 8.4271 -1.0422 0.9653
2.0255 8.2178 -1.0054 0.9665
1.6660 8.1608 -0.9894 0.9670
1.0044 8.2721 -0.9898 0.9670
0.6815 8.4421 -1.0061 0.9665
-0.3878 9.6237 -1.1441 0.9619
-0.6486 8.0338 -0.9574 0.9681
-1.1586 9.5419 -1.1418 0.9620
-1.5410 9.4818 -1.1411 0.9620
-3.4078 8.9857 -1.1416 0.9620
-3.8040 8.9283 -1.1528 0.9617
-3.8162 8.0425 -1.0574 0.9648
-4.7989 9.1434 -1.2266 0.9593
-5.0291 8.7107 -1.1948 0.9603
-6.6596 8.1566 -1.2508 0.9585
-14.9442 14.3541 -2.4614 0.9199
-15.5101 13.7407 -2.4614 0.9199
-16.0508 13.1051 -2.4614 0.9199
-19.0631 8.1220 -2.4614 0.9199
-19.3777 7.3489 -2.4618 0.9199
-20.5489 4.1951 -2.4913 0.9190
-20.7601 3.3739 -2.4984 0.9188
-20.9734 1.6932 -2.4994 0.9187
-17.6441 0.0000 -2.5000 0.9312
-17.5155 -2.1268 -2.5000 0.9312
-17.1314 -4.2225 -2.5000 0.9312
-16.4975 -6.2567 -2.5000 0.9312
-16.2322 -6.9159 -2.5000 0.9312
-15.2803 -8.8221 -2.5000 0.9312
-14.9126 -9.4302 -2.5000 0.9312
-14.5208 -10.0230 -2.5000 0.9312
-13.6672 -11.1589 -2.5000 0.9312
-12.7250 -12.2225 -2.5000 0.9312
-12.2225 -12.7250 -2.5000 0.9312
-9.9534 -13.2456 -2.3476 0.9353
-9.4120 -13.6356 -2.3476 0.9353
-8.2843 -14.3488 -2.3476 0.9353
-6.4943 -15.2427 -2.3476 0.9353
-5.8753 -15.4919 -2.3476 0.9353
-4.6101 -15.9159 -2.3478 0.9352
-2.6583 -16.3572 -2.3480 0.9352
-1.9975 -16.4513 -2.3481 0.9352
-1.3335 -16.5185 -2.3481 0.9352
0.6673 -16.5586 -2.3481 0.9352
1.9975 -16.4504 -2.3480 0.9352
2.6581 -16.3560 -2.3479 0.9352
3.9652 -16.0875 -2.3477 0.9353
4.6097 -15.9144 -2.3476 0.9353
5.2467 -15.7159 -2.3476 0.9353
7.1028 -14.9689 -2.3476 0.9353
8.2843 -14.3488 -2.3476 0.9353
9.4120 -13.6356 -2.3476 0.9353
9.9534 -13.2456 -2.3476 0.9353
11.6813 -13.1854 -2.4959 0.9313
13.2068 -11.7002 -2.5000 0.9312
14.5208 -10.0230 -2.5000 0.9312
15.2803 -8.8221 -2.5000 0.9312
15.6231 -8.1996 -2.5000 0.9312
15.9406 -7.5639 -2.5000 0.9312
16.9475 -4.9089 -2.5000 0.9312
17.1314 -4.2225 -2.5000 0.9312
11.3521 -2.3175 -1.6417 0.9543
11.3144 -1.8388 -1.6242 0.9547
11.3897 -1.3830 -1.6257 0.9547
11.5819 -0.9350 -1.6464 0.9541
17.6298 -0.7104 -2.5000 0.9312
17.6441 -0.0000 -2.5000 0.9312
17.6298 0.7104 -2.5000 0.9312
17.5869 1.4198 -2.5000 0.9312
16.0871 3.9651 -2.3476 0.9353
15.9144 4.6096 -2.3476 0.9353
15.7158 5.2467 -2.3476 0.9353
14.2615 7.4850 -2.2821 0.9370
12.8849 8.8938 -2.2183 0.9387
11.0119 8.2749 -1.9517 0.9459
10.1334 8.2737 -1.8536 0.9485
9.7453 8.6336 -1.8447 0.9488
8.7937 8.4465 -1.7276 0.9519
7.4829 8.4465 -1.5989 0.9554
6.4403 7.8880 -1.4428 0.9597
7.2534 9.6526 -1.7108 0.9524
6.1039 9.6526 -1.6182 0.9549
4.3104 8.2128 -1.3142 0.9632
3.8970 8.2128 -1.2880 0.9639
3.4991 8.2128 -1.2649 0.9646
3.1893 8.4095 -1.2743 0.9643
2.4409 8.4270 -1.2431 0.9652
1.6550 8.1066 -1.1723 0.9671
1.0044 8.2721 -1.1807 0.9669
0.6796 8.4180 -1.1966 0.9665
0.3506 8.6997 -1.2337 0.9654
-0.0000 9.6246 -1.3637 0.9619
-0.3878 9.6239 -1.3647 0.9618
-1.4310 8.8053 -1.2640 0.9646
-2.1303 8.6428 -1.2612 0.9647
-2.2218 7.6705 -1.1315 0.9683
-2.9250 8.7615 -1.3088 0.9634
-3.7315 8.7582 -1.3489 0.9623
-3.8550 8.1243 -1.2741 0.9643
-3.9793 7.5819 -1.2132 0.9660
-5.3227 8.4171 -1.4111 0.9606
-6.6596 8.1566 -1.4920 0.9584
-11.3148 11.7800 -2.3143 0.9361
-12.2173 10.8236 -2.3127 0.9362
-12.6369 10.3177 -2.3115 0.9362
-13.4135 9.2587 -2.3093 0.9363
-14.6825 9.2846 -2.4614 0.9322
-15.0444 8.6859 -2.4614 0.9322
-15.6972 7.4484 -2.4618 0.9322
-16.3176 6.1885 -2.4727 0.9319
-16.8494 4.8805 -2.4855 0.9316
-17.0901 4.2123 -2.4940 0.9314
-17.5869 1.4198 -2.5000 0.9312
-17.6299 0.7104 -2.5000 0.9312
-15.1262 -1.2211 -2.5000 0.9403
-15.0648 -1.8292 -2.5000 0.9403
-14.9789 -2.4343 -2.5000 0.9403
-14.7345 -3.6317 -2.5000 0.9403
-14.5763 -4.2221 -2.5000 0.9403
-14.3944 -4.8056 -2.5000 0.9403
-13.9611 -5.9483 -2.5000 0.9403
-13.7103 -6.5056 -2.5000 0.9403
-12.8261 -8.1107 -2.5000 0.9403
-12.4891 -8.6206 -2.5000 0.9403
-12.1319 -9.1165 -2.5000 0.9403
-10.9446 -10.5124 -2.5000 0.9403
-10.5124 -10.9446 -2.5000 0.9403
-9.1165 -12.1319 -2.5000 0.9403
-8.6206 -12.4891 -2.5000 0.9403
-8.1108 -12.8261 -2.5000 0.9403
-7.5877 -13.1423 -2.5000 0.9403
-6.9280 -13.2003 -2.4559 0.9414
-4.5126 -13.5169 -2.3476 0.9439
-1.7177 -14.1464 -2.3476 0.9439
-1.1467 -14.2041 -2.3476 0.9439
-0.5738 -14.2387 -2.3476 0.9439
-0.0000 -14.2503 -2.3476 0.9439
0.5738 -14.2388 -2.3476 0.9439
1.1467 -14.2041 -2.3476 0.9439
2.2859 -14.0658 -2.3476 0.9439
2.8504 -13.9623 -2.3476 0.9439
4.5126 -13.5169 -2.3476 0.9439
6.2653 -13.2039 -2.4077 0.9425
6.9252 -13.1949 -2.4549 0.9414
7.5877 -13.1423 -2.5000 0.9403
8.1107 -12.8261 -2.5000 0.9403
9.5976 -11.7550 -2.5000 0.9403
10.0632 -11.3590 -2.5000 0.9403
10.5124 -10.9446 -2.5000 0.9403
11.3590 -10.0632 -2.5000 0.9403
11.7551 -9.5976 -2.5000 0.9403
12.1319 -9.1165 -2.5000 0.9403
12.4891 -8.6206 -2.5000 0.9403
12.8261 -8.1107 -2.5000 0.9403
13.1423 -7.5877 -2.5000 0.9403
13.9611 -5.9482 -2.5000 0.9403
14.3944 -4.8056 -2.5000 0.9403
14.5762 -4.2221 -2.5000 0.9403
14.7344 -3.6317 -2.5000 0.9403
11.2456 -2.2958 -1.8908 0.9545
11.2784 -1.3695 -1.8716 0.9550
11.4750 -0.9264 -1.8965 0.9544
15.1262 1.2211 -2.5000 0.9403
15.0648 1.8292 -2.5000 0.9403
14.9789 2.4343 -2.5000 0.9403
13.9623 2.8504 -2.3476 0.9439
13.8362 3.4103 -2.3476 0.9439
13.6877 3.9647 -2.3476 0.9439
13.5169 4.5126 -2.3476 0.9439
12.8744 6.1090 -2.3476 0.9439
12.2959 7.0991 -2.3390 0.9441
11.9951 7.5853 -2.3380 0.9441
7.4829 8.4465 -1.8590 0.9553
6.0115 8.7091 -1.7433 0.9580
5.6163 8.8814 -1.7311 0.9583
4.7417 8.2128 -1.5623 0.9623
4.3104 8.2128 -1.5280 0.9631
2.0120 8.1632 -1.3850 0.9665
1.6893 8.2749 -1.3913 0.9663
0.6796 8.4180 -1.3913 0.9663
-0.0000 9.6246 -1.5855 0.9617
-0.3879 9.6241 -1.5867 0.9617
-0.6210 7.6928 -1.2714 0.9692
-1.0418 8.5800 -1.4238 0.9656
-2.1159 8.5843 -1.4565 0.9648
-2.2157 7.6493 -1.3119 0.9682
-3.2546 8.5816 -1.5120 0.9635
-3.6556 8.5799 -1.5364 0.9629
-6.6596 8.1566 -1.7347 0.9582
-9.3174 10.5171 -2.3147 0.9446
-10.8820 8.8849 -2.3143 0.9446
-4.6029 3.4588 -0.9485 0.9769
-11.8682 7.5050 -2.3133 0.9447
-12.4498 6.5341 -2.3163 0.9446
-12.7491 6.0495 -2.3247 0.9444
-13.0223 5.5483 -2.3319 0.9442
-14.0952 5.3456 -2.4834 0.9407
-14.9789 2.4343 -2.5000 0.9403
-15.0648 1.8292 -2.5000 0.9403
-15.1262 1.2211 -2.5000 0.9403
-15.1631 0.6111 -2.5000 0.9403
-13.2898 -0.5356 -2.5000 0.9473
-13.2574 -1.0703 -2.5000 0.9473
-13.1283 -2.1336 -2.5000 0.9473
-12.9141 -3.1830 -2.5000 0.9473
-12.7754 -3.7004 -2.5000 0.9473
-12.6161 -4.2119 -2.5000 0.9473
-12.0164 -5.7018 -2.5000 0.9473
-11.5186 -6.6503 -2.5000 0.9473
-11.2415 -7.1087 -2.5000 0.9473
-10.9462 -7.5556 -2.5000 0.9473
-10.6330 -7.9902 -2.5000 0.9473
-10.3027 -8.4119 -2.5000 0.9473
-9.2136 -9.5924 -2.5000 0.9473
-8.8199 -9.9556 -2.5000 0.9473
-8.4119 -10.3027 -2.5000 0.9473
-7.1087 -11.2415 -2.5000 0.9473
-6.6503 -11.5186 -2.5000 0.9473
-6.1812 -11.7771 -2.5000 0.9473
-5.7019 -12.0164 -2.5000 0.9473
-5.2128 -12.2362 -2.5000 0.9473
-4.2119 -12.6161 -2.5000 0.9473
-3.7005 -12.7754 -2.5000 0.9473
-2.6605 -13.0318 -2.5000 0.9473
-2.1336 -13.1283 -2.5000 0.9473
-0.5317 -13.1929 -2.4818 0.9477
1.0649 -13.1912 -2.4875 0.9476
1.6015 -13.1892 -2.4973 0.9474
2.1335 -13.1283 -2.5000 0.9473
2.6604 -13.0318 -2.5000 0.9473
3.1830 -12.9141 -2.5000 0.9473
3.7005 -12.7754 -2.5000 0.9473
4.7164 -12.4362 -2.5000 0.9473
6.1811 -11.7771 -2.5000 0.9473
7.1087 -11.2415 -2.5000 0.9473
8.4119 -10.3027 -2.5000 0.9473
9.5923 -9.2136 -2.5000 0.9473
10.6330 -7.9902 -2.5000 0.9473
11.2415 -7.1087 -2.5000 0.9473
11.5186 -6.6503 -2.5000 0.9473
12.2362 -5.2134 -2.5000 0.9473
12.4362 -4.7164 -2.5000 0.9473
12.6161 -4.2119 -2.5000 0.9473
12.7754 -3.7005 -2.5000 0.9473
12.9141 -3.1830 -2.5000 0.9473
11.1962 -2.2857 -2.1478 0.9546
11.2095 -1.8217 -2.1346 0.9548
11.2752 -1.3691 -2.1349 0.9548
13.2036 1.6032 -2.5000 0.9473
13.0318 2.6604 -2.5000 0.9473
11.8470 3.9551 -2.3476 0.9504
11.4903 4.8956 -2.3476 0.9504
10.2535 7.0775 -2.3418 0.9506
8.6174 8.9717 -2.3382 0.9506
6.4603 7.9125 -1.9200 0.9593
6.5701 8.7432 -2.0557 0.9565
5.6490 8.1840 -1.8691 0.9603
4.7417 8.2128 -1.7825 0.9621
4.3104 8.2128 -1.7434 0.9630
3.8970 8.2128 -1.7087 0.9637
3.3078 8.7220 -1.7533 0.9627
2.4409 8.4271 -1.6491 0.9649
1.6893 8.2749 -1.5874 0.9662
-0.3879 9.6243 -1.8105 0.9616
-0.6080 7.5312 -1.4202 0.9697
-1.0195 8.3959 -1.5897 0.9662
-2.1678 7.4839 -1.4645 0.9688
-2.4930 7.4673 -1.4797 0.9685
-3.1611 8.3351 -1.6756 0.9644
-3.4960 8.2054 -1.6764 0.9643
-3.8150 7.2690 -1.5430 0.9671
-4.0544 7.0223 -1.5241 0.9675
-5.3227 8.4171 -1.8719 0.9603
-8.5344 8.8853 -2.3157 0.9511
-8.8834 8.5326 -2.3152 0.9511
-9.2178 8.1663 -2.3147 0.9511
-9.5376 7.7872 -2.3143 0.9511
-4.6029 3.4588 -1.0822 0.9768
-10.1462 7.0034 -2.3173 0.9511
-10.7861 6.2274 -2.3410 0.9506
-11.0478 5.7983 -2.3452 0.9505
-11.2785 5.3517 -2.3465 0.9505
-11.6780 4.4289 -2.3476 0.9504
-12.7745 3.7002 -2.4998 0.9473
-13.2574 1.0702 -2.5000 0.9473
-11.7408 -1.4256 -2.5000 0.9528
-10.4723 -5.4963 -2.5000 0.9528
-10.2425 -5.9135 -2.5000 0.9528
-9.9960 -6.3211 -2.5000 0.9528
-9.7334 -6.7185 -2.5000 0.9528
-9.4550 -7.1050 -2.5000 0.9528
-9.1613 -7.4799 -2.5000 0.9528
-8.5296 -8.1928 -2.5000 0.9528
-8.1928 -8.5296 -2.5000 0.9528
-7.8427 -8.8526 -2.5000 0.9528
-7.1050 -9.4550 -2.5000 0.9528
-6.7185 -9.7334 -2.5000 0.9528
-5.4963 -10.4723 -2.5000 0.9528
-5.0701 -10.6851 -2.5000 0.9528
-4.6358 -10.8806 -2.5000 0.9528
-3.2905 -11.3600 -2.5000 0.9528
-2.3657 -11.5879 -2.5000 0.9528
-1.4256 -11.7407 -2.5000 0.9528
-0.9517 -11.7886 -2.5000 0.9528
-0.4762 -11.8174 -2.5000 0.9528
0.0000 -11.8270 -2.5000 0.9528
1.8972 -11.6738 -2.5000 0.9528
3.7452 -11.2183 -2.5000 0.9528
5.4967 -10.4722 -2.5000 0.9528
5.9136 -10.2424 -2.5000 0.9528
6.7184 -9.7334 -2.5000 0.9528
7.8427 -8.8526 -2.5000 0.9528
8.1928 -8.5296 -2.5000 0.9528
8.8526 -7.8427 -2.5000 0.9528
9.7334 -6.7185 -2.5000 0.9528
10.2425 -5.9135 -2.5000 0.9528
10.4723 -5.4963 -2.5000 0.9528
10.6851 -5.0701 -2.5000 0.9528
11.0584 -4.1939 -2.5000 0.9528
11.3600 -3.2905 -2.5000 0.9528
11.4833 -2.8304 -2.5000 0.9528
11.8270 0.0000 -2.5000 0.9528
11.8174 0.4762 -2.5000 0.9528
11.7886 0.9517 -2.5000 0.9528
11.5879 2.3657 -2.5000 0.9528
10.6675 3.0899 -2.3476 0.9556
10.5344 3.5169 -2.3476 0.9556
10.2173 4.3532 -2.3476 0.9556
9.8339 5.1612 -2.3476 0.9556
9.1401 6.3089 -2.3476 0.9556
7.9616 7.6472 -2.3335 0.9559
6.4713 7.9259 -2.1629 0.9590
5.5947 8.1054 -2.0818 0.9605
3.4991 8.2128 -1.8870 0.9642
3.1952 9.5708 -2.1328 0.9596
2.0120 8.1632 -1.7772 0.9662
1.6893 8.2749 -1.7852 0.9661
1.3448 8.2749 -1.7721 0.9663
0.6796 8.4180 -1.7852 0.9661
-0.5770 7.1477 -1.5158 0.9711
-0.8644 7.1192 -1.5159 0.9711
-2.0896 7.2141 -1.5876 0.9698
-3.8046 8.0180 -1.8760 0.9644
-3.8535 7.3422 -1.7528 0.9667
-5.0931 8.8216 -2.1532 0.9592
-6.6596 8.1566 -2.2258 0.9579
-7.5913 7.9033 -2.3164 0.9562
-4.6029 3.4588 -1.2170 0.9767
-9.1401 6.3089 -2.3476 0.9556
-10.2173 4.3532 -2.3476 0.9556
-10.3843 3.9382 -2.3476 0.9556
-11.4833 2.8304 -2.5000 0.9528
-11.6738 1.8972 -2.5000 0.9528
-11.7886 0.9517 -2.5000 0.9528
-10.6372 0.0000 -2.5000 0.9572
-10.6286 -0.4283 -2.5000 0.9572
-10.6027 -0.8559 -2.5000 0.9572
-10.4994 -1.7063 -2.5000 0.9572
-10.3281 -2.5457 -2.5000 0.9572
-10.2172 -2.9595 -2.5000 0.9572
-10.0898 -3.3685 -2.5000 0.9572
-9.7860 -4.1694 -2.5000 0.9572
-9.6102 -4.5601 -2.5000 0.9572
-9.4188 -4.9433 -2.5000 0.9572
-9.2121 -5.3186 -2.5000 0.9572
-8.7542 -6.0426 -2.5000 0.9572
-7.9621 -7.0538 -2.5000 0.9572
-6.3902 -8.5038 -2.5000 0.9572
-6.0426 -8.7542 -2.5000 0.9572
-5.3186 -9.2121 -2.5000 0.9572
-4.9434 -9.4188 -2.5000 0.9572
-2.9595 -10.2172 -2.5000 0.9572
-2.1277 -10.4222 -2.5000 0.9572
-1.7063 -10.4995 -2.5000 0.9572
-1.2822 -10.5596 -2.5000 0.9572
-0.0000 -10.6372 -2.5000 0.9572
2.1276 -10.4222 -2.5000 0.9572
2.9594 -10.2172 -2.5000 0.9572
3.3684 -10.0898 -2.5000 0.9572
4.1695 -9.7860 -2.5000 0.9572
4.5601 -9.6102 -2.5000 0.9572
4.9434 -9.4188 -2.5000 0.9572
6.3902 -8.5038 -2.5000 0.9572
7.0538 -7.9620 -2.5000 0.9572
7.3686 -7.6716 -2.5000 0.9572
7.6716 -7.3686 -2.5000 0.9572
7.9621 -7.0538 -2.5000 0.9572
8.2396 -6.7275 -2.5000 0.9572
8.5038 -6.3902 -2.5000 0.9572
8.7542 -6.0426 -2.5000 0.9572
8.9904 -5.6852 -2.5000 0.9572
9.4188 -4.9433 -2.5000 0.9572
9.6102 -4.5601 -2.5000 0.9572
9.7860 -4.1694 -2.5000 0.9572
10.2172 -2.9595 -2.5000 0.9572
10.4222 -2.1277 -2.5000 0.9572
10.5597 -1.2822 -2.5000 0.9572
10.6027 -0.8559 -2.5000 0.9572
10.6286 -0.4283 -2.5000 0.9572
10.6372 -0.0000 -2.5000 0.9572
10.6027 0.8559 -2.5000 0.9572
10.5596 1.2822 -2.5000 0.9572
10.4995 1.7063 -2.5000 0.9572
10.3281 2.5457 -2.5000 0.9572
9.5944 2.7790 -2.3476 0.9598
9.4747 3.1631 -2.3476 0.9598
9.3396 3.5421 -2.3476 0.9598
9.0243 4.2821 -2.3476 0.9598
8.6505 4.9944 -2.3476 0.9598
8.4424 5.3387 -2.3476 0.9598
8.2206 5.6743 -2.3476 0.9598
7.9854 6.0007 -2.3476 0.9598
7.7373 6.3173 -2.3476 0.9598
7.4767 6.6237 -2.3476 0.9598
6.5793 7.4265 -2.3318 0.9601
6.2744 7.6848 -2.3316 0.9601
5.9609 7.9325 -2.3320 0.9600
5.6374 8.1672 -2.3323 0.9600
4.2557 8.9687 -2.3331 0.9600
3.5070 8.2313 -2.1028 0.9639
3.4296 9.0430 -2.2730 0.9610
0.3619 8.9814 -2.1126 0.9637
-0.0000 9.6247 -2.2620 0.9612
-0.3879 9.6247 -2.2639 0.9612
-0.9736 8.0184 -1.8984 0.9674
-1.9774 8.0225 -1.9419 0.9666
-2.1280 7.3467 -1.7976 0.9691
-2.3596 7.0677 -1.7512 0.9698
-3.7190 7.8375 -2.0388 0.9650
-4.9374 8.5518 -2.3208 0.9602
-5.2762 8.3437 -2.3201 0.9602
-5.6054 8.1208 -2.3191 0.9603
-5.9256 7.8855 -2.3182 0.9603
-6.8775 7.1602 -2.3333 0.9600
-7.2039 6.9194 -2.3476 0.9598
-7.4767 6.6238 -2.3476 0.9598
-7.7373 6.3173 -2.3476 0.9598
-4.6029 3.4588 -1.3532 0.9766
-8.8446 4.6420 -2.3476 0.9598
-9.0243 4.2821 -2.3476 0.9598
-9.3396 3.5421 -2.3476 0.9598
-9.5944 2.7790 -2.3476 0.9598
-10.4994 1.7063 -2.5000 0.9572
-10.6027 0.8559 -2.5000 0.9572
-10.6286 0.4283 -2.5000 0.9572
-9.6477 -0.3888 -2.5000 0.9609
-9.5851 -1.1639 -2.5000 0.9609
-9.3749 -2.3107 -2.5000 0.9609
-9.1586 -3.0576 -2.5000 0.9609
-9.0281 -3.4239 -2.5000 0.9609
-8.7233 -4.1392 -2.5000 0.9609
-8.5495 -4.4871 -2.5000 0.9609
-8.3619 -4.8278 -2.5000 0.9609
-7.2272 -6.4028 -2.5000 0.9609
-6.9636 -6.6886 -2.5000 0.9609
-6.6886 -6.9636 -2.5000 0.9609
-6.4028 -7.2273 -2.5000 0.9609
-6.1066 -7.4792 -2.5000 0.9609
-5.4850 -7.9463 -2.5000 0.9609
-5.1606 -8.1608 -2.5000 0.9609
-3.4239 -9.0281 -2.5000 0.9609
-1.9313 -9.4604 -2.5000 0.9609
-1.1638 -9.5851 -2.5000 0.9609
-0.7769 -9.6242 -2.5000 0.9609
-0.3888 -9.6477 -2.5000 0.9609
0.3887 -9.6477 -2.5000 0.9609
0.7769 -9.6242 -2.5000 0.9609
1.1638 -9.5851 -2.5000 0.9609
1.5488 -9.5305 -2.5000 0.9609
1.9313 -9.4604 -2.5000 0.9609
2.3107 -9.3750 -2.5000 0.9609
2.6863 -9.2743 -2.5000 0.9609
3.4239 -9.0281 -2.5000 0.9609
4.4871 -8.5495 -2.5000 0.9609
4.8278 -8.3619 -2.5000 0.9609
5.4850 -7.9463 -2.5000 0.9609
5.8005 -7.7190 -2.5000 0.9609
6.6886 -6.9636 -2.5000 0.9609
6.9636 -6.6886 -2.5000 0.9609
7.4792 -6.1066 -2.5000 0.9609
7.7190 -5.8005 -2.5000 0.9609
7.9463 -5.4850 -2.5000 0.9609
8.3619 -4.8278 -2.5000 0.9609
8.8829 -3.7846 -2.5000 0.9609
9.0281 -3.4239 -2.5000 0.9609
9.1586 -3.0576 -2.5000 0.9609
9.5305 -1.5488 -2.5000 0.9609
9.6242 -0.7769 -2.5000 0.9609
9.6477 -0.3888 -2.5000 0.9609
9.6555 -0.0000 -2.5000 0.9609
9.6242 0.7769 -2.5000 0.9609
9.5851 1.1638 -2.5000 0.9609
9.5305 1.5488 -2.5000 0.9609
9.4604 1.9313 -2.5000 0.9609
8.4777 3.2152 -2.3476 0.9632
8.0283 4.2136 -2.3476 0.9632
7.8522 4.5334 -2.3476 0.9632
7.2485 5.4469 -2.3476 0.9632
7.0233 5.7343 -2.3476 0.9632
6.5391 6.2809 -2.3476 0.9632
6.0125 6.7867 -2.3476 0.9632
5.4075 7.1961 -2.3306 0.9635
5.1126 7.4068 -2.3303 0.9635
4.8094 7.6054 -2.3299 0.9635
4.4993 7.7930 -2.3299 0.9635
4.1821 7.9684 -2.3300 0.9635
3.8580 8.1307 -2.3302 0.9635
3.5276 8.2796 -2.3302 0.9635
2.4409 8.4271 -2.2716 0.9644
2.0120 8.1632 -2.1769 0.9659
1.3340 8.2084 -2.1532 0.9662
1.0044 8.2721 -2.1575 0.9662
0.0000 8.9906 -2.3278 0.9635
-0.6132 7.5953 -1.9730 0.9690
-0.9516 7.8374 -2.0442 0.9679
-1.2739 7.8387 -2.0562 0.9677
-1.6006 7.8400 -2.0718 0.9675
-2.3623 7.0759 -1.9315 0.9696
-3.2608 7.6533 -2.1539 0.9662
-3.6308 7.6518 -2.1929 0.9656
-3.8534 7.3421 -2.1469 0.9663
-5.7336 7.0224 -2.3473 0.9632
-6.0125 6.7867 -2.3476 0.9632
-6.7867 6.0125 -2.3476 0.9632
-7.8522 4.5334 -2.3476 0.9632
-8.0284 4.2136 -2.3476 0.9632
-8.4777 3.2152 -2.3476 0.9632
-8.6217 2.8783 -2.3534 0.9631
-9.2743 2.6863 -2.5000 0.9609
-9.3749 2.3107 -2.5000 0.9609
-9.4604 1.9313 -2.5000 0.9609
-9.5305 1.5488 -2.5000 0.9609
-9.6477 0.3888 -2.5000 0.9609
-8.8310 0.0000 -2.5000 0.9640
-8.8023 -0.7106 -2.5000 0.9640
-8.7666 -1.0645 -2.5000 0.9640
-8.4823 -2.4569 -2.5000 0.9640
-8.3765 -2.7965 -2.5000 0.9640
-8.2571 -3.1315 -2.5000 0.9640
-7.9783 -3.7858 -2.5000 0.9640
-7.8194 -4.1039 -2.5000 0.9640
-7.6478 -4.4155 -2.5000 0.9640
-7.2677 -5.0166 -2.5000 0.9640
-6.8405 -5.5851 -2.5000 0.9640
-6.6101 -5.8560 -2.5000 0.9640
-6.3689 -6.1174 -2.5000 0.9640
-6.1174 -6.3689 -2.5000 0.9640
-5.8560 -6.6101 -2.5000 0.9640
-5.3051 -7.0599 -2.5000 0.9640
-4.7199 -7.4639 -2.5000 0.9640
-4.4155 -7.6478 -2.5000 0.9640
-3.7858 -7.9783 -2.5000 0.9640
-3.4614 -8.1243 -2.5000 0.9640
-3.1315 -8.2571 -2.5000 0.9640
-2.7965 -8.3765 -2.5000 0.9640
-1.7664 -8.6525 -2.5000 0.9640
-1.4166 -8.7166 -2.5000 0.9640
-1.0645 -8.7666 -2.5000 0.9640
-0.3556 -8.8238 -2.5000 0.9640
0.7106 -8.8023 -2.5000 0.9640
1.0645 -8.7666 -2.5000 0.9640
2.4569 -8.4823 -2.5000 0.9640
2.7965 -8.3765 -2.5000 0.9640
3.1315 -8.2571 -2.5000 0.9640
4.7199 -7.4638 -2.5000 0.9640
5.5851 -6.8405 -2.5000 0.9640
6.3689 -6.1174 -2.5000 0.9640
6.6101 -5.8560 -2.5000 0.9640
6.8405 -5.5851 -2.5000 0.9640
7.0598 -5.3051 -2.5000 0.9640
7.2678 -5.0166 -2.5000 0.9640
7.6478 -4.4155 -2.5000 0.9640
7.8194 -4.1040 -2.5000 0.9640
7.9783 -3.7858 -2.5000 0.9640
8.2571 -3.1315 -2.5000 0.9640
8.5744 -2.1134 -2.5000 0.9640
8.7166 -1.4166 -2.5000 0.9640
8.7666 -1.0645 -2.5000 0.9640
8.8023 -0.7106 -2.5000 0.9640
8.8238 0.3556 -2.5000 0.9640
8.7666 1.0645 -2.5000 0.9640
8.5743 2.1134 -2.5000 0.9640
8.4823 2.4569 -2.5000 0.9640
8.1230 2.7118 -2.4243 0.9650
7.7537 2.9406 -2.3476 0.9661
7.1816 4.1463 -2.3476 0.9661
7.0088 4.4321 -2.3476 0.9661
6.8247 4.7108 -2.3476 0.9661
6.4235 5.2446 -2.3476 0.9661
5.9807 5.7445 -2.3476 0.9661
5.7445 5.9807 -2.3476 0.9661
5.4990 6.2071 -2.3476 0.9661
5.2446 6.4235 -2.3476 0.9661
4.9817 6.6295 -2.3476 0.9661
4.7108 6.8247 -2.3476 0.9661
4.4270 7.0007 -2.3449 0.9662
4.1212 7.1381 -2.3334 0.9663
2.9158 7.6884 -2.3278 0.9664
2.2875 7.8975 -2.3276 0.9664
1.9676 7.9828 -2.3275 0.9664
1.6445 8.0550 -2.3273 0.9664
0.3309 8.2107 -2.3263 0.9664
0.0000 8.2161 -2.3259 0.9664
-0.6130 7.5935 -2.1567 0.9688
-1.2437 7.6525 -2.1948 0.9683
-1.8847 7.6466 -2.2295 0.9678
-2.1281 7.3469 -2.1653 0.9687
-2.8385 7.4844 -2.2660 0.9673
-3.8096 7.2587 -2.3207 0.9665
-4.9817 6.6295 -2.3476 0.9661
-6.2071 5.4990 -2.3476 0.9661
-4.6029 3.4588 -1.6299 0.9763
-6.8247 4.7107 -2.3476 0.9661
-7.0089 4.4321 -2.3476 0.9661
-7.1816 4.1463 -2.3476 0.9661
-7.3428 3.8538 -2.3476 0.9661
-8.6525 1.7664 -2.5000 0.9640
-8.7166 1.4166 -2.5000 0.9640
-8.8023 0.7106 -2.5000 0.9640
-8.8238 0.3556 -2.5000 0.9640
-8.1280 0.0000 -2.5000 0.9666
-8.1214 -0.3273 -2.5000 0.9666
-8.0227 -1.3038 -2.5000 0.9666
-7.9636 -1.6258 -2.5000 0.9666
-7.8918 -1.9451 -2.5000 0.9666
-7.7097 -2.5739 -2.5000 0.9666
-7.5998 -2.8822 -2.5000 0.9666
-7.3432 -3.4844 -2.5000 0.9666
-7.1970 -3.7773 -2.5000 0.9666
-6.8697 -4.3441 -2.5000 0.9666
-6.6892 -4.6172 -2.5000 0.9666
-6.2959 -5.1405 -2.5000 0.9666
-6.0839 -5.3898 -2.5000 0.9666
-5.3898 -6.0839 -2.5000 0.9666
-4.8828 -6.4979 -2.5000 0.9666
-4.6172 -6.6892 -2.5000 0.9666
-3.7772 -7.1970 -2.5000 0.9666
-3.1859 -7.4775 -2.5000 0.9666
-2.5739 -7.7097 -2.5000 0.9666
-1.9452 -7.8918 -2.5000 0.9666
-1.6258 -7.9637 -2.5000 0.9666
-0.6540 -8.1016 -2.5000 0.9666
-0.3273 -8.1214 -2.5000 0.9666
0.3273 -8.1214 -2.5000 0.9666
1.6258 -7.9637 -2.5000 0.9666
1.9451 -7.8918 -2.5000 0.9666
2.5739 -7.7097 -2.5000 0.9666
2.8822 -7.5998 -2.5000 0.9666
3.1859 -7.4775 -2.5000 0.9666
3.4844 -7.3432 -2.5000 0.9666
3.7772 -7.1969 -2.5000 0.9666
4.0640 -7.0390 -2.5000 0.9666
4.3441 -6.8697 -2.5000 0.9666
5.3898 -6.0839 -2.5000 0.9666
6.0839 -5.3898 -2.5000 0.9666
6.2959 -5.1405 -2.5000 0.9666
6.4978 -4.8828 -2.5000 0.9666
7.0390 -4.0640 -2.5000 0.9666
7.3432 -3.4844 -2.5000 0.9666
7.5998 -2.8822 -2.5000 0.9666
7.8070 -2.2613 -2.5000 0.9666
7.8918 -1.9451 -2.5000 0.9666
8.0687 -0.9797 -2.5000 0.9666
8.1016 -0.6540 -2.5000 0.9666
8.1279 -0.0000 -2.5000 0.9666
8.0227 1.3038 -2.5000 0.9666
7.8070 2.2613 -2.5000 0.9666
7.1811 2.7234 -2.3623 0.9684
6.8956 3.2720 -2.3476 0.9686
6.4509 4.0793 -2.3476 0.9686
6.1017 4.5851 -2.3476 0.9686
5.9122 4.8271 -2.3476 0.9686
5.5046 5.2872 -2.3476 0.9686
5.2872 5.5046 -2.3476 0.9686
5.0612 5.7130 -2.3476 0.9686
4.5851 6.1017 -2.3476 0.9686
4.3357 6.2814 -2.3476 0.9686
3.8162 6.6099 -2.3476 0.9686
3.5470 6.7582 -2.3476 0.9686
2.6951 7.1065 -2.3377 0.9687
2.1049 7.2670 -2.3271 0.9688
1.5129 7.4107 -2.3264 0.9688
1.2131 7.4645 -2.3260 0.9688
0.9114 7.5062 -2.3257 0.9689
0.3044 7.5530 -2.3250 0.9689
0.0000 7.5581 -2.3247 0.9689
-2.1008 7.2529 -2.3225 0.9689
-2.3679 7.0927 -2.2999 0.9692
-2.6946 7.1050 -2.3372 0.9687
-3.5470 6.7582 -2.3476 0.9686
-4.0793 6.4509 -2.3476 0.9686
-5.0613 5.7130 -2.3476 0.9686
-5.5046 5.2872 -2.3476 0.9686
-6.2814 4.3357 -2.3476 0.9686
-6.4509 4.0793 -2.3476 0.9686
-6.6099 3.8162 -2.3476 0.9686
-7.0217 2.9917 -2.3476 0.9686
-8.1214 0.3273 -2.5000 0.9666
-7.5209 0.0000 -2.5000 0.9688
-7.4965 -0.6052 -2.5000 0.9688
-7.1338 -2.3816 -2.5000 0.9688
-6.6594 -3.4951 -2.5000 0.9688
-6.1896 -4.2724 -2.5000 0.9688
-5.6295 -4.9873 -2.5000 0.9688
-5.2099 -5.4241 -2.5000 0.9688
-4.5181 -6.0125 -2.5000 0.9688
-3.4951 -6.6594 -2.5000 0.9688
-2.9479 -6.9191 -2.5000 0.9688
-2.3816 -7.1338 -2.5000 0.9688
-2.0925 -7.2240 -2.5000 0.9688
-1.7999 -7.3024 -2.5000 0.9688
-1.5044 -7.3689 -2.5000 0.9688
-1.2064 -7.4235 -2.5000 0.9688
-0.9066 -7.4661 -2.5000 0.9688
-0.6052 -7.4965 -2.5000 0.9688
0.0000 -7.5209 -2.5000 0.9688
0.3028 -7.5148 -2.5000 0.9688
0.9065 -7.4660 -2.5000 0.9688
1.5044 -7.3689 -2.5000 0.9688
1.7999 -7.3023 -2.5000 0.9688
2.0924 -7.2239 -2.5000 0.9688
2.3816 -7.1338 -2.5000 0.9688
2.6669 -7.0322 -2.5000 0.9688
2.9479 -6.9191 -2.5000 0.9688
3.2241 -6.7947 -2.5000 0.9688
3.4951 -6.6594 -2.5000 0.9688
4.0196 -6.3566 -2.5000 0.9688
4.2723 -6.1896 -2.5000 0.9688
4.5181 -6.0125 -2.5000 0.9688
4.9873 -5.6295 -2.5000 0.9688
5.2099 -5.4241 -2.5000 0.9688
5.8257 -4.7565 -2.5000 0.9688
6.3566 -4.0197 -2.5000 0.9688
6.5133 -3.7604 -2.5000 0.9688
6.7947 -3.2242 -2.5000 0.9688
6.9191 -2.9479 -2.5000 0.9688
7.0321 -2.6670 -2.5000 0.9688
7.2239 -2.0925 -2.5000 0.9688
7.3023 -1.7999 -2.5000 0.9688
7.3689 -1.5044 -2.5000 0.9688
7.4965 -0.6052 -2.5000 0.9688
7.5148 -0.3028 -2.5000 0.9688
7.5209 0.0000 -2.5000 0.9688
7.4965 0.6052 -2.5000 0.9688
7.3689 1.5044 -2.5000 0.9688
7.3023 1.7999 -2.5000 0.9688
7.1338 2.3816 -2.5000 0.9688
7.0321 2.6669 -2.5000 0.9688
6.4973 2.7682 -2.3476 0.9707
6.3805 3.0276 -2.3476 0.9707
6.2534 3.2821 -2.3476 0.9707
5.9691 3.7746 -2.3476 0.9707
5.8122 4.0119 -2.3476 0.9707
5.6460 4.2427 -2.3476 0.9707
5.4706 4.4666 -2.3476 0.9707
5.0934 4.8923 -2.3476 0.9707
4.8923 5.0934 -2.3476 0.9707
4.6832 5.2863 -2.3476 0.9707
4.4666 5.4706 -2.3476 0.9707
4.2427 5.6460 -2.3476 0.9707
3.2821 6.2534 -2.3476 0.9707
2.5044 6.6035 -2.3476 0.9707
1.9649 6.7836 -2.3476 0.9707
1.6901 6.8572 -2.3476 0.9707
1.4127 6.9197 -2.3476 0.9707
1.1324 6.9708 -2.3475 0.9707
0.8507 7.0061 -2.3460 0.9707
0.5674 7.0281 -2.3438 0.9707
0.2837 7.0414 -2.3425 0.9707
-0.2838 7.0420 -2.3427 0.9707
-0.8509 7.0079 -2.3466 0.9707
-1.1333 6.9708 -2.3475 0.9707
-1.4127 6.9197 -2.3476 0.9707
-2.5044 6.6034 -2.3476 0.9707
-2.7682 6.4973 -2.3476 0.9707
-3.0276 6.3805 -2.3476 0.9707
-3.2821 6.2534 -2.3476 0.9707
-3.7746 5.9691 -2.3476 0.9707
-4.4666 5.4706 -2.3476 0.9707
-4.8923 5.0934 -2.3476 0.9707
-5.0934 4.8923 -2.3476 0.9707
-5.2863 4.6832 -2.3476 0.9707
-5.4706 4.4666 -2.3476 0.9707
-4.6029 3.4588 -1.9139 0.9760
-5.8123 4.0119 -2.3476 0.9707
-5.9691 3.7746 -2.3476 0.9707
-6.1162 3.5312 -2.3476 0.9707
-6.3805 3.0276 -2.3476 0.9707
-7.0321 2.6669 -2.5000 0.9688
-7.1339 2.3816 -2.5000 0.9688
-7.3689 1.5044 -2.5000 0.9688
-7.4235 1.2064 -2.5000 0.9688
-7.4661 0.9065 -2.5000 0.9688
-7.4965 0.6052 -2.5000 0.9688
-7.5148 0.3028 -2.5000 0.9688
-6.9909 0.0000 -2.5000 0.9707
-6.9852 -0.2815 -2.5000 0.9707
-6.9682 -0.5625 -2.5000 0.9707
-6.9399 -0.8427 -2.5000 0.9707
-6.9003 -1.1214 -2.5000 0.9707
-6.8496 -1.3983 -2.5000 0.9707
-6.7878 -1.6730 -2.5000 0.9707
-6.4315 -2.7402 -2.5000 0.9707
-6.3159 -2.9969 -2.5000 0.9707
-5.7534 -3.9713 -2.5000 0.9707
-5.2327 -4.6358 -2.5000 0.9707
-4.4214 -5.4152 -2.5000 0.9707
-2.9969 -6.3159 -2.5000 0.9707
-2.4790 -6.5366 -2.5000 0.9707
-2.2138 -6.6311 -2.5000 0.9707
-1.6730 -6.7877 -2.5000 0.9707
-1.1214 -6.9003 -2.5000 0.9707
-0.5625 -6.9682 -2.5000 0.9707
0.0000 -6.9909 -2.5000 0.9707
0.2815 -6.9852 -2.5000 0.9707
0.8426 -6.9399 -2.5000 0.9707
1.3983 -6.8496 -2.5000 0.9707
1.9450 -6.7149 -2.5000 0.9707
2.4790 -6.5366 -2.5000 0.9707
2.7402 -6.4315 -2.5000 0.9707
2.9969 -6.3159 -2.5000 0.9707
3.4954 -6.0543 -2.5000 0.9707
4.1997 -5.5888 -2.5000 0.9707
4.4213 -5.4152 -2.5000 0.9707
4.6358 -5.2327 -2.5000 0.9707
5.2327 -4.6358 -2.5000 0.9707
5.5888 -4.1997 -2.5000 0.9707
6.0543 -3.4954 -2.5000 0.9707
6.1901 -3.2488 -2.5000 0.9707
6.3159 -2.9969 -2.5000 0.9707
6.6311 -2.2138 -2.5000 0.9707
6.7148 -1.9450 -2.5000 0.9707
6.7877 -1.6730 -2.5000 0.9707
6.8496 -1.3984 -2.5000 0.9707
6.9399 -0.8427 -2.5000 0.9707
6.9682 -0.5625 -2.5000 0.9707
6.9852 -0.2815 -2.5000 0.9707
6.9909 0.0000 -2.5000 0.9707
6.7877 1.6730 -2.5000 0.9707
6.7148 1.9450 -2.5000 0.9707
6.6311 2.2138 -2.5000 0.9707
6.5366 2.4790 -2.5000 0.9707
5.8127 3.0508 -2.3476 0.9725
5.5484 3.5086 -2.3476 0.9725
5.4026 3.7292 -2.3476 0.9725
5.0850 4.1518 -2.3476 0.9725
4.7345 4.5475 -2.3476 0.9725
4.5475 4.7345 -2.3476 0.9725
4.3532 4.9137 -2.3476 0.9725
4.1518 5.0850 -2.3476 0.9725
3.9437 5.2481 -2.3476 0.9725
3.2824 5.6852 -2.3476 0.9725
2.5731 6.0394 -2.3476 0.9725
2.3279 6.1381 -2.3476 0.9725
2.0788 6.2268 -2.3476 0.9725
1.8264 6.3055 -2.3476 0.9725
0.2643 6.5594 -2.3476 0.9725
0.0000 6.5647 -2.3476 0.9725
-0.7913 6.5168 -2.3476 0.9725
-1.5710 6.3739 -2.3476 0.9725
-1.8264 6.3055 -2.3476 0.9725
-2.0788 6.2269 -2.3476 0.9725
-2.3279 6.1381 -2.3476 0.9725
-2.5731 6.0394 -2.3476 0.9725
-3.2824 5.6852 -2.3476 0.9725
-4.3532 4.9137 -2.3476 0.9725
-4.7345 4.5475 -2.3476 0.9725
-5.0850 4.1518 -2.3476 0.9725
-5.4026 3.7292 -2.3476 0.9725
-5.5484 3.5086 -2.3476 0.9725
-5.6852 3.2823 -2.3476 0.9725
-5.8128 3.0508 -2.3476 0.9725
-5.9309 2.8142 -2.3476 0.9725
-6.6311 2.2138 -2.5000 0.9707
-6.8496 1.3984 -2.5000 0.9707
-6.9004 1.1214 -2.5000 0.9707
-6.9399 0.8426 -2.5000 0.9707
-6.9682 0.5625 -2.5000 0.9707
-6.9852 0.2815 -2.5000 0.9707
-3.5504 0.0000 -1.3606 0.9849
-3.5589 -0.1434 -1.3649 0.9849
-3.5921 -0.4362 -1.3867 0.9846
-6.3342 -1.5612 -2.5000 0.9724
-6.1879 -2.0658 -2.5000 0.9724
-6.0997 -2.3133 -2.5000 0.9724
-5.7764 -3.0317 -2.5000 0.9724
-5.3689 -3.7059 -2.5000 0.9724
-5.2153 -3.9190 -2.5000 0.9724
-4.8830 -4.3260 -2.5000 0.9724
-4.7049 -4.5191 -2.5000 0.9724
-4.1259 -5.0533 -2.5000 0.9724
-3.9190 -5.2153 -2.5000 0.9724
-3.7059 -5.3689 -2.5000 0.9724
-3.2618 -5.6496 -2.5000 0.9724
-3.0317 -5.7764 -2.5000 0.9724
-2.7967 -5.8938 -2.5000 0.9724
-2.3133 -6.0997 -2.5000 0.9724
-1.0465 -6.4392 -2.5000 0.9724
-0.5249 -6.5025 -2.5000 0.9724
0.0000 -6.5237 -2.5000 0.9724
0.2627 -6.5184 -2.5000 0.9724
0.5249 -6.5025 -2.5000 0.9724
0.7863 -6.4761 -2.5000 0.9724
2.0658 -6.1879 -2.5000 0.9724
2.7966 -5.8938 -2.5000 0.9724
3.0317 -5.7764 -2.5000 0.9724
3.4867 -5.5137 -2.5000 0.9724
3.9190 -5.2153 -2.5000 0.9724
4.1258 -5.0533 -2.5000 0.9724
4.3260 -4.8830 -2.5000 0.9724
4.5191 -4.7049 -2.5000 0.9724
5.0532 -4.1259 -2.5000 0.9724
5.3689 -3.7059 -2.5000 0.9724
5.6497 -3.2618 -2.5000 0.9724
5.8938 -2.7967 -2.5000 0.9724
6.0016 -2.5571 -2.5000 0.9724
6.0997 -2.3133 -2.5000 0.9724
6.2661 -1.8150 -2.5000 0.9724
6.4392 -1.0465 -2.5000 0.9724
6.4761 -0.7863 -2.5000 0.9724
6.5025 -0.5249 -2.5000 0.9724
6.5236 0.0000 -2.5000 0.9724
6.5184 0.2627 -2.5000 0.9724
6.5025 0.5249 -2.5000 0.9724
6.4392 1.0465 -2.5000 0.9724
6.3918 1.3049 -2.5000 0.9724
6.3341 1.5612 -2.5000 0.9724
6.0997 2.3133 -2.5000 0.9724
6.0016 2.5571 -2.5000 0.9724
5.7134 2.7110 -2.4235 0.9733
5.4244 2.8469 -2.3476 0.9741
5.1776 3.2741 -2.3476 0.9741
4.7452 3.8743 -2.3476 0.9741
4.5854 4.0623 -2.3476 0.9741
4.4181 4.2436 -2.3476 0.9741
4.2436 4.4181 -2.3476 0.9741
4.0623 4.5854 -2.3476 0.9741
3.6801 4.8974 -2.3476 0.9741
3.4799 5.0416 -2.3476 0.9741
3.2741 5.1776 -2.3476 0.9741
2.4012 5.6358 -2.3476 0.9741
1.7043 5.8841 -2.3476 0.9741
1.2254 6.0022 -2.3476 0.9741
0.7384 6.0813 -2.3476 0.9741
0.2467 6.1210 -2.3476 0.9741
-0.0000 6.1260 -2.3476 0.9741
-0.2467 6.1210 -2.3476 0.9741
-0.7384 6.0813 -2.3476 0.9741
-1.4660 5.9480 -2.3476 0.9741
-1.7044 5.8841 -2.3476 0.9741
-1.9399 5.8107 -2.3476 0.9741
-2.8469 5.4243 -2.3476 0.9741
-3.0630 5.3052 -2.3476 0.9741
-3.4800 5.0416 -2.3476 0.9741
-3.6801 4.8974 -2.3476 0.9741
-4.2436 4.4181 -2.3476 0.9741
-4.4181 4.2436 -2.3476 0.9741
-4.5224 3.3983 -2.1678 0.9761
-4.8307 3.3344 -2.2494 0.9752
-5.3053 3.0630 -2.3476 0.9741
-5.4243 2.8469 -2.3476 0.9741
-6.2661 1.8150 -2.5000 0.9724
-6.3341 1.5612 -2.5000 0.9724
-6.3918 1.3049 -2.5000 0.9724
-3.5687 0.2881 -1.3720 0.9848
-3.5589 0.1434 -1.3649 0.9849
-2.9323 -0.3560 -1.2089 0.9873
-3.0070 -0.6139 -1.2561 0.9868
-5.9309 -1.4618 -2.5000 0.9739
-5.8672 -1.6995 -2.5000 0.9739
-5.7940 -1.9343 -2.5000 0.9739
-5.7114 -2.1661 -2.5000 0.9739
-5.5186 -2.6186 -2.5000 0.9739
-5.4087 -2.8387 -2.5000 0.9739
-5.2900 -3.0542 -2.5000 0.9739
-5.0271 -3.4699 -2.5000 0.9739
-4.8833 -3.6695 -2.5000 0.9739
-4.7315 -3.8632 -2.5000 0.9739
-4.5721 -4.0506 -2.5000 0.9739
-4.4054 -4.2314 -2.5000 0.9739
-3.8632 -4.7316 -2.5000 0.9739
-3.6695 -4.8833 -2.5000 0.9739
-3.4699 -5.0271 -2.5000 0.9739
-3.0542 -5.2900 -2.5000 0.9739
-2.8387 -5.4087 -2.5000 0.9739
-2.6186 -5.5186 -2.5000 0.9739
-2.1661 -5.7114 -2.5000 0.9739
-1.6995 -5.8672 -2.5000 0.9739
-1.2218 -5.9849 -2.5000 0.9739
-0.9799 -6.0292 -2.5000 0.9739
-0.4915 -6.0885 -2.5000 0.9739
0.4915 -6.0885 -2.5000 0.9739
1.4618 -5.9308 -2.5000 0.9739
1.6995 -5.8672 -2.5000 0.9739
2.1660 -5.7114 -2.5000 0.9739
2.6186 -5.5186 -2.5000 0.9739
3.0542 -5.2900 -2.5000 0.9739
3.2647 -5.1627 -2.5000 0.9739
3.4699 -5.0271 -2.5000 0.9739
3.8632 -4.7316 -2.5000 0.9739
4.0506 -4.5721 -2.5000 0.9739
4.4053 -4.2314 -2.5000 0.9739
4.5721 -4.0506 -2.5000 0.9739
4.7315 -3.8632 -2.5000 0.9739
5.0270 -3.4699 -2.5000 0.9739
5.2900 -3.0542 -2.5000 0.9739
5.4086 -2.8387 -2.5000 0.9739
5.5186 -2.6186 -2.5000 0.9739
5.7114 -2.1660 -2.5000 0.9739
5.7940 -1.9343 -2.5000 0.9739
5.8671 -1.6995 -2.5000 0.9739
5.9308 -1.4618 -2.5000 0.9739
6.0292 -0.9798 -2.5000 0.9739
6.0638 -0.7363 -2.5000 0.9739
6.1034 -0.2460 -2.5000 0.9739
6.1083 -0.0000 -2.5000 0.9739
6.0885 0.4915 -2.5000 0.9739
6.0638 0.7363 -2.5000 0.9739
6.0292 0.9799 -2.5000 0.9739
5.9849 1.2218 -2.5000 0.9739
5.9308 1.4618 -2.5000 0.9739
5.7940 1.9343 -2.5000 0.9739
5.7114 2.1660 -2.5000 0.9739
5.6195 2.3942 -2.5000 0.9739
5.5186 2.6186 -2.5000 0.9739
4.9674 2.8680 -2.3476 0.9755
4.8480 3.0657 -2.3476 0.9755
4.7206 3.2584 -2.3476 0.9755
3.9734 4.1368 -2.3476 0.9755
3.2584 4.7206 -2.3476 0.9755
3.0657 4.8480 -2.3476 0.9755
2.8680 4.9675 -2.3476 0.9755
2.6656 5.0789 -2.3476 0.9755
2.4590 5.1822 -2.3476 0.9755
2.0340 5.3632 -2.3476 0.9755
1.8164 5.4408 -2.3476 0.9755
1.5958 5.5095 -2.3476 0.9755
1.3727 5.5693 -2.3476 0.9755
1.1473 5.6200 -2.3476 0.9755
0.9201 5.6617 -2.3476 0.9755
-0.4616 5.7174 -2.3476 0.9755
-0.6914 5.6941 -2.3476 0.9755
-0.9201 5.6617 -2.3476 0.9755
-1.1473 5.6200 -2.3476 0.9755
-1.5958 5.5095 -2.3476 0.9755
-1.8164 5.4408 -2.3476 0.9755
-2.2483 5.2770 -2.3476 0.9755
-2.4590 5.1822 -2.3476 0.9755
-2.6656 5.0789 -2.3476 0.9755
-3.8036 4.2934 -2.3476 0.9755
-3.9734 4.1368 -2.3476 0.9755
-4.2934 3.8036 -2.3476 0.9755
-4.4336 3.3317 -2.2698 0.9763
-4.7052 3.2478 -2.3399 0.9756
-4.8480 3.0657 -2.3476 0.9755
-4.9675 2.8680 -2.3476 0.9755
-5.1692 2.7130 -2.3893 0.9751
-5.6195 2.3942 -2.5000 0.9739
-5.7940 1.9343 -2.5000 0.9739
-5.9308 1.4618 -2.5000 0.9739
-3.0246 0.4915 -1.2541 0.9868
-2.9322 0.3560 -1.2089 0.9873
-2.8096 0.2268 -1.1536 0.9879
-2.8204 0.1137 -1.1552 0.9879
-2.3794 -0.2889 -1.0446 0.9896
-2.4021 -0.3904 -1.0606 0.9894
-2.4207 -0.4942 -1.0767 0.9893
-5.5697 -1.3728 -2.5000 0.9753
-5.5098 -1.5960 -2.5000 0.9753
-5.4411 -1.8165 -2.5000 0.9753
-5.3636 -2.0341 -2.5000 0.9753
-5.2773 -2.2484 -2.5000 0.9753
-4.7209 -3.2586 -2.5000 0.9753
-4.4434 -3.6279 -2.5000 0.9753
-4.1371 -3.9737 -2.5000 0.9753
-3.9737 -4.1370 -2.5000 0.9753
-3.4461 -4.5859 -2.5000 0.9753
-3.0659 -4.8483 -2.5000 0.9753
-2.8682 -4.9678 -2.5000 0.9753
-2.6658 -5.0793 -2.5000 0.9753
-2.4591 -5.1825 -2.5000 0.9753
-2.2484 -5.2773 -2.5000 0.9753
-2.0341 -5.3636 -2.5000 0.9753
-1.8165 -5.4411 -2.5000 0.9753
-1.5959 -5.5098 -2.5000 0.9753
-1.3728 -5.5696 -2.5000 0.9753
-1.1474 -5.6204 -2.5000 0.9753
-0.9202 -5.6620 -2.5000 0.9753
-0.2310 -5.7317 -2.5000 0.9753
0.0000 -5.7363 -2.5000 0.9753
0.2310 -5.7317 -2.5000 0.9753
0.6914 -5.6945 -2.5000 0.9753
0.9202 -5.6621 -2.5000 0.9753
1.5959 -5.5098 -2.5000 0.9753
1.8165 -5.4411 -2.5000 0.9753
2.0341 -5.3636 -2.5000 0.9753
2.2484 -5.2773 -2.5000 0.9753
2.4591 -5.1825 -2.5000 0.9753
3.0659 -4.8483 -2.5000 0.9753
3.8039 -4.2937 -2.5000 0.9753
3.9737 -4.1371 -2.5000 0.9753
4.2937 -3.8039 -2.5000 0.9753
4.5859 -3.4461 -2.5000 0.9753
4.7209 -3.2586 -2.5000 0.9753
4.8483 -3.0659 -2.5000 0.9753
4.9678 -2.8682 -2.5000 0.9753
5.1825 -2.4591 -2.5000 0.9753
5.3636 -2.0341 -2.5000 0.9753
5.6204 -1.1474 -2.5000 0.9753
5.6620 -0.9202 -2.5000 0.9753
5.7177 -0.4616 -2.5000 0.9753
5.7317 -0.2310 -2.5000 0.9753
5.7363 0.0000 -2.5000 0.9753
5.7317 0.2310 -2.5000 0.9753
5.6204 1.1474 -2.5000 0.9753
5.5696 1.3728 -2.5000 0.9753
5.4411 1.8165 -2.5000 0.9753
5.1825 2.4591 -2.5000 0.9753
4.7118 2.7203 -2.3711 0.9765
4.4331 3.0600 -2.3476 0.9768
4.3063 3.2360 -2.3476 0.9768
3.8848 3.7314 -2.3476 0.9768
3.5720 4.0319 -2.3476 0.9768
3.2360 4.3063 -2.3476 0.9768
1.7058 5.1094 -2.3476 0.9768
1.4987 5.1740 -2.3476 0.9768
1.0775 5.2778 -2.3476 0.9768
0.8641 5.3169 -2.3476 0.9768
0.6493 5.3473 -2.3476 0.9768
0.2169 5.3823 -2.3476 0.9768
-0.2169 5.3823 -2.3476 0.9768
-0.4334 5.3692 -2.3476 0.9768
-0.6493 5.3474 -2.3476 0.9768
-0.8641 5.3169 -2.3476 0.9768
-1.2891 5.2301 -2.3476 0.9768
-1.7058 5.1094 -2.3476 0.9768
-1.9101 5.0366 -2.3476 0.9768
-2.1114 4.9556 -2.3476 0.9768
-2.5033 4.7696 -2.3476 0.9768
-2.6933 4.6650 -2.3476 0.9768
-2.8790 4.5527 -2.3476 0.9768
-3.0600 4.4331 -2.3476 0.9768
-3.2360 4.3063 -2.3476 0.9768
-3.4067 4.1725 -2.3476 0.9768
-3.5720 4.0319 -2.3476 0.9768
-3.8849 3.7314 -2.3476 0.9768
-4.0320 3.5720 -2.3476 0.9768
-4.1725 3.4067 -2.3476 0.9768
-4.5587 2.8827 -2.3507 0.9767
-4.7061 2.7171 -2.3683 0.9766
-5.1825 2.4591 -2.5000 0.9753
-5.3635 2.0341 -2.5000 0.9753
-5.5098 1.5959 -2.5000 0.9753
-5.5696 1.3728 -2.5000 0.9753
-2.3649 0.1909 -1.0340 0.9897
-2.3670 0.0954 -1.0324 0.9897
-2.2030 0.0000 -1.0198 0.9903
-2.2008 -0.1777 -1.0220 0.9903
-2.2080 -0.2681 -1.0295 0.9902
-2.2302 -0.3624 -1.0459 0.9901
-5.0499 -1.9152 -2.5000 0.9765
-4.8794 -2.3153 -2.5000 0.9765
-4.7823 -2.5099 -2.5000 0.9765
