ply
format ascii 1.0
element vertex 1571
property float32 x
property float32 y
property float32 z
property float32 I
end_header
16.5579 8.6903 -0.5265 0.9279
12.7391 8.0557 -0.4244 0.9415
12.0013 8.2839 -0.4106 0.9433
10.8032 9.5708 -0.4064 0.9439
10.0494 9.6526 -0.3924 0.9458
9.27 9.1847 6 -0.3769 0.9479
8.5514 9.6526 -0.3631 0.9497
7.2534 9.6526 -0.3400 0.9528
6.6627 9.6526 -0.3303 0.9542
5.5257 9.5708 -0.3112 0.9567
4.3766 8.3389 -0.2652 0.9630
2.8127 8.4251 -0.2501 0.9651
2.5502 8.8043 -0.2581 0.9640
2.2420 9.0963 -0.2638 0.9632
1.9649 9.6247 -0.2766 0.9615
1.3988 8.6073 -0.2455 0.9657
0.7820 9.6875 -0.2737 0.9619
0.3904 9.6872 -0.2730 0.9619
-0.0000 9.5885 -0.2700 0.9624
-0.3469 8.6073 -0.2426 0.9661
-0.7816 9.6811 -0.2735 0.9619
-1.1763 9.6872 -0.2748 0.9617
-1.5733 9.6811 -0.2762 0.9615
-3.9265 8.2749 -0.2579 0.9640
-2.5713 3.4217 -0.1205 0.9830
-30.8586 34.8322 -1.3103 0.8301
-32.3760 26.4341 -1.1769 0.8460
-11.1530 7.6983 -0.3816 0.9472
-29.9551 17.2945 -0.9740 0.8707
-30.2811 14.3685 -0.9438 0.8745
-31.8697 13.5784 -0.9754 0.8706
-29.9540 11.3601 -0.9021 0.8797
-29.9540 10.0001 -0.8892 0.8813
-30.0678 6.1384 -0.8641 0.8844
-49.2555 -1.9849 -2.5000 0.8208
-48.6571 -7.9075 -2.5000 0.8208
-48.2992 -9.8604 -2.5000 0.8208
-45.6578 -13.2250 -2.4107 0.8266
-43.3177 -16.4283 -2.3495 0.8306
-35.2119 -16.7083 -1.9766 0.8555
-28.6789 -16.5578 -1.6794 0.8758
-21.7457 -16.3408 -1.3795 0.8968
-15.5394 -16.1782 -1.1376 0.9141
-14.3075 -16.1499 -1.0942 0.9172
-13.4181 -16.4342 -1.0760 0.9185
-15.9603 -21.2393 -1.3474 0.8991
-24.5358 -38.8002 -2.3281 0.8320
-22.9436 -39.7398 -2.3271 0.8321
-21.3169 -40.6160 -2.3263 0.8322
-11.8360 -24.9438 -1.4002 0.8953
-10.1002 -23.7062 -1.3068 0.9019
-7.3991 -22.1631 -1.1850 0.9107
-3.9258 -15.9276 -0.8319 0.9364
-7.3448 -45.1943 -2.3221 0.8324
-3.6839 -45.6329 -2.3218 0.8325
1.0122 -25.1161 -1.2748 0.9042
3.2317 -19.8853 -1.0217 0.9225
9.1629 -44.8828 -2.3231 0.8324
10.9651 -44.4870 -2.3236 0.8323
8.4936 -29.3231 -1.5482 0.8849
9.1690 -27.4643 -1.4684 0.8905
10.0535 -26.5087 -1.4378 0.8927
8.2734 -15.7637 -0.9029 0.9312
23.0410 -39.9081 -2.3370 0.8315
10.7491 -15.5727 -0.9596 0.9270
11.6859 -15.5511 -0.9865 0.9250
12.6784 -15.5283 -1.0167 0.9228
13.8020 -15.5792 -1.0556 0.9200
14.9389 -15.5531 -1.0937 0.9173
16.1631 -15.5249 -1.1366 0.9142
17.4894 -15.4943 -1.1850 0.9107
19.1452 -15.6316 -1.2535 0.9058
20.5261 -15.4244 -1.3021 0.9023
40.5696 -28.0032 -2.5000 0.8208
43.6493 -22.9089 -2.5000 0.8208
43.8513 -20.8077 -2.4615 0.8233
43.9927 -16.6842 -2.3861 0.8282
46.7009 -13.5271 -2.4658 0.8231
48.6571 -7.9076 -2.5000 0.8208
49.2555 -1.9850 -2.5000 0.8208
29.1686 0.0000 -1.4793 0.8897
49.2555 1.9849 -2.5000 0.8208
46.2331 3.7323 -2.3523 0.8305
45.3552 9.2593 -2.3476 0.8308
44.9920 11.0896 -2.3500 0.8306
25.4361 7.3677 -1.3430 0.8994
18.3274 7.8086 -1.0103 0.9233
16.6188 7.8857 -0.9329 0.9290
14.9940 8.6568 -0.8780 0.9330
13.0857 8.2749 -0.7852 0.9399
12.0950 8.3486 -0.7453 0.9428
11.7261 8.8116 -0.7439 0.9429
10.3071 9.1313 -0.6983 0.9463
9.2714 9.6526 -0.6788 0.9478
8.5514 9.6526 -0.6540 0.9497
6.1039 9.6526 -0.5792 0.9553
4.3766 8.3389 -0.4776 0.9630
3.4628 8.1275 -0.4480 0.9652
2.8127 8.4251 -0.4505 0.9651
2.5063 8.6527 -0.4569 0.9646
2.2420 9.0963 -0.4751 0.9632
1.1637 9.5838 -0.4896 0.9621
0.0000 8.6907 -0.4407 0.9658
-0.3469 8.6073 -0.4369 0.9661
-0.7816 9.6811 -0.4926 0.9618
-1.1762 9.6871 -0.4949 0.9617
-1.5733 9.6811 -0.4974 0.9615
-1.7742 8.6905 -0.4498 0.9651
-2.3721 9.6241 -0.5027 0.9611
-2.7052 9.3393 -0.4931 0.9618
-2.9112 8.7200 -0.4662 0.9638
-3.1982 8.4329 -0.4574 0.9645
-24.3340 38.4810 -2.3090 0.8333
-29.5471 33.3518 -2.2597 0.8366
-29.9196 31.1496 -2.1904 0.8411
-31.3478 30.1099 -2.2043 0.8402
-30.6456 27.1497 -2.0764 0.8488
-30.2138 22.7042 -1.9167 0.8595
-11.1530 7.6983 -0.6873 0.9472
-29.6856 18.7720 -1.7812 0.8688
-29.8879 17.2558 -1.7502 0.8709
-30.2811 14.3685 -1.6998 0.8744
-29.9540 11.3601 -1.6247 0.8796
-29.9540 10.0002 -1.6015 0.8812
-29.9540 7.3830 -1.5646 0.8838
-30.0678 6.1384 -1.5563 0.8843
-34.0959 0.0000 -2.5000 0.8722
-33.6544 -5.4694 -2.5000 0.8722
-33.1051 -8.1597 -2.5000 0.8722
-32.3412 -10.7971 -2.5000 0.8722
-31.8802 -12.0906 -2.5000 0.8722
-21.7478 -16.3424 -1.9947 0.8966
-20.0694 -16.3861 -1.8997 0.9013
-18.4232 -16.3215 -1.8047 0.9060
-15.5888 -16.2296 -1.6500 0.9137
-14.3771 -16.2283 -1.5897 0.9167
-13.2284 -16.2019 -1.5336 -17.1606 -2.2821 -16.3445 -1.4991 0.9213
-11.1503 -16.1540 -1.4392 0.9243
-17.0634 -26.9836 -2.3409 0.8798
-9.3019 -16.1114 -1.3641 0.9281
-6.0821 -16.0373 -1.2576 0.9335
-5.3484 -16.0204 -1.2384 0.9345
-3.9184 -15.8977 -1.2005 0.9364
-3.2608 -15.9723 -1.1953 0.9367
0.0000 -15.8972 -1.1656 0.9382
1.2810 -15.8677 -1.1672 0.9381
3.2302 -15.8228 -1.1841 0.9373
3.8962 -15.8074 -1.1937 0.9368
4.5742 -15.7918 -1.2055 0.9362
5.2668 -15.7758 -1.2195 0.9355
11.3353 -26.6048 -2.1204 0.8905
8.2438 -15.7073 -1.3007 0.9313
9.0578 -15.6885 -1.3283 0.9299
9.9084 -15.6689 -1.3593 0.9283
18.1541 -26.3008 -2.3432 0.8797
13.8020 -15.5793 -1.5261 0.9199
15.0029 -15.6197 -1.5880 0.9168
16.1631 -15.5249 -1.6432 0.9140
17.4895 -15.4943 -1.7132 0.9105
18.9363 -15.4610 -1.7925 0.9066
27.0610 -17.1123 -2.3476 0.8795
30.1905 -15.8452 -2.5000 0.8722
30.8041 -14.6167 -2.5000 0.8722
31.8803 -12.0906 -2.5000 0.8722
32.3413 -10.7971 -2.5000 0.8722
32.7498 -9.4861 -2.5000 0.8722
33.1052 -8.1597 -2.5000 0.8722
33.9854 -2.7436 -2.5000 0.8722
34.0683 -1.3729 -2.5000 0.8722
34.0683 1.3729 -2.5000 0.8722
33.9854 2.7436 -2.5000 0.8722
33.4070 6.8201 -2.5000 0.8722
25.4361 7.3677 -1.9417 0.8992
32.3414 10.7971 -2.5000 0.8722
14.9939 8.6567 -1.2695 0.9329
12.9048 8.1605 -1.1195 0.9406
11.6271 8.7372 -1.0664 0.9433
10.3517 8.4519 -0.9799 0.9478
9.2714 9.6526 -0.9813 0.9477
8.5514 9.6526 -0.9455 0.9496
6.9665 8.5325 -0.8077 0.9568
6.4599 8.5966 -0.7885 0.9578
5.5061 8.7072 -0.7554 0.9595
5.5257 9.5708 -0.8103 0.9566
3.9265 8.2749 -0.6716 0.9639
3.5256 8.2749 -0.6595 0.9646
3.1333 8.2618 -0.6479 0.9652
2.8127 8.4251 -0.6513 0.9650
2.5502 8.8043 -0.6721 0.9639
2.2420 9.0963 -0.6869 0.9631
0.3901 9.6811 -0.7104 0.9619
0.0000 8.6904 -0.6372 0.9657
-0.3321 8.2414 -0.6048 0.9675
-0.7816 9.6811 -0.7122 0.9618
-1.7741 8.6902 -0.6503 0.9651
-2.3721 9.6241 -0.7268 0.9610
-2.9809 8.9289 -0.6902 0.9629
-3.5353 8.2976 -0.6613 0.9645
-3.9265 8.2749 -0.6716 0.9639
-17.9418 28.3727 -2.4614 0.8740
-2.5713 3.4217 -0.3138 0.9830
-22.2608 25.1272 -2.4614 0.8740
-24.0613 23.1112 -2.4462 0.8748
-24.4005 19.9224 -2.3097 0.8813
-26.6961 16.8816 -2.3159 0.8810
-27.3767 15.8059 -2.3178 0.8809
-29.8571 11.3233 -2.3413 0.8798
-31.6112 5.1373 -2.3482 0.8795
-34.0682 1.3729 -2.5000 0.8722
-26.0181 -1.0485 -2.4999 0.9007
-25.9557 -2.0954 -2.5000 0.9006
-25.5139 -5.2087 -2.5000 0.9006
-24.3479 -9.2340 -2.5000 0.9006
-23.5260 -11.1632 -2.5000 0.9006
-23.0574 -12.1015 -2.5000 0.9006
-22.5515 -13.0201 -2.5000 0.9006
-20.9084 -13.2217 -2.3750 0.9054
-20.1243 -13.8908 -2.3476 0.9064
-17.6444 -16.9492 -2.3490 0.9064
-13.2284 -16.2019 -2.0081 0.9194
-12.2844 -16.3475 -1.9632 0.9211
-11.1503 -16.1540 -1.8844 0.9242
-9.3019 -16.1114 -1.7861 0.9280
-8.4455 -16.0917 -1.7447 0.9296
-7.6266 -16.0728 -1.7080 0.9310
-6.9195 -16.2407 -1.6948 0.9315
-7.3518 -22.0214 -2.2289 0.9109
-4.6356 -16.0040 -1.5996 0.9352
-3.9174 -24.1047 -2.3445 0.9065
-0.9833 -24.3993 -2.3444 0.9065
0.0000 -24.4194 -2.3444 0.9065
0.9833 -24.4002 -2.3444 0.9065
5.2668 -15.7758 -1.5967 0.9354
9.5817 -22.4891 -2.3469 0.9064
8.2438 -15.7073 -1.7030 0.9312
9.9084 -15.6689 -1.7798 0.9282
10.8486 -15.7169 -1.8335 0.9261
16.2426 -18.3341 -2.3516 0.9063
18.3033 -16.2152 -2.3476 0.9064
18.9412 -15.4650 -2.3476 0.9064
20.1242 -13.8907 -2.3476 0.9064
20.8828 -13.2055 -2.3721 0.9055
22.5515 -13.0201 -2.5000 0.9006
23.5260 -11.1632 -2.5000 0.9006
24.3479 -9.2340 -2.5000 0.9006
25.0121 -7.2448 -2.5000 0.9006
25.2835 -6.2318 -2.5000 0.9006
25.7029 -4.1771 -2.5000 0.9006
26.0190 -1.0485 -2.5000 0.9006
26.0401 0.0000 -2.5000 0.9006
26.0190 1.0485 -2.5000 0.9006
25.9557 2.0954 -2.5000 0.9006
25.8503 3.1388 -2.5000 0.9006
23.7422 5.8519 -2.3476 0.9064
23.4873 6.8032 -2.3476 0.9064
22.9023 8.6857 -2.3516 0.9063
16.5878 7.0674 -1.7310 0.9301
14.9576 7.0975 -1.5895 0.9356
14.9950 7.8700 -1.6258 0.9342
13.0857 8.2749 -1.4864 0.9397
11.7261 8.8116 -1.4082 0.9428
9.5341 8.4464 -1.2229 0.9501
8.5514 9.6526 -1.2381 0.9495
6.7055 8.2128 -1.0179 0.9583
6.1721 8.2135 -0.9864 0.9596
5.4165 8.5655 -0.9729 0.9601
5.5257 9.5708 -1.0610 0.9566
4.3766 8.3389 -0.9041 0.9629
3.8534 8.1208 -0.8630 0.9645
3.4628 8.1275 -0.8482 0.9651
2.5063 8.6527 -0.8648 0.9644
2.2420 9.0963 -0.8994 0.9631
1.3338 8.2069 -0.7982 0.9671
-0.3247 8.0577 -0.7742 0.9681
-0.7816 9.6811 -0.9325 0.9617
-1.1755 9.6811 -0.9363 0.9616
-2.3721 9.6241 -0.9516 0.9610
-2.9112 8.7200 -0.8826 0.9637
-3.1982 8.4329 -0.8659 0.9644
-3.5353 8.2976 -0.8659 0.9644
-4.8002 8.3142 -0.9217 0.9622
-13.7027 21.6692 -2.4614 0.9021
-2.5713 3.4218 -0.4109 0.9829
-16.2147 19.8595 -2.4614 0.9021
-17.0013 19.1904 -2.4614 0.9021
-17.7602 18.4903 -2.4614 0.9021
-19.1904 17.0012 -2.4614 0.9021
-21.6692 13.7028 -2.4614 0.9021
-22.2034 12.8191 -2.4614 0.9021
-22.7015 11.9147 -2.4614 0.9021
-23.5503 10.0338 -2.4576 0.9022
-23.5149 8.9180 -2.4144 0.9039
-23.4799 7.8387 -2.3765 0.9053
-23.4905 6.8041 -2.3479 0.9064
-24.1510 4.9305 -2.3664 0.9057
-24.8790 4.0432 -2.4198 0.9037
-25.8503 3.1388 -2.5000 0.9006
-26.0035 1.0479 -2.4985 0.9007
-21.0462 0.0000 -2.5000 0.9187
-20.9779 -1.6935 -2.5000 0.9187
-20.8927 -2.5368 -2.5000 0.9187
-20.7736 -3.3761 -2.5000 0.9187
-20.6208 -4.2098 -2.5000 0.9187
-20.2152 -5.8554 -2.5000 0.9187
-19.6785 -7.4631 -2.5000 0.9187
-19.0142 -9.0223 -2.5000 0.9187
-17.7880 -11.2485 -2.5000 0.9187
-16.8252 -12.6433 -2.5000 0.9187
-16.1676 -13.2005 -2.4793 0.9194
-14.9229 -13.2205 -2.3682 0.9228
-13.6904 -14.2532 -2.3476 0.9235
-13.1054 -14.7929 -2.3476 0.9235
-11.8748 -15.8025 -2.3480 0.9235
-10.5673 -16.7109 -2.3486 0.9234
-9.8863 -17.1242 -2.3488 0.9234
-9.1987 -17.5268 -2.3513 0.9234
-7.6266 -16.0728 -2.1133 0.9308
-6.8403 -16.0547 -2.0730 0.9321
-6.0821 -16.0373 -2.0374 0.9332
-4.6356 -16.0040 -1.9792 0.9351
-1.9479 -16.0423 -1.9196 0.9370
-1.2974 -16.0711 -1.9152 0.9371
-0.6477 -16.0735 -1.9109 0.9373
0.0000 -16.0498 -1.9065 0.9374
0.6448 -16.0003 -1.9021 0.9375
1.2856 -15.9251 -1.8978 0.9377
3.2302 -15.8228 -1.9183 0.9370
3.8962 -15.8074 -1.9339 0.9365
8.4871 -17.8862 -2.3517 0.9233
8.2668 -15.7510 -2.1130 0.9309
9.8838 -17.1192 -2.3481 0.9235
10.5643 -16.7061 -2.3479 0.9235
11.2269 -16.2649 -2.3476 0.9235
11.8726 -15.7996 -2.3476 0.9235
13.6904 -14.2532 -2.3476 0.9235
14.9099 -13.2090 -2.3661 0.9229
17.3206 -11.9556 -2.5000 0.9187
18.2265 -10.5231 -2.5000 0.9187
19.0143 -9.0223 -2.5000 0.9187
19.6785 -7.4631 -2.5000 0.9187
19.9630 -6.6646 -2.5000 0.9187
20.6208 -4.2098 -2.5000 0.9187
9.1136 -1.4811 -1.0968 0.9635
9.1012 -1.1051 -1.0890 0.9637
9.1732 -0.7405 -1.0932 0.9636
21.0461 0.0000 -2.5000 0.9187
21.0291 0.8474 -2.5000 0.9187
20.9779 1.6935 -2.5000 0.9187
20.8927 2.5368 -2.5000 0.9187
19.1889 4.7296 -2.3476 0.9235
18.9829 5.4985 -2.3476 0.9235
16.6317 7.0861 -2.1475 0.9298
14.9965 7.1159 -1.9717 0.9353
13.0857 8.2749 -1.8391 0.9395
12.0950 8.3486 -1.7457 0.9425
10.3450 8.4465 -1.5864 0.9476
9.2714 9.6526 -1.5898 0.9475
6.1715 8.2128 -1.2203 0.9595
5.6689 8.2128 -1.1854 0.9606
5.5257 9.5708 -1.3128 0.9565
4.3766 8.3389 -1.1187 0.9628
3.8803 8.1775 -1.0752 0.9642
3.4837 8.1767 -1.0558 0.9648
1.3042 8.0252 -0.9658 0.9678
1.1590 9.5451 -1.1422 0.9620
0.7732 9.5782 -1.1415 0.9620
-1.1581 9.5379 -1.1413 0.9620
-1.5422 9.4894 -1.1420 0.9620
-1.7469 8.5566 -1.0374 0.9654
-1.9741 8.0092 -0.9799 0.9673
-2.7052 9.3393 -1.1550 0.9616
-2.9321 8.7827 -1.0999 0.9634
-3.2184 8.4861 -1.0781 0.9641
-3.5353 8.2976 -1.0714 0.9643
-3.8852 8.1879 -1.0765 0.9642
-4.2864 8.1671 -1.0956 0.9635
-4.8002 8.3142 -1.1404 0.9621
-2.5713 3.4217 -0.5084 0.9829
-13.1051 16.0508 -2.4614 0.9199
-17.5134 11.0748 -2.4614 0.9199
-17.9452 10.3606 -2.4614 0.9199
-18.3478 9.6296 -2.4614 0.9199
-19.3781 7.3491 -2.4618 0.9199
-19.7135 6.5814 -2.4687 0.9197
-19.9985 5.7926 -2.4732 0.9196
-20.5350 4.1923 -2.4896 0.9190
-20.8802 2.5353 -2.4985 0.9188
-20.9699 1.6929 -2.4990 0.9187
-17.6441 0.0000 -2.5000 0.9312
-17.6298 -0.7105 -2.5000 0.9312
-17.5869 -1.4198 -2.5000 0.9312
-17.2876 -3.5293 -2.5000 0.9312
-16.9475 -4.9089 -2.5000 0.9312
-16.7361 -5.5873 -2.5000 0.9312
-15.9406 -7.5639 -2.5000 0.9312
-15.2803 -8.8221 -2.5000 0.9312
-14.9126 -9.4302 -2.5000 0.9312
-14.5208 -10.0230 -2.5000 0.9312
-14.1055 -10.5996 -2.5000 0.9312
-13.2068 -11.7002 -2.5000 0.9312
-12.7250 -12.2225 -2.5000 0.9312
-10.7856 -13.2100 -2.4163 0.9334
-9.9534 -13.2456 -2.3476 0.9353
-9.4120 -13.6356 -2.3476 0.9353
-8.8553 -14.0036 -2.3476 0.9353
-7.1028 -14.9688 -2.3476 0.9353
-6.4943 -15.2427 -2.3476 0.9353
-5.2471 -15.7170 -2.3478 0.9353
-4.6102 -15.9163 -2.3479 0.9352
-3.3148 -16.2369 -2.3480 0.9352
-2.6584 -16.3577 -2.3481 0.9352
-1.3335 -16.5190 -2.3482 0.9352
0.0000 -16.5727 -2.3482 0.9352
0.6673 -16.5590 -2.3481 0.9352
1.3335 -16.5184 -2.3481 0.9352
2.6582 -16.3565 -2.3479 0.9352
3.3145 -16.2354 -2.3478 0.9352
3.9654 -16.0880 -2.3477 0.9353
7.1028 -14.9689 -2.3476 0.9353
9.4120 -13.6356 -2.3476 0.9353
9.9534 -13.2456 -2.3476 0.9353
10.7788 -13.2016 -2.4148 0.9335
12.7248 -12.2225 -2.5000 0.9312
13.6672 -11.1589 -2.5000 0.9312
14.5208 -10.0230 -2.5000 0.9312
14.9126 -9.4302 -2.5000 0.9312
15.2802 -8.8221 -2.5000 0.9312
15.6231 -8.1996 -2.5000 0.9312
15.9406 -7.5639 -2.5000 0.9312
16.2322 -6.9159 -2.5000 0.9312
16.4975 -6.2567 -2.5000 0.9312
16.7361 -5.5873 -2.5000 0.9312
16.9475 -4.9089 -2.5000 0.9312
17.1314 -4.2225 -2.5000 0.9312
10.5570 -2.1552 -1.5267 0.9574
8.6594 -1.4073 -1.2430 0.9652
8.6572 -1.0512 -1.2356 0.9654
8.8238 -0.3556 -1.2513 0.9650
17.6441 0.0000 -2.5000 0.9312
17.5869 1.4198 -2.5000 0.9312
16.2337 3.3141 -2.3476 0.9353
16.0871 3.9651 -2.3476 0.9353
15.9144 4.6096 -2.3476 0.9353
15.7158 5.2467 -2.3476 0.9353
15.4918 5.8753 -2.3476 0.9353
15.2427 6.4943 -2.3476 0.9353
14.9407 7.0895 -2.3432 0.9354
14.6162 7.6712 -2.3389 0.9355
14.3040 8.2584 -2.3403 0.9355
12.8439 8.1220 -2.1532 0.9405
10.3450 8.4465 -1.8923 0.9475
8.9208 7.9031 -1.6887 0.9530
5.6689 8.2128 -1.4140 0.9605
5.4165 8.5655 -1.4359 0.9599
5.5257 9.5708 -1.5659 0.9563
4.3766 8.3389 -1.3344 0.9627
2.8127 8.4251 -1.2585 0.9648
2.2420 9.0963 -1.3274 0.9629
1.9648 9.6242 -1.3918 0.9611
1.2758 7.8504 -1.1269 0.9684
0.3591 8.9101 -1.2635 0.9646
-1.4315 8.8083 -1.2644 0.9646
-1.7469 8.5568 -1.2374 0.9653
-1.9305 7.8323 -1.1430 0.9679
-2.7052 9.3393 -1.3777 0.9615
-2.9809 8.9289 -1.3338 0.9627
-3.1982 8.4329 -1.2779 0.9642
-3.5353 8.2976 -1.2779 0.9642
-4.3430 8.2749 -1.3241 0.9629
-4.8002 8.3142 -1.3603 0.9620
-8.7299 13.8052 -2.3143 0.9361
-2.5713 3.4217 -0.6065 0.9829
-10.3212 12.6412 -2.3123 0.9362
-10.8155 12.2081 -2.3109 0.9362
-16.0060 6.8195 -2.4651 0.9321
-16.3356 6.1953 -2.4754 0.9319
-16.5963 5.5407 -2.4791 0.9318
-16.8314 4.8753 -2.4829 0.9317
-17.0786 4.2095 -2.4923 0.9314
-17.2778 3.5273 -2.4986 0.9312
-17.4086 2.8292 -2.4990 0.9312
-17.5115 2.1263 -2.4994 0.9312
-15.1631 -0.6111 -2.5000 0.9403
-15.1262 -1.2211 -2.5000 0.9403
-15.0648 -1.8292 -2.5000 0.9403
-14.8687 -3.0355 -2.5000 0.9403
-14.7344 -3.6317 -2.5000 0.9403
-14.1893 -5.3813 -2.5000 0.9403
-13.7102 -6.5056 -2.5000 0.9403
-12.4891 -8.6206 -2.5000 0.9403
-12.1319 -9.1165 -2.5000 0.9403
-10.9446 -10.5124 -2.5000 0.9403
-10.5124 -10.9445 -2.5000 0.9403
-10.0632 -11.3590 -2.5000 0.9403
-9.1165 -12.1319 -2.5000 0.9403
-6.9284 -13.2011 -2.4561 0.9414
-5.6313 -13.2171 -2.3668 0.9434
-5.0532 -13.3243 -2.3476 0.9439
-3.9647 -13.6877 -2.3476 0.9439
-2.2859 -14.0658 -2.3476 0.9439
-0.0000 -14.2503 -2.3476 0.9439
0.5738 -14.2387 -2.3476 0.9439
1.1467 -14.2041 -2.3476 0.9439
2.8504 -13.9623 -2.3476 0.9439
3.9647 -13.6877 -2.3476 0.9439
4.5126 -13.5169 -2.3476 0.9439
5.6294 -13.2127 -2.3660 0.9434
6.9256 -13.1957 -2.4551 0.9414
7.5876 -13.1423 -2.5000 0.9403
8.1107 -12.8261 -2.5000 0.9403
8.6206 -12.4891 -2.5000 0.9403
9.1165 -12.1319 -2.5000 0.9403
9.5976 -11.7550 -2.5000 0.9403
10.0632 -11.3589 -2.5000 0.9403
10.5124 -10.9445 -2.5000 0.9403
10.9446 -10.5124 -2.5000 0.9403
11.3590 -10.0632 -2.5000 0.9403
11.7548 -9.5976 -2.5000 0.9403
12.1319 -9.1165 -2.5000 0.9403
12.4891 -8.6206 -2.5000 0.9403
12.8261 -8.1107 -2.5000 0.9403
13.7102 -6.5056 -2.5000 0.9403
13.9611 -5.9483 -2.5000 0.9403
14.3944 -4.8056 -2.5000 0.9403
14.7344 -3.6317 -2.5000 0.9403
8.1923 -1.3314 -1.3673 0.9669
8.1882 -0.9942 -1.3588 0.9671
8.3494 -0.3365 -1.3766 0.9667
15.1754 0.0000 -2.5000 0.9403
15.1631 0.6110 -2.5000 0.9403
15.1262 1.2211 -2.5000 0.9403
13.9624 2.8504 -2.3476 0.9439
13.8362 3.4103 -2.3476 0.9439
13.6877 3.9647 -2.3476 0.9439
13.1100 5.5856 -2.3476 0.9439
12.8744 6.1090 -2.3476 0.9439
12.6180 6.6224 -2.3476 0.9439
12.3050 7.1043 -2.3407 0.9440
11.6728 8.0572 -2.3366 0.9441
8.9370 7.9175 -1.9670 0.9527
8.5590 8.2211 -1.9551 0.9530
7.3821 8.3327 -1.8339 0.9559
6.1715 8.2128 -1.6924 0.9592
5.4165 8.5655 -1.6695 0.9597
5.5257 9.5708 -1.8206 0.9562
4.3766 8.3389 -1.5515 0.9625
3.9265 8.2749 -1.5089 0.9636
3.5256 8.2749 -1.4818 0.9642
2.8127 8.4251 -1.4633 0.9646
2.2420 9.0963 -1.5434 0.9627
1.2485 7.6821 -1.2821 0.9689
1.0418 8.5800 -1.4239 0.9656
0.6928 8.5815 -1.4183 0.9657
0.3459 8.5829 -1.4151 0.9658
-0.0000 7.6974 -1.2681 0.9693
-0.3101 7.6959 -1.2688 0.9693
-0.6929 8.5834 -1.4186 0.9657
-1.7469 8.5570 -1.4387 0.9652
-2.9651 8.8815 -1.5425 0.9628
-3.9265 8.2749 -1.5089 0.9636
-4.3291 8.2483 -1.5346 0.9629
-4.8002 8.3142 -1.5816 0.9618
-2.5713 3.4217 -0.7051 0.9828
-8.8849 10.8820 -2.3143 0.9446
-9.3158 10.5154 -2.3143 0.9446
-9.7287 10.1287 -2.3136 0.9447
-10.5024 9.3043 -2.3115 0.9447
-10.8639 8.8700 -2.3105 0.9447
-13.5341 6.4220 -2.4679 0.9411
-14.0958 5.3458 -2.4835 0.9407
-14.3209 4.7810 -2.4872 0.9406
-14.9772 2.4340 -2.4997 0.9403
-15.0648 1.8292 -2.5000 0.9403
-13.3006 0.0000 -2.5000 0.9473
-13.2898 -0.5356 -2.5000 0.9473
-13.2574 -1.0703 -2.5000 0.9473
-13.1283 -2.1336 -2.5000 0.9473
-12.9141 -3.1830 -2.5000 0.9473
-12.4362 -4.7164 -2.5000 0.9473
-12.0164 -5.7018 -2.5000 0.9473
-11.5186 -6.6503 -2.5000 0.9473
-10.9462 -7.5556 -2.5000 0.9473
-10.6330 -7.9902 -2.5000 0.9473
-10.3027 -8.4119 -2.5000 0.9473
-9.9556 -8.8199 -2.5000 0.9473
-9.5924 -9.2136 -2.5000 0.9473
-7.9902 -10.6330 -2.5000 0.9473
-7.5556 -10.9462 -2.5000 0.9473
-6.6503 -11.5186 -2.5000 0.9473
-6.1811 -11.7771 -2.5000 0.9473
-4.2119 -12.6161 -2.5000 0.9473
-2.6605 -13.0318 -2.5000 0.9473
-2.1336 -13.1283 -2.5000 0.9473
0.0000 -13.1939 -2.4799 0.9477
1.6016 -13.1900 -2.4974 0.9474
2.1335 -13.1283 -2.5000 0.9473
2.6604 -13.0318 -2.5000 0.9473
4.2119 -12.6161 -2.5000 0.9473
4.7164 -12.4362 -2.5000 0.9473
5.2146 -12.2362 -2.5000 0.9473
5.7019 -12.0164 -2.5000 0.9473
7.5556 -10.9461 -2.5000 0.9473
7.9902 -10.6330 -2.5000 0.9473
8.8200 -9.9556 -2.5000 0.9473
9.9556 -8.8199 -2.5000 0.9473
10.9462 -7.5556 -2.5000 0.9473
11.2415 -7.1087 -2.5000 0.9473
11.7771 -6.1811 -2.5000 0.9473
12.7754 -3.7004 -2.5000 0.9473
12.9141 -3.1830 -2.5000 0.9473
8.0093 -1.6351 -1.5365 0.9673
8.0679 -0.3251 -1.5177 0.9677
13.2574 1.0703 -2.5000 0.9473
13.2036 1.6032 -2.5000 0.9473
13.1283 2.1336 -2.5000 0.9473
12.1268 2.9890 -2.3476 0.9504
11.9966 3.4749 -2.3476 0.9504
11.8470 3.9551 -2.3476 0.9504
11.0591 5.8043 -2.3476 0.9504
10.8164 6.2449 -2.3476 0.9504
8.9231 7.9052 -2.2407 0.9526
8.5742 8.2356 -2.2346 0.9528
7.7881 8.1083 -2.1132 0.9553
7.8602 9.6269 -2.3360 0.9507
6.1715 8.2128 -1.9310 0.9590
5.4165 8.5655 -1.9049 0.9596
5.5257 9.5708 -2.0772 0.9560
3.1333 8.2618 -1.6608 0.9647
2.8127 8.4251 -1.6695 0.9645
2.2420 9.0963 -1.7609 0.9626
1.5330 7.5091 -1.4405 0.9693
1.2347 7.5975 -1.4468 0.9692
-0.3036 7.5346 -1.4174 0.9698
-0.6781 8.3995 -1.5839 0.9663
-1.0197 8.3981 -1.5901 0.9662
-1.3646 8.3967 -1.5990 0.9660
-1.7139 8.3953 -1.6105 0.9657
-2.9809 8.9289 -1.7693 0.9624
-3.5353 8.2976 -1.6953 0.9640
-3.9265 8.2749 -1.7216 0.9634
-4.3430 8.2749 -1.7566 0.9627
-4.8002 8.3142 -1.8045 0.9617
-6.5843 10.4122 -2.3156 0.9511
-6.9964 10.1361 -2.3150 0.9511
-2.5713 3.4217 -0.8045 0.9827
-8.1649 9.2163 -2.3143 0.9511
-8.5294 8.8800 -2.3143 0.9511
-9.2163 8.1649 -2.3143 0.9511
-9.8380 7.3927 -2.3131 0.9511
-10.1146 6.9816 -2.3101 0.9512
-10.9674 5.7561 -2.3281 0.9508
-11.9109 5.6518 -2.4780 0.9478
-12.9121 3.1825 -2.4996 0.9473
-13.0315 2.6604 -2.4999 0.9473
-13.1283 2.1336 -2.5000 0.9473
-11.8174 -0.4762 -2.5000 0.9528
-11.7886 -0.9517 -2.5000 0.9528
-11.4833 -2.8304 -2.5000 0.9528
-11.0584 -4.1939 -2.5000 0.9528
-10.8806 -4.6358 -2.5000 0.9528
-10.4723 -5.4963 -2.5000 0.9528
-10.2425 -5.9135 -2.5000 0.9528
-9.9960 -6.3211 -2.5000 0.9528
-9.7334 -6.7185 -2.5000 0.9528
-9.4550 -7.1050 -2.5000 0.9528
-9.1612 -7.4799 -2.5000 0.9528
-8.8526 -7.8427 -2.5000 0.9528
-8.5296 -8.1928 -2.5000 0.9528
-8.1928 -8.5296 -2.5000 0.9528
-7.8428 -8.8526 -2.5000 0.9528
-7.1050 -9.4550 -2.5000 0.9528
-6.7185 -9.7334 -2.5000 0.9528
-6.3211 -9.9960 -2.5000 0.9528
-5.9135 -10.2425 -2.5000 0.9528
-5.4963 -10.4723 -2.5000 0.9528
-5.0701 -10.6851 -2.5000 0.9528
-3.2905 -11.3600 -2.5000 0.9528
-1.4256 -11.7407 -2.5000 0.9528
0.4762 -11.8174 -2.5000 0.9528
1.4256 -11.7407 -2.5000 0.9528
1.8972 -11.6738 -2.5000 0.9528
2.3657 -11.5880 -2.5000 0.9528
4.6361 -10.8805 -2.5000 0.9528
5.0703 -10.6851 -2.5000 0.9528
5.4963 -10.4723 -2.5000 0.9528
5.9134 -10.2425 -2.5000 0.9528
6.3211 -9.9960 -2.5000 0.9528
7.1049 -9.4550 -2.5000 0.9528
7.8427 -8.8526 -2.5000 0.9528
8.1928 -8.5296 -2.5000 0.9528
8.5296 -8.1928 -2.5000 0.9528
9.1612 -7.4799 -2.5000 0.9528
9.7334 -6.7185 -2.5000 0.9528
9.9960 -6.3211 -2.5000 0.9528
10.2425 -5.9135 -2.5000 0.9528
10.4723 -5.4963 -2.5000 0.9528
11.0584 -4.1939 -2.5000 0.9528
11.2183 -3.7452 -2.5000 0.9528
11.4833 -2.8304 -2.5000 0.9528
7.8518 -1.6029 -1.6939 0.9678
7.9554 -0.3206 -1.6830 0.9680
8.2562 -0.0000 -1.7452 0.9668
11.7407 1.4256 -2.5000 0.9528
11.6738 1.8972 -2.5000 0.9528
11.5879 2.3657 -2.5000 0.9528
11.0223 2.7167 -2.3996 0.9546
10.3843 3.9382 -2.3476 0.9556
9.6181 5.5530 -2.3476 0.9556
9.3867 5.9358 -2.3476 0.9556
9.1400 6.3089 -2.3476 0.9556
8.5857 7.0100 -2.3429 0.9557
7.6409 7.9551 -2.3316 0.9559
5.6849 8.2360 -2.1154 0.9599
4.3766 8.3389 -1.9907 0.9622
3.5256 8.2749 -1.9013 0.9639
2.2420 9.0963 -1.9803 0.9624
1.4343 7.0259 -1.5158 0.9711
0.9963 8.2050 -1.7471 0.9668
0.3308 8.2078 -1.7364 0.9670
-0.9965 8.2070 -1.7475 0.9668
-1.6749 8.2042 -1.7700 0.9663
-2.7052 9.3393 -2.0553 0.9610
-3.1982 8.4329 -1.9064 0.9638
-3.5353 8.2976 -1.9065 0.9638
-3.9265 8.2749 -1.9361 0.9632
-4.3430 8.2749 -1.9754 0.9625
-4.8002 8.3142 -2.0293 0.9615
-5.8572 9.2624 -2.3165 0.9562
-6.2240 9.0170 -2.3160 0.9562
-6.9264 8.4833 -2.3150 0.9562
-7.2609 8.1958 -2.3145 0.9562
-7.5844 7.8962 -2.3143 0.9562
-7.8962 7.5844 -2.3143 0.9562
-9.0907 6.2749 -2.3349 0.9558
-9.8188 5.1533 -2.3440 0.9557
-11.2162 3.7445 -2.4995 0.9528
-11.4833 2.8304 -2.5000 0.9528
-11.5880 2.3657 -2.5000 0.9528
-11.6738 1.8972 -2.5000 0.9528
-11.7408 1.4256 -2.5000 0.9528
-11.7886 0.9517 -2.5000 0.9528
-11.8174 0.4762 -2.5000 0.9528
-10.6372 0.0000 -2.5000 0.9572
-10.6286 -0.4283 -2.5000 0.9572
-10.6027 -0.8559 -2.5000 0.9572
-10.5596 -1.2822 -2.5000 0.9572
-10.3281 -2.5457 -2.5000 0.9572
-10.2172 -2.9595 -2.5000 0.9572
-9.7860 -4.1694 -2.5000 0.9572
-9.6102 -4.5601 -2.5000 0.9572
-9.4188 -4.9433 -2.5000 0.9572
-9.2121 -5.3186 -2.5000 0.9572
-8.9904 -5.6852 -2.5000 0.9572
-8.7542 -6.0426 -2.5000 0.9572
-8.5038 -6.3902 -2.5000 0.9572
-8.2396 -6.7274 -2.5000 0.9572
-7.9621 -7.0538 -2.5000 0.9572
-7.6716 -7.3686 -2.5000 0.9572
-7.0538 -7.9621 -2.5000 0.9572
-6.7275 -8.2396 -2.5000 0.9572
-6.3902 -8.5038 -2.5000 0.9572
-6.0426 -8.7542 -2.5000 0.9572
-5.3186 -9.2121 -2.5000 0.9572
-4.5601 -9.6102 -2.5000 0.9572
-4.1694 -9.7860 -2.5000 0.9572
-3.7720 -9.9459 -2.5000 0.9572
-3.3685 -10.0898 -2.5000 0.9572
-2.5457 -10.3281 -2.5000 0.9572
-2.1277 -10.4222 -2.5000 0.9572
-1.7063 -10.4995 -2.5000 0.9572
-0.0000 -10.6372 -2.5000 0.9572
0.4283 -10.6286 -2.5000 0.9572
1.2822 -10.5596 -2.5000 0.9572
1.7063 -10.4995 -2.5000 0.9572
2.1276 -10.4222 -2.5000 0.9572
2.9594 -10.2172 -2.5000 0.9572
3.7720 -9.9460 -2.5000 0.9572
4.5600 -9.6102 -2.5000 0.9572
4.9433 -9.4188 -2.5000 0.9572
5.3186 -9.2121 -2.5000 0.9572
5.6852 -8.9905 -2.5000 0.9572
6.0426 -8.7542 -2.5000 0.9572
7.3686 -7.6716 -2.5000 0.9572
7.6716 -7.3686 -2.5000 0.9572
8.5038 -6.3902 -2.5000 0.9572
9.2121 -5.3186 -2.5000 0.9572
9.7860 -4.1694 -2.5000 0.9572
10.0898 -3.3685 -2.5000 0.9572
10.2172 -2.9595 -2.5000 0.9572
7.7799 -1.5883 -1.8662 0.9679
7.7244 -0.9379 -1.8287 0.9685
7.8788 -0.3175 -1.8532 0.9681
10.6286 0.4283 -2.5000 0.9572
10.6027 0.8559 -2.5000 0.9572
10.4994 1.7063 -2.5000 0.9572
10.4222 2.1277 -2.5000 0.9572
10.3281 2.5456 -2.5000 0.9572
9.4747 3.1631 -2.3476 0.9598
9.3396 3.5421 -2.3476 0.9598
9.1894 3.9153 -2.3476 0.9598
8.4424 5.3386 -2.3476 0.9598
7.7373 6.3173 -2.3476 0.9598
7.2039 6.9194 -2.3476 0.9598
6.8676 7.1499 -2.3300 0.9601
6.5729 7.4192 -2.3295 0.9601
5.9545 7.9240 -2.3295 0.9601
4.9577 8.5870 -2.3303 0.9601
4.3766 8.3389 -2.2134 0.9620
3.9265 8.2749 -2.1526 0.9631
2.5489 8.7998 -2.1532 0.9631
1.4424 7.0653 -1.6948 0.9708
1.2740 7.8390 -1.8665 0.9679
-0.2847 7.0638 -1.6615 0.9714
-0.9739 8.0210 -1.8990 0.9673
-1.3033 8.0197 -1.9095 0.9672
-1.6370 8.0183 -1.9234 0.9669
-1.7445 7.0776 -1.7132 0.9705
-3.5353 8.2976 -2.1197 0.9636
-3.9265 8.2749 -2.1526 0.9631
-4.2576 8.1121 -2.1532 0.9631
-4.8002 8.3142 -2.2563 0.9613
-5.2699 8.3336 -2.3173 0.9603
-6.5331 7.3744 -2.3155 0.9603
-6.8797 7.1625 -2.3341 0.9600
-7.2038 6.9193 -2.3475 0.9598
-7.4766 6.6237 -2.3475 0.9598
-7.7373 6.3173 -2.3476 0.9598
-7.9854 6.0007 -2.3476 0.9598
-8.4424 5.3387 -2.3476 0.9598
-8.6505 4.9944 -2.3476 0.9598
-8.8446 4.6420 -2.3476 0.9598
-9.0243 4.2821 -2.3476 0.9598
-9.1894 3.9152 -2.3476 0.9598
-10.2172 2.9595 -2.5000 0.9572
-10.4995 1.7063 -2.5000 0.9572
-10.5596 1.2822 -2.5000 0.9572
-10.6027 0.8559 -2.5000 0.9572
-9.6477 -0.3888 -2.5000 0.9609
-9.5305 -1.5489 -2.5000 0.9609
-9.2743 -2.6863 -2.5000 0.9609
-8.8829 -3.7846 -2.5000 0.9609
-8.7233 -4.1392 -2.5000 0.9609
-8.3619 -4.8278 -2.5000 0.9609
-6.4028 -7.2273 -2.5000 0.9609
-5.8005 -7.7190 -2.5000 0.9609
-5.4850 -7.9463 -2.5000 0.9609
-5.1605 -8.1608 -2.5000 0.9609
-4.4871 -8.5495 -2.5000 0.9609
-4.1392 -8.7233 -2.5000 0.9609
-3.7846 -8.8829 -2.5000 0.9609
-3.0576 -9.1586 -2.5000 0.9609
-2.3107 -9.3750 -2.5000 0.9609
-1.9314 -9.4604 -2.5000 0.9609
-1.5489 -9.5305 -2.5000 0.9609
-1.1638 -9.5851 -2.5000 0.9609
-0.7770 -9.6242 -2.5000 0.9609
-0.3888 -9.6477 -2.5000 0.9609
1.1638 -9.5851 -2.5000 0.9609
1.5489 -9.5305 -2.5000 0.9609
2.3107 -9.3749 -2.5000 0.9609
3.0576 -9.1586 -2.5000 0.9609
3.7846 -8.8829 -2.5000 0.9609
4.1392 -8.7233 -2.5000 0.9609
4.4871 -8.5496 -2.5000 0.9609
5.1605 -8.1608 -2.5000 0.9609
5.8005 -7.7190 -2.5000 0.9609
6.9636 -6.6886 -2.5000 0.9609
7.2272 -6.4028 -2.5000 0.9609
7.7190 -5.8005 -2.5000 0.9609
8.5495 -4.4871 -2.5000 0.9609
8.7233 -4.1392 -2.5000 0.9609
8.8829 -3.7846 -2.5000 0.9609
9.0281 -3.4239 -2.5000 0.9609
9.2743 -2.6863 -2.5000 0.9609
9.3749 -2.3107 -2.5000 0.9609
7.7018 -1.2517 -2.0203 0.9683
7.7180 -0.9371 -2.0130 0.9684
7.7694 -0.6272 -2.0182 0.9683
7.8543 -0.3165 -2.0353 0.9680
8.0989 0.0000 -2.0970 0.9671
9.6477 0.3888 -2.5000 0.9609
9.5851 1.1638 -2.5000 0.9609
8.6004 2.8712 -2.3476 0.9632
8.4777 3.2152 -2.3476 0.9632
8.3414 3.5539 -2.3476 0.9632
8.1915 3.8869 -2.3476 0.9632
8.0283 4.2136 -2.3476 0.9632
7.6633 4.8459 -2.3476 0.9632
7.4619 5.1506 -2.3476 0.9632
7.2485 5.4469 -2.3476 0.9632
6.7867 6.0125 -2.3476 0.9632
6.5391 6.2809 -2.3476 0.9632
6.0125 6.7867 -2.3476 0.9632
5.7256 7.0125 -2.3440 0.9633
5.1076 7.3996 -2.3280 0.9635
4.8047 7.5980 -2.3276 0.9635
4.4945 7.7847 -2.3274 0.9635
4.1776 7.9599 -2.3276 0.9635
3.1333 8.2618 -2.2878 0.9641
2.8127 8.4251 -2.2998 0.9640
2.5011 8.6348 -2.3276 0.9635
1.4440 7.0732 -1.8692 0.9706
0.9517 7.8382 -2.0444 0.9679
0.6329 7.8395 -2.0364 0.9680
-0.2850 7.0716 -1.8324 0.9712
-1.2739 7.8389 -2.0563 0.9677
-1.6000 7.8375 -2.0711 0.9675
-1.7442 7.0766 -1.8871 0.9703
-2.4943 8.6114 -2.3213 0.9636
-2.8384 8.5021 -2.3208 0.9636
-3.1777 8.3789 -2.3202 0.9636
-3.5113 8.2413 -2.3194 0.9637
-3.8389 8.0904 -2.3186 0.9637
-5.0836 7.3648 -2.3170 0.9637
-6.2809 6.5391 -2.3476 0.9632
-6.5391 6.2809 -2.3476 0.9632
-7.0233 5.7343 -2.3476 0.9632
-7.2485 5.4469 -2.3476 0.9632
-7.4619 5.1506 -2.3476 0.9632
-7.8522 4.5335 -2.3476 0.9632
-8.0284 4.2136 -2.3476 0.9632
-8.1915 3.8869 -2.3476 0.9632
-8.3414 3.5539 -2.3476 0.9632
-8.4777 3.2152 -2.3476 0.9632
-9.2743 2.6863 -2.5000 0.9609
-9.4604 1.9314 -2.5000 0.9609
-9.5305 1.5489 -2.5000 0.9609
-9.5851 1.1638 -2.5000 0.9609
-8.8310 0.0000 -2.5000 0.9640
-8.7666 -1.0645 -2.5000 0.9640
-8.6525 -1.7664 -2.5000 0.9640
-8.5744 -2.1134 -2.5000 0.9640
-8.3765 -2.7965 -2.5000 0.9640
-7.9784 -3.7858 -2.5000 0.9640
-7.8194 -4.1040 -2.5000 0.9640
-7.6478 -4.4155 -2.5000 0.9640
-6.8405 -5.5851 -2.5000 0.9640
-6.1174 -6.3689 -2.5000 0.9640
-5.8560 -6.6101 -2.5000 0.9640
-5.5851 -6.8405 -2.5000 0.9640
-4.7199 -7.4638 -2.5000 0.9640
-4.4155 -7.6478 -2.5000 0.9640
-4.1040 -7.8194 -2.5000 0.9640
-3.4615 -8.1243 -2.5000 0.9640
-3.1315 -8.2571 -2.5000 0.9640
-2.7965 -8.3765 -2.5000 0.9640
-2.4569 -8.4823 -2.5000 0.9640
-1.7664 -8.6525 -2.5000 0.9640
-0.7106 -8.8023 -2.5000 0.9640
-0.3556 -8.8238 -2.5000 0.9640
-0.0000 -8.8310 -2.5000 0.9640
0.3556 -8.8238 -2.5000 0.9640
0.7106 -8.8023 -2.5000 0.9640
1.0645 -8.7666 -2.5000 0.9640
1.7664 -8.6525 -2.5000 0.9640
2.1134 -8.5744 -2.5000 0.9640
2.7965 -8.3765 -2.5000 0.9640
3.7858 -7.9783 -2.5000 0.9640
4.1039 -7.8194 -2.5000 0.9640
4.4155 -7.6479 -2.5000 0.9640
4.7198 -7.4638 -2.5000 0.9640
5.5851 -6.8405 -2.5000 0.9640
5.8560 -6.6101 -2.5000 0.9640
6.1174 -6.3689 -2.5000 0.9640
6.3689 -6.1174 -2.5000 0.9640
7.2677 -5.0166 -2.5000 0.9640
7.4638 -4.7199 -2.5000 0.9640
7.8194 -4.1040 -2.5000 0.9640
7.9783 -3.7858 -2.5000 0.9640
8.1243 -3.4614 -2.5000 0.9640
8.3765 -2.7965 -2.5000 0.9640
8.5743 -2.1134 -2.5000 0.9640
7.7192 -1.5759 -2.2303 0.9678
7.7759 -0.6277 -2.2085 0.9681
8.4572 0.0000 -2.3942 0.9655
8.8238 0.3556 -2.5000 0.9640
8.6525 1.7664 -2.5000 0.9640
8.4823 2.4569 -2.5000 0.9640
8.1208 2.7111 -2.4237 0.9650
7.7537 2.9406 -2.3476 0.9661
7.1816 4.1463 -2.3476 0.9661
7.0088 4.4321 -2.3476 0.9661
6.4235 5.2446 -2.3476 0.9661
6.2071 5.4990 -2.3476 0.9661
4.7108 6.8247 -2.3476 0.9661
4.1242 7.1434 -2.3351 0.9663
2.9130 7.6809 -2.3255 0.9664
2.6010 7.7909 -2.3252 0.9664
1.9655 7.9743 -2.3250 0.9664
1.4456 7.0813 -2.0460 0.9704
1.2434 7.6510 -2.1944 0.9683
0.9291 7.6523 -2.1822 0.9685
0.6179 7.6535 -2.1737 0.9686
0.3085 7.6548 -2.1688 0.9687
-0.0000 7.6561 -2.1674 0.9687
-0.9294 7.6542 -2.1828 0.9685
-1.2437 7.6529 -2.1949 0.9683
-1.5621 7.6516 -2.2108 0.9681
-2.5947 7.7720 -2.3196 0.9665
-2.9051 7.6602 -2.3193 0.9665
-3.5113 7.3998 -2.3187 0.9665
-3.8059 7.2516 -2.3184 0.9665
-4.1239 7.1428 -2.3349 0.9663
-4.7108 6.8247 -2.3476 0.9661
-2.5713 3.4217 -1.2117 0.9824
-5.4990 6.2071 -2.3476 0.9661
-5.7445 5.9807 -2.3476 0.9661
-6.2071 5.4990 -2.3476 0.9661
-6.4235 5.2446 -2.3476 0.9661
-6.6295 4.9817 -2.3476 0.9661
-7.1816 4.1463 -2.3476 0.9661
-7.3428 3.8538 -2.3476 0.9661
-7.7537 2.9406 -2.3476 0.9661
-8.4823 2.4569 -2.5000 0.9640
-8.7166 1.4166 -2.5000 0.9640
-8.7666 1.0645 -2.5000 0.9640
-8.8023 0.7106 -2.5000 0.9640
-7.8918 -1.9452 -2.5000 0.9666
-7.8071 -2.2613 -2.5000 0.9666
-7.7097 -2.5739 -2.5000 0.9666
-7.5998 -2.8822 -2.5000 0.9666
-7.4776 -3.1859 -2.5000 0.9666
-7.3432 -3.4844 -2.5000 0.9666
-7.1970 -3.7773 -2.5000 0.9666
-7.0390 -4.0640 -2.5000 0.9666
-6.2960 -5.1405 -2.5000 0.9666
-6.0839 -5.3898 -2.5000 0.9666
-4.6172 -6.6892 -2.5000 0.9666
-3.4844 -7.3432 -2.5000 0.9666
-3.1859 -7.4775 -2.5000 0.9666
-2.8822 -7.5998 -2.5000 0.9666
-1.9452 -7.8918 -2.5000 0.9666
-1.6258 -7.9637 -2.5000 0.9666
-0.9797 -8.0687 -2.5000 0.9666
-0.3273 -8.1214 -2.5000 0.9666
0.9797 -8.0687 -2.5000 0.9666
1.3038 -8.0227 -2.5000 0.9666
1.6258 -7.9637 -2.5000 0.9666
1.9451 -7.8918 -2.5000 0.9666
2.8822 -7.5998 -2.5000 0.9666
3.4844 -7.3432 -2.5000 0.9666
3.7772 -7.1970 -2.5000 0.9666
4.0640 -7.0390 -2.5000 0.9666
4.8828 -6.4979 -2.5000 0.9666
5.3898 -6.0839 -2.5000 0.9666
5.6304 -5.8619 -2.5000 0.9666
6.2960 -5.1405 -2.5000 0.9666
6.4978 -4.8828 -2.5000 0.9666
6.8696 -4.3441 -2.5000 0.9666
7.0390 -4.0640 -2.5000 0.9666
7.7097 -2.5739 -2.5000 0.9666
7.9637 -1.6258 -2.5000 0.9666
8.0687 -0.9797 -2.5000 0.9666
8.1016 -0.6540 -2.5000 0.9666
8.1016 0.6540 -2.5000 0.9666
8.0227 1.3038 -2.5000 0.9666
7.7097 2.5739 -2.5000 0.9666
7.1799 2.7230 -2.3619 0.9684
7.0217 2.9917 -2.3476 0.9686
6.6099 3.8162 -2.3476 0.9686
5.7130 5.0613 -2.3476 0.9686
5.5046 5.2872 -2.3476 0.9686
5.0613 5.7130 -2.3476 0.9686
4.8271 5.9121 -2.3476 0.9686
4.3357 6.2814 -2.3476 0.9686
4.0793 6.4509 -2.3476 0.9686
3.8162 6.6099 -2.3476 0.9686
2.9885 7.0143 -2.3451 0.9686
2.6939 7.1031 -2.3366 0.9687
2.1029 7.2599 -2.3248 0.9689
1.2119 7.4572 -2.3238 0.9689
0.3016 7.4842 -2.3039 0.9691
-0.9087 7.4837 -2.3187 0.9689
-1.5093 7.3931 -2.3209 0.9689
-1.7478 7.0912 -2.2464 260 -2
-2.0988 7.2458 -2.3203 0.9689
-2.3966 7.1788 -2.3278 0.9688
-3.2720 6.8956 -2.3476 0.9686
-3.5470 6.7582 -2.3476 0.9686
-4.0793 6.4509 -2.3476 0.9686
-4.3358 6.2814 -2.3476 0.9686
-5.2872 5.5046 -2.3476 0.9686
-5.7130 5.0612 -2.3476 0.9686
-5.9122 4.8271 -2.3476 0.9686
-6.2814 4.3357 -2.3476 0.9686
-6.6099 3.8162 -2.3476 0.9686
-6.8956 3.2720 -2.3476 0.9686
-7.1871 2.7257 -2.3642 0.9683
-7.8070 2.2613 -2.5000 0.9666
-7.9637 1.6258 -2.5000 0.9666
-8.0227 1.3038 -2.5000 0.9666
-8.0687 0.9797 -2.5000 0.9666
-8.1016 0.6540 -2.5000 0.9666
-8.1214 0.3273 -2.5000 0.9666
-7.5209 0.0000 -2.5000 0.9688
-7.5148 -0.3028 -2.5000 0.9688
-7.4661 -0.9066 -2.5000 0.9688
-7.4235 -1.2064 -2.5000 0.9688
-7.3689 -1.5044 -2.5000 0.9688
-7.1338 -2.3816 -2.5000 0.9688
-6.9191 -2.9479 -2.5000 0.9688
-6.6594 -3.4951 -2.5000 0.9688
-6.5133 -3.7604 -2.5000 0.9688
-6.3566 -4.0197 -2.5000 0.9688
-6.0125 -4.5181 -2.5000 0.9688
-5.2099 -5.4241 -2.5000 0.9688
-4.9873 -5.6295 -2.5000 0.9688
-4.7566 -5.8257 -2.5000 0.9688
-3.7605 -6.5133 -2.5000 0.9688
-3.4951 -6.6594 -2.5000 0.9688
-3.2242 -6.7948 -2.5000 0.9688
-2.9479 -6.9191 -2.5000 0.9688
-2.6670 -7.0322 -2.5000 0.9688
-2.3816 -7.1338 -2.5000 0.9688
-2.0925 -7.2240 -2.5000 0.9688
-1.7999 -7.3024 -2.5000 0.9688
-0.9066 -7.4661 -2.5000 0.9688
0.0000 -7.5209 -2.5000 0.9688
1.5044 -7.3689 -2.5000 0.9688
1.7999 -7.3023 -2.5000 0.9688
2.0924 -7.2240 -2.5000 0.9688
2.3816 -7.1338 -2.5000 0.9688
2.6669 -7.0322 -2.5000 0.9688
2.9479 -6.9191 -2.5000 0.9688
3.2241 -6.7948 -2.5000 0.9688
3.4951 -6.6594 -2.5000 0.9688
4.2723 -6.1896 -2.5000 0.9688
5.2099 -5.4241 -2.5000 0.9688
5.4241 -5.2099 -2.5000 0.9688
5.6295 -4.9873 -2.5000 0.9688
5.8257 -4.7566 -2.5000 0.9688
6.0125 -4.5181 -2.5000 0.9688
6.3566 -4.0197 -2.5000 0.9688
6.6594 -3.4951 -2.5000 0.9688
6.7947 -3.2241 -2.5000 0.9688
6.9191 -2.9479 -2.5000 0.9688
7.0321 -2.6670 -2.5000 0.9688
7.2239 -2.0925 -2.5000 0.9688
7.3023 -1.7999 -2.5000 0.9688
7.3689 -1.5044 -2.5000 0.9688
7.4234 -1.2065 -2.5000 0.9688
7.4660 -0.9066 -2.5000 0.9688
7.4965 -0.6052 -2.5000 0.9688
7.5148 -0.3028 -2.5000 0.9688
7.5148 0.3028 -2.5000 0.9688
7.4660 0.9065 -2.5000 0.9688
7.4235 1.2064 -2.5000 0.9688
7.1338 2.3816 -2.5000 0.9688
7.0321 2.6669 -2.5000 0.9688
6.3805 3.0276 -2.3476 0.9707
6.2534 3.2821 -2.3476 0.9707
6.1162 3.5312 -2.3476 0.9707
5.4706 4.4666 -2.3476 0.9707
5.2863 4.6832 -2.3476 0.9707
5.0934 4.8923 -2.3476 0.9707
4.4666 5.4706 -2.3476 0.9707
4.2427 5.6460 -2.3476 0.9707
3.7746 5.9691 -2.3476 0.9707
3.5312 6.1162 -2.3476 0.9707
3.2821 6.2534 -2.3476 0.9707
2.5044 6.6035 -2.3476 0.9707
2.2364 6.6989 -2.3476 0.9707
1.9649 6.7836 -2.3476 0.9707
1.6901 6.8572 -2.3476 0.9707
1.4127 6.9197 -2.3476 0.9707
0.8510 7.0083 -2.3467 0.9707
0.5675 7.0303 -2.3445 0.9707
0.2838 7.0437 -2.3433 0.9707
0.0000 7.0483 -2.3429 0.9707
-0.5676 7.0315 -2.3449 0.9707
-0.8512 7.0101 -2.3473 0.9707
-1.9649 6.7836 -2.3476 0.9707
-2.2364 6.6989 -2.3476 0.9707
-2.5044 6.6035 -2.3476 0.9707
-3.0276 6.3805 -2.3476 0.9707
-3.2821 6.2534 -2.3476 0.9707
-3.5312 6.1162 -2.3476 0.9707
-4.0119 5.8123 -2.3476 0.9707
-2.5713 3.4217 -1.4228 0.9821
-4.4666 5.4706 -2.3476 0.9707
-4.6832 5.2863 -2.3476 0.9707
-4.8923 5.0934 -2.3476 0.9707
-5.0934 4.8923 -2.3476 0.9707
-5.2863 4.6832 -2.3476 0.9707
-5.6460 4.2427 -2.3476 0.9707
-6.1162 3.5312 -2.3476 0.9707
-6.2535 3.2821 -2.3476 0.9707
-6.3805 3.0276 -2.3476 0.9707
-7.0321 2.6669 -2.5000 0.9688
-7.1338 2.3816 -2.5000 0.9688
-7.2240 2.0924 -2.5000 0.9688
-7.3023 1.7999 -2.5000 0.9688
-7.3689 1.5044 -2.5000 0.9688
-7.4235 1.2064 -2.5000 0.9688
-7.4661 0.9065 -2.5000 0.9688
-7.4965 0.6052 -2.5000 0.9688
-6.9909 -0.0000 -2.5000 0.9707
-6.9852 -0.2815 -2.5000 0.9707
-6.9399 -0.8427 -2.5000 0.9707
-6.8496 -1.3984 -2.5000 0.9707
-6.6311 -2.2138 -2.5000 0.9707
-6.4315 -2.7402 -2.5000 0.9707
-6.3159 -2.9969 -2.5000 0.9707
-6.0543 -3.4954 -2.5000 0.9707
-5.5888 -4.1997 -2.5000 0.9707
-5.4152 -4.4213 -2.5000 0.9707
-4.8427 -5.0418 -2.5000 0.9707
-3.9713 -5.7534 -2.5000 0.9707
-3.7364 -5.9086 -2.5000 0.9707
-3.4954 -6.0543 -2.5000 0.9707
-3.2488 -6.1901 -2.5000 0.974 -5.629969 -6.3159 -2.5000 0.9707
-2.7402 -6.4315 -2.5000 0.9707
-2.4790 -6.5366 -2.5000 0.9707
-2.2138 -6.6311 -2.5000 0.9707
-1.9450 -6.7149 -2.5000 0.9707
-1.6730 -6.7877 -2.5000 0.9707
-1.1214 -6.9003 -2.5000 0.9707
-0.8427 -6.9399 -2.5000 0.9707
-0.2815 -6.9852 -2.5000 0.9707
0.2815 -6.9852 -2.5000 0.9707
0.8427 -6.9399 -2.5000 0.9707
1.3984 -6.8496 -2.5000 0.9707
1.9450 -6.7149 -2.5000 0.9707
2.2138 -6.6311 -2.5000 0.9707
2.9969 -6.3159 -2.5000 0.9707
3.4954 -6.0543 -2.5000 0.9707
4.1997 -5.5888 -2.5000 0.9707
4.4213 -5.4152 -2.5000 0.9707
4.6358 -5.2327 -2.5000 0.9707
4.8427 -5.0418 -2.5000 0.9707
5.2327 -4.6358 -2.5000 0.9707
5.4152 -4.4213 -2.5000 0.9707
6.0543 -3.4954 -2.5000 0.9707
6.1901 -3.2488 -2.5000 0.9707
6.3159 -2.9969 -2.5000 0.9707
6.4315 -2.7402 -2.5000 0.9707
6.5366 -2.4790 -2.5000 0.9707
6.6311 -2.2138 -2.5000 0.9707
6.8496 -1.3984 -2.5000 0.9707
6.9003 -1.1214 -2.5000 0.9707
6.9399 -0.8427 -2.5000 0.9707
6.9909 0.0000 -2.5000 0.9707
6.9852 0.2815 -2.5000 0.9707
6.9003 1.1214 -2.5000 0.9707
6.8496 1.3983 -2.5000 0.9707
6.6311 2.2138 -2.5000 0.9707
6.5366 2.4790 -2.5000 0.9707
5.9309 2.8142 -2.3476 0.9725
5.8127 3.0508 -2.3476 0.9725
5.5484 3.5086 -2.3476 0.9725
5.4026 3.7292 -2.3476 0.9725
4.5475 4.7345 -2.3476 0.9725
4.3532 4.9137 -2.3476 0.9725
4.1518 5.0850 -2.3476 0.9725
3.7292 5.4026 -2.3476 0.9725
3.5086 5.5484 -2.3476 0.9725
3.2823 5.6852 -2.3476 0.9725
3.0508 5.8127 -2.3476 0.9725
2.8142 5.9309 -2.3476 0.9725
2.5731 6.0394 -2.3476 0.9725
2.3279 6.1381 -2.3476 0.9725
2.0788 6.2269 -2.3476 0.9725
1.8264 6.3055 -2.3476 0.9725
1.3131 6.4320 -2.3476 0.9725
0.2643 6.5594 -2.3476 0.9725
0.0000 6.5647 -2.3476 0.9725
-0.2643 6.5594 -2.3476 0.9725
-1.8264 6.3055 -2.3476 0.9725
-2.5732 6.0394 -2.3476 0.9725
-3.0508 5.8127 -2.3476 0.9725
-3.5086 5.5484 -2.3476 0.9725
-3.7292 5.4026 -2.3476 0.9725
-4.5475 4.7345 -2.3476 0.9725
-5.0850 4.1518 -2.3476 0.9725
-5.5484 3.5086 -2.3476 0.9725
-5.8128 3.0508 -2.3476 0.9725
-6.6311 2.2138 -2.5000 0.9707
-6.7149 1.9450 -2.5000 0.9707
-6.7877 1.6730 -2.5000 0.9707
-6.8496 1.3983 -2.5000 0.9707
-6.9682 0.5625 -2.5000 0.9707
-6.9852 0.2815 -2.5000 0.9707
-3.5504 0.0000 -1.3606 0.9849
-3.5589 -0.1434 -1.3649 0.9849
-3.5921 -0.4362 -1.3867 0.9846
-6.3341 -1.5612 -2.5000 0.9724
-6.2661 -1.8150 -2.5000 0.9724
-6.0997 -2.3133 -2.5000 0.9724
-6.0016 -2.5571 -2.5000 0.9724
-5.8938 -2.7967 -2.5000 0.9724
-5.6497 -3.2618 -2.5000 0.9724
-5.5138 -3.4867 -2.5000 0.9724
-3.7059 -5.3689 -2.5000 0.9724
-3.4867 -5.5137 -2.5000 0.9724
-2.5571 -6.0016 -2.5000 0.9724
-1.8150 -6.2661 -2.5000 0.9724
-1.3049 -6.3918 -2.5000 0.9724
-0.5249 -6.5025 -2.5000 0.9724
0.0000 -6.5237 -2.5000 0.9724
0.5249 -6.5025 -2.5000 0.9724
1.3049 -6.3918 -2.5000 0.9724
2.3133 -6.0997 -2.5000 0.9724
2.5571 -6.0016 -2.5000 0.9724
2.7966 -5.8938 -2.5000 0.9724
3.4867 -5.5137 -2.5000 0.9724
4.3260 -4.8830 -2.5000 0.9724
4.8830 -4.3260 -2.5000 0.9724
5.0533 -4.1259 -2.5000 0.9724
5.3688 -3.7059 -2.5000 0.9724
5.8938 -2.7967 -2.5000 0.9724
6.0016 -2.5571 -2.5000 0.9724
6.1879 -2.0658 -2.5000 0.9724
6.4392 -1.0465 -2.5000 0.9724
6.4761 -0.7863 -2.5000 0.9724
6.5025 -0.5249 -2.5000 0.9724
6.5183 -0.2627 -2.5000 0.9724
6.5237 -0.0000 -2.5000 0.9724
6.5025 0.5249 -2.5000 0.9724
6.4761 0.7863 -2.5000 0.9724
6.3341 1.5612 -2.5000 0.9724
6.1879 2.0658 -2.5000 0.9724
6.0997 2.3133 -2.5000 0.9724
5.7119 2.7103 -2.4228 0.9733
5.3053 3.0630 -2.3476 0.9741
5.1776 3.2741 -2.3476 0.9741
4.8974 3.6801 -2.3476 0.9741
4.2436 4.4181 -2.3476 0.9741
3.6801 4.8974 -2.3476 0.9741
3.2741 5.1776 -2.3476 0.9741
3.0630 5.3052 -2.3476 0.9741
2.8469 5.4243 -2.3476 0.9741
2.1723 5.7279 -2.3476 0.9741
1.7043 5.8841 -2.3476 0.9741
0.9827 6.0466 -2.3476 0.9741
0.2467 6.1210 -2.3476 0.9741
0.0000 6.1260 -2.3476 0.9741
-0.4929 6.1061 -2.3476 0.9741
-1.2254 6.0022 -2.3476 0.9741
-1.7044 5.8841 -2.3476 0.9741
-1.9399 5.8107 -2.3476 0.9741
-2.8469 5.4243 -2.3476 0.9741
-3.0630 5.3052 -2.3476 0.9741
-3.2741 5.1776 -2.3476 0.9741
-3.4800 5.0416 -2.3476 0.9741
-3.8744 4.7452 -2.3476 0.9741
-4.0623 4.5853 -2.3476 0.9741
-4.2436 4.4181 -2.3476 0.9741
-42.5000 .2436 -2.3476 0.9741
-4.7452 3.8743 -2.3476 0.9741
-4.8974 3.6801 -2.3476 0.9741
-5.0416 3.4799 -2.3476 0.9741
-5.1776 3.2741 -2.3476 0.9741
-5.3052 3.0630 -2.3476 0.9741
-5.4243 2.8469 -2.3476 0.9741
-5.7036 2.7064 -2.4193 0.9733
-6.1879 2.0658 -2.5000 0.9724
-6.3918 1.3049 -2.5000 0.9724
-6.4392 1.0465 -2.5000 0.9724
-3.5921 0.4361 -1.3867 0.9846
-3.5687 0.2881 -1.3720 0.9848
-3.5589 0.1434 -1.3649 0.9849
-2.8160 0.0000 -1.1525 0.9879
-2.8204 -0.1137 -1.1552 0.9879
-2.8096 -0.2268 -1.1536 0.9879
-2.9323 -0.3560 -1.2089 0.9873
-3.0246 -0.4916 -1.2541 0.9868
-5.9308 -1.4618 -2.5000 0.9739
-5.8672 -1.6995 -2.5000 0.9739
-5.6195 -2.3943 -2.5000 0.9739
-5.5186 -2.6186 -2.5000 0.9739
-5.2900 -3.0542 -2.5000 0.9739
-5.0271 -3.4699 -2.5000 0.9739
-4.8833 -3.6695 -2.5000 0.9739
-4.5721 -4.0506 -2.5000 0.9739
-4.4053 -4.2314 -2.5000 0.9739
-3.8632 -4.7316 -2.5000 0.9739
-3.4699 -5.0271 -2.5000 0.9739
-3.2647 -5.1627 -2.5000 0.9739
-2.8387 -5.4087 -2.5000 0.9739
-2.3943 -5.6195 -2.5000 0.9739
-2.1661 -5.7114 -2.5000 0.9739
-1.6995 -5.8672 -2.5000 0.9739
-1.4618 -5.9308 -2.5000 0.9739
-1.2218 -5.9849 -2.5000 0.9739
-0.7363 -6.0638 -2.5000 0.9739
-0.4915 -6.0885 -2.5000 0.9739
0.4915 -6.0885 -2.5000 0.9739
0.7363 -6.0638 -2.5000 0.9739
0.9799 -6.0292 -2.5000 0.9739
1.2218 -5.9849 -2.5000 0.9739
3.2647 -5.1627 -2.5000 0.9739
3.4699 -5.0271 -2.5000 0.9739
4.2314 -4.4053 -2.5000 0.9739
4.4054 -4.2314 -2.5000 0.9739
4.5721 -4.0506 -2.5000 0.9739
5.4087 -2.8387 -2.5000 0.9739
5.5186 -2.6186 -2.5000 0.9739
5.6195 -2.3943 -2.5000 0.9739
5.7114 -2.1660 -2.5000 0.9739
5.7940 -1.9343 -2.5000 0.9739
6.0638 -0.7363 -2.5000 0.9739
6.1034 -0.2460 -2.5000 0.9739
6.0292 0.9798 -2.5000 0.9739
5.9849 1.2218 -2.5000 0.9739
5.9308 1.4618 -2.5000 0.9739
5.8672 1.6994 -2.5000 0.9739
5.7940 1.9343 -2.5000 0.9739
5.7114 2.1660 -2.5000 0.9739
5.6195 2.3942 -2.5000 0.9739
5.1746 2.7159 -2.3918 0.9751
4.5856 3.4458 -2.3476 0.9755
4.4431 3.6277 -2.3476 0.9755
4.1368 3.9734 -2.3476 0.9755
3.9734 4.1368 -2.3476 0.9755
3.8037 4.2934 -2.3476 0.9755
3.6277 4.4431 -2.3476 0.9755
3.2584 4.7206 -2.3476 0.9755
2.6656 5.0789 -2.3476 0.9755
2.0340 5.3632 -2.3476 0.9755
1.5959 5.5095 -2.3476 0.9755
1.1473 5.6200 -2.3476 0.9755
0.9201 5.6617 -2.3476 0.9755
0.4616 5.7174 -2.3476 0.9755
-0.2310 5.7313 -2.3476 0.9755
-0.4616 5.7174 -2.3476 0.9755
-0.6914 5.6941 -2.3476 0.9755
-0.9201 5.6617 -2.3476 0.9755
-1.3727 5.5693 -2.3476 0.9755
-1.8164 5.4408 -2.3476 0.9755
-2.0340 5.3632 -2.3476 0.9755
-2.6656 5.0789 -2.3476 0.9755
-3.0657 4.8480 -2.3476 0.9755
-3.2584 4.7206 -2.3476 0.9755
-2.5713 3.4217 -1.7518 0.9817
-3.8036 4.2934 -2.3476 0.9755
-3.9734 4.1368 -2.3476 0.9755
-4.4431 3.6277 -2.3476 0.9755
-4.5856 3.4458 -2.3476 0.9755
-4.7206 3.2584 -2.3476 0.9755
-4.8480 3.0657 -2.3476 0.9755
-5.5186 2.6186 -2.5000 0.9739
-5.8672 1.6994 -2.5000 0.9739
-5.9308 1.4618 -2.5000 0.9739
-3.0070 0.6139 -1.2561 0.9868
-2.8096 0.2268 -1.1536 0.9879
-2.8204 0.1137 -1.1552 0.9879
-2.3650 -0.0000 -1.0307 0.9897
-2.3670 -0.0954 -1.0324 0.9897
-2.3794 -0.2889 -1.0446 0.9896
-2.4021 -0.3904 -1.0606 0.9894
-5.5099 -1.5960 -2.5000 0.9753
-5.3636 -2.0341 -2.5000 0.9753
-5.2773 -2.2484 -2.5000 0.9753
-5.1825 -2.4591 -2.5000 0.9753
-5.0793 -2.6658 -2.5000 0.9753
-4.8483 -3.0659 -2.5000 0.9753
-4.5859 -3.4461 -2.5000 0.9753
-4.4434 -3.6279 -2.5000 0.9753
-4.2937 -3.8039 -2.5000 0.9753
-3.4461 -4.5859 -2.5000 0.9753
-3.2586 -4.7209 -2.5000 0.9753
-3.0659 -4.8483 -2.5000 0.9753
-2.6658 -5.0793 -2.5000 0.9753
-2.4591 -5.1825 -2.5000 0.9753
-2.2484 -5.2773 -2.5000 0.9753
-1.8165 -5.4411 -2.5000 0.9753
-1.3728 -5.5696 -2.5000 0.9753
-1.1474 -5.6204 -2.5000 0.9753
-0.9202 -5.6620 -2.5000 0.9753
-0.4616 -5.7177 -2.5000 0.9753
0.9202 -5.6620 -2.5000 0.9753
1.8165 -5.4411 -2.5000 0.9753
2.0341 -5.3636 -2.5000 0.9753
2.2484 -5.2773 -2.5000 0.9753
2.6658 -5.0793 -2.5000 0.9753
2.8682 -4.9678 -2.5000 0.9753
3.0659 -4.8483 -2.5000 0.9753
3.2586 -4.7209 -2.5000 0.9753
3.4460 -4.5859 -2.5000 0.9753
4.1370 -3.9737 -2.5000 0.9753
4.2937 -3.8039 -2.5000 0.9753
4.5859 -3.4461 -2.5000 0.9753
4.8483 -3.0659 -2.500066 0.73
5.0793 -2.6658 -2.5000 0.9753
5.2773 -2.2484 -2.5000 0.9753
5.4411 -1.8165 -2.5000 0.9753
5.6204 -1.1474 -2.5000 0.9753
5.6621 -0.9202 -2.5000 0.9753
5.6945 -0.6914 -2.5000 0.9753
5.7177 -0.4616 -2.5000 0.9753
5.7317 -0.2310 -2.5000 0.9753
5.7177 0.4616 -2.5000 0.9753
5.6945 0.6914 -2.5000 0.9753
5.6620 0.9202 -2.5000 0.9753
5.4411 1.8165 -2.5000 0.9753
5.2773 2.2484 -2.5000 0.9753
5.0793 2.6658 -2.5000 0.9753
4.7105 2.7196 -2.3705 0.9765
4.4331 3.0600 -2.3476 0.9768
4.1725 3.4067 -2.3476 0.9768
4.0320 3.5720 -2.3476 0.9768
3.8848 3.7314 -2.3476 0.9768
3.0600 4.4331 -2.3476 0.9768
2.8790 4.5527 -2.3476 0.9768
2.1114 4.9556 -2.3476 0.9768
1.9101 5.0366 -2.3476 0.9768
1.7058 5.1094 -2.3476 0.9768
1.2891 5.2301 -2.3476 0.9768
1.0775 5.2778 -2.3476 0.9768
0.8641 5.3169 -2.3476 0.9768
0.6493 5.3473 -2.3476 0.9768
-0.2169 5.3823 -2.3476 0.9768
-0.4334 5.3692 -2.3476 0.9768
-0.8641 5.3169 -2.3476 0.9768
-1.0775 5.2778 -2.3476 0.9768
-1.2891 5.2301 -2.3476 0.9768
-1.4987 5.1740 -2.3476 0.9768
-1.9101 5.0366 -2.3476 0.9768
-2.1114 4.9556 -2.3476 0.9768
-2.3092 4.8665 -2.3476 0.9768
-2.5033 4.7696 -2.3476 0.9768
-2.6933 4.6650 -2.3476 0.9768
-3.5720 4.0320 -2.3476 0.9768
-3.8849 3.7314 -2.3476 0.9768
-4.1725 3.4067 -2.3476 0.9768
-4.3063 3.2360 -2.3476 0.9768
-5.1825 2.4591 -2.5000 0.9753
-5.5098 1.5959 -2.5000 0.9753
-5.5696 1.3728 -2.5000 0.9753
-2.4207 0.4942 -1.0767 0.9893
-2.3794 0.2889 -1.0446 0.9896
-2.2030 0.0000 -1.0198 0.9903
-2.2080 -0.2681 -1.0295 0.9902
-2.2302 -0.3624 -1.0459 0.9901
-2.3851 -0.5879 -1.1371 0.9892
-4.9687 -2.1170 -2.5000 0.9765
-4.8794 -2.3153 -2.5000 0.9765
-4.7823 -2.5099 -2.5000 0.9765
-4.6773 -2.7004 -2.5000 0.9765
-4.5648 -2.8866 -2.5000 0.9765
-4.0426 -3.5814 -2.5000 0.9765
-3.4158 -4.1836 -2.5000 0.9765
-3.2445 -4.3177 -2.5000 0.9765
-3.0681 -4.4448 -2.5000 0.9765
-2.8866 -4.5648 -2.5000 0.9765
-2.3153 -4.8794 -2.5000 0.9765
-2.1170 -4.9687 -2.5000 0.9765
-1.7103 -5.1229 -2.5000 0.9765
-1.5026 -5.1876 -2.5000 0.9765
-1.2925 -5.2439 -2.5000 0.9765
-1.0803 -5.2917 -2.5000 0.9765
-0.8663 -5.3309 -2.5000 0.9765
-0.4346 -5.3834 -2.5000 0.9765
0.0000 -5.4009 -2.5000 0.9765
0.2175 -5.3965 -2.5000 0.9765
0.4346 -5.3834 -2.5000 0.9765
0.6510 -5.3615 -2.5000 0.9765
0.8664 -5.3309 -2.5000 0.9765
1.0803 -5.2917 -2.5000 0.9765
1.5027 -5.1876 -2.5000 0.9765
1.9152 -5.0499 -2.5000 0.9765
2.5099 -4.7822 -2.5000 0.9765
2.7004 -4.6773 -2.5000 0.9765
3.8951 -3.7413 -2.5000 0.9765
4.1835 -3.4158 -2.5000 0.9765
4.6773 -2.7004 -2.5000 0.9765
5.0499 -1.9152 -2.5000 0.9765
5.2440 -1.2925 -2.5000 0.9765
5.2917 -1.0803 -2.5000 0.9765
5.3309 -0.8664 -2.5000 0.9765
5.3834 -0.4346 -2.5000 0.9765
