ply
format ascii 1.0
element vertex 1583
property float32 x
property float32 y
property float32 z
property float32 I
end_header
25.0120 -7.2448 -2.5000 0.9006
25.2835 -6.2318 -2.5000 0.9006
25.7029 -4.1771 -2.5000 0.9006
25.8503 -3.1388 -2.5000 0.9006
26.0190 -1.0485 -2.5000 0.9006
26.0401 0.0000 -2.5000 0.9006
26.0190 1.0485 -2.5000 0.9006
25.9557 2.0954 -2.5000 0.9006
23.7422 5.8519 -2.3476 0.9064
23.4873 6.8032 -2.3476 0.9064
18.7287 7.1029 -1.9230 0.9227
17.0037 7.2446 -1.7744 0.9284
15.4885 8.1290 -1.6793 0.9321
12.9000 8.1574 -1.4653 0.9405
12.3831 8.5475 -1.4446 0.9413
10.3450 8.4465 -1.2822 0.9477
9.7114 8.6035 -1.2456 0.9492
6.0522 9.5708 -1.0872 0.9555
4.2544 8.1061 -0.8789 0.9639
3.5391 8.3067 -0.8668 0.9644
3.2041 8.4486 -0.8675 0.9643
2.7191 9.3876 -0.9383 0.9615
2.0195 8.1934 -0.8102 0.9667
1.5733 9.6811 -0.9416 0.9614
-0.3901 9.6811 -0.9302 0.9618
-0.7816 9.6811 -0.9325 0.9617
-1.1638 9.5849 -0.9270 0.9619
-1.3338 8.2069 -0.7982 0.9671
-2.5014 8.6359 -0.8632 0.9645
-3.1298 8.2526 -0.8474 0.9652
-3.4615 8.1243 -0.8478 0.9651
-4.3845 8.3540 -0.9058 0.9628
-1.9993 3.4629 -0.3839 0.9841
-14.5642 21.0998 -2.4614 0.9021
-16.2147 19.8595 -2.4614 0.9021
-17.0013 19.1904 -2.4614 0.9021
-17.7602 18.4903 -2.4614 0.9021
-18.4904 17.7602 -2.4614 0.9021
-21.0998 14.5642 -2.4614 0.9021
-22.2034 12.8191 -2.4614 0.9021
-22.7015 11.9146 -2.4614 0.9021
-23.0931 10.9578 -2.4540 0.9024
-22.9890 7.6748 -2.3268 0.9072
-23.3863 5.7642 -2.3124 0.9077
-23.7424 4.8470 -2.3264 0.9072
-21.0461 0.0000 -2.5000 0.9187
-20.9779 -1.6935 -2.5000 0.9187
-20.6208 -4.2098 -2.5000 0.9187
-19.9630 -6.6646 -2.5000 0.9187
-19.6785 -7.4631 -2.5000 0.9187
-19.3620 -8.2494 -2.5000 0.9187
-19.0142 -9.0223 -2.5000 0.9187
-17.7880 -11.2484 -2.5000 0.9187
-16.8252 -12.6433 -2.5000 0.9187
-16.1679 -13.2007 -2.4793 0.9194
-14.9231 -13.2207 -2.3682 0.9228
-13.6904 -14.2532 -2.3476 0.9235
-13.1054 -14.7929 -2.3476 0.9235
-12.4991 -15.3087 -2.3476 0.9235
-11.8749 -15.8026 -2.3480 0.9235
-9.2561 -16.0321 -2.1990 0.9281
-7.6321 -16.0843 -2.1148 0.9308
-6.8452 -16.0662 -2.0744 0.9321
-6.0865 -16.0487 -2.0389 0.9332
-3.9435 -15.9994 -1.9574 0.9358
-3.2535 -15.9364 -1.9321 0.9366
-2.5951 -15.9683 -1.9217 0.9369
-1.2867 -15.9382 -1.8994 0.9376
0.0000 -15.9085 -1.8897 0.9379
1.2878 -15.9528 -1.9011 0.9376
3.8990 -15.8187 -1.9353 0.9365
5.2705 -15.7871 -1.9770 0.9352
5.9810 -15.7708 -2.0035 0.9343
9.0131 -15.6112 -2.1413 0.9300
10.5644 -16.7062 -2.3479 0.9235
11.8726 -15.7996 -2.3476 0.9235
13.1054 -14.7929 -2.3476 0.9235
13.6904 -14.2533 -2.3476 0.9235
14.2532 -13.6904 -2.3476 0.9235
14.9101 -13.2092 -2.3662 0.9229
16.8252 -12.6433 -2.5000 0.9187
17.3206 -11.9556 -2.5000 0.9187
18.2265 -10.5231 -2.5000 0.9187
18.6354 -9.7806 -2.5000 0.9187
19.9630 -6.6646 -2.5000 0.9187
20.4346 -5.0367 -2.5000 0.9187
20.6208 -4.2098 -2.5000 0.9187
20.7736 -3.3760 -2.5000 0.9187
20.8927 -2.5368 -2.5000 0.9187
21.0461 0.0000 -2.5000 0.9187
20.9779 1.6935 -2.5000 0.9187
20.8927 2.5368 -2.5000 0.9187
19.5072 3.1702 -2.3476 0.9235
19.1889 4.7296 -2.3476 0.9235
15.4883 8.1289 -2.0778 0.9320
15.4873 8.9416 -2.1243 0.9305
11.2402 8.4465 -1.6701 0.9449
10.3450 8.4465 -1.5864 0.9476
9.0362 8.0054 -1.4340 0.9525
10.0494 9.6526 -1.6552 0.9454
9.2714 9.6526 -1.5898 0.9475
6.7055 8.2128 -1.2594 0.9582
6.1715 8.2128 -1.2203 0.9595
4.7911 8.2985 -1.1382 0.9621
4.2844 8.1633 -1.0951 0.9635
3.2243 8.5017 -1.0801 0.9640
2.9407 8.8084 -1.1031 0.9633
2.7191 9.3876 -1.1610 0.9614
1.9741 8.0093 -0.9799 0.9673
1.7686 8.6633 -1.0503 0.9650
1.5421 9.4891 -1.1420 0.9620
0.7726 9.5706 -1.1406 0.9621
-0.0000 9.5874 -1.1389 0.9621
-0.3867 9.5959 -1.1408 0.9621
-0.7733 9.5785 -1.1415 0.9620
-1.1590 9.5455 -1.1422 0.9620
-1.9648 9.6243 -1.1668 0.9612
-2.2539 9.1446 -1.1188 0.9628
-2.5179 8.6927 -1.0750 0.9642
-3.8821 8.1812 -1.0757 0.9642
-4.3845 8.3540 -1.1207 0.9627
-1.9993 3.4629 -0.4750 0.9840
-13.1051 16.0508 -2.4614 0.9199
-14.3541 14.9442 -2.4614 0.9199
-16.0508 13.1050 -2.4614 0.9199
-17.0533 11.7710 -2.4614 0.9199
-17.5134 11.0748 -2.4614 0.9199
-17.9452 10.3606 -2.4614 0.9199
-18.3478 9.6296 -2.4614 0.9199
-19.0632 8.1220 -2.4614 0.9199
-19.3821 7.3506 -2.4623 0.9199
-19.7086 6.5797 -2.4681 0.9197
-20.2476 4.9906 -2.4771 0.9194
-20.7559 3.3732 -2.4979 0.9188
-20.8794 2.5352 -2.4984 0.9188
-20.9692 1.6928 -2.4989 0.9188
-21.0250 0.8473 -2.4995 0.9187
-17.4157 -2.8303 -2.5000 0.9312
-15.6231 -8.1996 -2.5000 0.9312
-15.2803 -8.8221 -2.5000 0.9312
-14.9126 -9.4302 -2.5000 0.9312
-13.6673 -11.1589 -2.5000 0.9312
-12.7250 -12.2225 -2.5000 0.9312
-11.6902 -13.1954 -2.4978 0.9313
-10.7858 -13.2102 -2.4164 0.9334
-9.9534 -13.2456 -2.3476 0.9353
-8.8554 -14.0036 -2.3476 0.9353
-7.6998 -14.6707 -2.3476 0.9353
-6.4943 -15.2427 -2.3476 0.9353
-5.8754 -15.4922 -2.3476 0.9353
-5.2472 -15.7171 -2.3478 0.9352
-3.9658 -16.0898 -2.3480 0.9352
-1.9976 -16.4518 -2.3482 0.9352
-1.3336 -16.5191 -2.3482 0.9352
1.3335 -16.5185 -2.3481 0.9352
1.9975 -16.4509 -2.3480 0.9352
2.6582 -16.3566 -2.3480 0.9352
3.3145 -16.2356 -2.3479 0.9352
3.9654 -16.0881 -2.3477 0.9353
4.6097 -15.9144 -2.3476 0.9353
5.8752 -15.4919 -2.3476 0.9353
7.6998 -14.6707 -2.3476 0.9353
8.8553 -14.0036 -2.3476 0.9353
9.9534 -13.2456 -2.3476 0.9353
10.7789 -13.2018 -2.4149 0.9335
13.6672 -11.1589 -2.5000 0.9312
14.1055 -10.5996 -2.5000 0.9312
14.9127 -9.4302 -2.5000 0.9312
15.2802 -8.8221 -2.5000 0.9312
15.6231 -8.1996 -2.5000 0.9312
16.7361 -5.5873 -2.5000 0.9312
16.9475 -4.9089 -2.5000 0.9312
7.6259 -1.2393 -1.0947 0.9693
7.5972 -0.9225 -1.0844 0.9696
7.6345 -0.6163 -1.0852 0.9695
17.6441 0.0000 -2.5000 0.9312
17.6298 0.7105 -2.5000 0.9312
16.0870 3.9651 -2.3476 0.9353
15.9144 4.6096 -2.3476 0.9353
15.4918 5.8753 -2.3476 0.9353
15.2427 6.4943 -2.3476 0.9353
14.9390 7.0887 -2.3429 0.9354
14.6125 7.6693 -2.3383 0.9355
14.3004 8.2563 -2.3397 0.9355
12.9000 8.1574 -2.1626 0.9402
11.3041 8.4945 -2.0035 0.9445
10.3450 8.4465 -1.8923 0.9475
9.0443 8.0125 -1.7120 0.9524
8.3652 8.7091 -1.7110 0.9524
7.2759 8.2128 -1.5546 0.9566
5.9103 8.5625 -1.4742 0.9588
4.7911 8.2985 -1.3577 0.9620
3.9265 8.2749 -1.2978 0.9637
3.2041 8.4486 -1.2803 0.9642
2.9877 8.9493 -1.3368 0.9626
2.7191 9.3876 -1.3848 0.9613
1.8934 7.6818 -1.1210 0.9685
1.7686 8.6635 -1.2528 0.9649
1.4314 8.8081 -1.2644 0.9646
1.0751 8.8547 -1.2638 0.9646
-0.0000 8.9136 -1.2630 0.9646
-0.3591 8.9103 -1.2635 0.9646
-0.7179 8.8925 -1.2641 0.9646
-1.0759 8.8603 -1.2646 0.9646
-2.2350 9.0676 -1.3232 0.9630
-2.5503 8.8047 -1.2988 0.9636
-2.8096 8.4157 -1.2571 0.9648
-3.4615 8.1243 -1.2513 0.9650
-3.9265 8.2749 -1.2978 0.9637
-4.3845 8.3540 -1.3368 0.9626
-8.7299 13.8052 -2.3143 0.9361
-9.2768 13.4397 -2.3139 0.9362
-10.8094 12.2013 -2.3096 0.9363
-12.5286 12.0339 -2.4614 0.9322
-13.0030 11.5196 -2.4614 0.9322
-13.4563 10.9867 -2.4614 0.9322
-14.2967 9.8683 -2.4614 0.9322
-14.6825 9.2846 -2.4614 0.9322
-15.0444 8.6859 -2.4614 0.9322
-15.3819 8.0731 -2.4614 0.9322
-15.6965 7.4480 -2.4617 0.9322
-16.0105 6.8214 -2.4658 0.9321
-16.3315 6.1937 -2.4748 0.9319
-16.8272 4.8740 -2.4822 0.9317
-17.4079 2.8290 -2.4989 0.9312
-17.6298 0.7104 -2.5000 0.9312
-15.1754 0.0000 -2.5000 0.9403
-15.1631 -0.6111 -2.5000 0.9403
-15.1262 -1.2211 -2.5000 0.9403
-15.0648 -1.8292 -2.5000 0.9403
-14.9789 -2.4343 -2.5000 0.9403
-14.8687 -3.0355 -2.5000 0.9403
-14.1893 -5.3813 -2.5000 0.9403
-13.9611 -5.9483 -2.5000 0.9403
-13.1423 -7.5877 -2.5000 0.9403
-12.8261 -8.1107 -2.5000 0.9403
-10.9446 -10.5124 -2.5000 0.9403
-9.5976 -11.7550 -2.5000 0.9403
-8.6206 -12.4891 -2.5000 0.9403
-8.1108 -12.8261 -2.5000 0.9403
-7.5877 -13.1423 -2.5000 0.9403
-6.2681 -13.2098 -2.4087 0.9424
-4.5126 -13.5169 -2.3476 0.9439
-3.9647 -13.6877 -2.3476 0.9439
-2.8504 -13.9623 -2.3476 0.9439
-0.5738 -14.2387 -2.3476 0.9439
0.0000 -14.2503 -2.3476 0.9439
0.5738 -14.2388 -2.3476 0.9439
1.1467 -14.2041 -2.3476 0.9439
1.7177 -14.1464 -2.3476 0.9439
2.2859 -14.0658 -2.3476 0.9439
2.8504 -13.9623 -2.3476 0.9439
3.4103 -13.8362 -2.3476 0.9439
4.5126 -13.5169 -2.3476 0.9439
5.0532 -13.3243 -2.3476 0.9439
5.6295 -13.2129 -2.3660 0.9434
6.2658 -13.2049 -2.4078 0.9425
6.9257 -13.1959 -2.4551 0.9414
8.1107 -12.8261 -2.5000 0.9403
8.6206 -12.4891 -2.5000 0.9403
9.1165 -12.1319 -2.5000 0.9403
10.0632 -11.3589 -2.5000 0.9403
10.5124 -10.9445 -2.5000 0.9403
10.9445 -10.5124 -2.5000 0.9403
11.7549 -9.5976 -2.5000 0.9403
12.1319 -9.1165 -2.5000 0.9403
12.4891 -8.6206 -2.5000 0.9403
12.8261 -8.1107 -2.5000 0.9403
13.1423 -7.5877 -2.5000 0.9403
13.7102 -6.5056 -2.5000 0.9403
14.1892 -5.3813 -2.5000 0.9403
14.3944 -4.8056 -2.5000 0.9403
14.7344 -3.6317 -2.5000 0.9403
7.2501 -1.1783 -1.2100 0.9707
7.2350 -0.8785 -1.2006 0.9709
7.2700 -0.5869 -1.2016 0.9709
15.1754 -0.0000 -2.5000 0.9403
15.0647 1.8292 -2.5000 0.9403
13.5169 4.5126 -2.3476 0.9439
12.8744 6.1090 -2.3476 0.9439
12.3071 7.1055 -2.3411 0.9440
11.9793 7.5752 -2.3349 0.9442
11.6699 8.0551 -2.3360 0.9441
11.3410 8.5222 -2.3370 0.9441
10.9931 8.9756 -2.3380 0.9441
9.0549 8.0220 -1.9929 0.9521
8.3652 8.7091 -1.9894 0.9522
7.2759 8.2128 -1.8076 0.9565
6.7055 8.2128 -1.7467 0.9579
6.1715 8.2128 -1.6924 0.9592
4.3290 8.2483 -1.5346 0.9629
3.9265 8.2749 -1.5089 0.9636
3.5391 8.3067 -1.4875 0.9641
2.9718 8.9016 -1.5460 0.9627
2.7191 9.3876 -1.6101 0.9612
1.8583 7.5397 -1.2793 0.9690
1.7514 8.5792 -1.4425 0.9651
-0.0000 8.5842 -1.4142 0.9658
-1.0418 8.5800 -1.4238 0.9656
-1.2485 7.6820 -1.2821 0.9689
-1.9648 9.6243 -1.6182 0.9610
-2.5503 8.8047 -1.5101 0.9635
-3.1298 8.2526 -1.4540 0.9649
-3.5256 8.2749 -1.4818 0.9642
-3.9265 8.2749 -1.5089 0.9636
-7.5084 11.8736 -2.3143 0.9446
-7.9804 11.5616 -2.3143 0.9446
-8.8849 10.8820 -2.3143 0.9446
-10.4965 9.2991 -2.3102 0.9447
-10.8578 8.8650 -2.3092 0.9448
-11.9446 8.9758 -2.4614 0.9412
-12.9415 7.4718 -2.4618 0.9412
-13.2352 6.9464 -2.4624 0.9412
-13.5380 6.4238 -2.4686 0.9411
-13.8378 5.8957 -2.4779 0.9408
-14.0922 5.3445 -2.4829 0.9407
-14.5409 4.2118 -2.4939 0.9405
-14.9766 2.4339 -2.4996 0.9403
-15.0648 1.8292 -2.5000 0.9403
-15.1261 1.2211 -2.5000 0.9403
-13.2898 -0.5356 -2.5000 0.9473
-13.2574 -1.0702 -2.5000 0.9473
-12.7754 -3.7004 -2.5000 0.9473
-12.6161 -4.2119 -2.5000 0.9473
-12.2363 -5.2134 -2.5000 0.9473
-11.7771 -6.1811 -2.5000 0.9473
-11.5186 -6.6503 -2.5000 0.9473
-11.2415 -7.1087 -2.5000 0.9473
-10.9462 -7.5556 -2.5000 0.9473
-10.6331 -7.9902 -2.5000 0.9473
-10.3027 -8.4119 -2.5000 0.9473
-9.5924 -9.2136 -2.5000 0.9473
-9.2136 -9.5924 -2.5000 0.9473
-8.4119 -10.3027 -2.5000 0.9473
-6.6503 -11.5186 -2.5000 0.9473
-5.2132 -12.2362 -2.5000 0.9473
-4.2119 -12.6161 -2.5000 0.9473
-3.7005 -12.7754 -2.5000 0.9473
-2.6605 -13.0318 -2.5000 0.9473
-1.0651 -13.1930 -2.4878 0.9476
1.0650 -13.1922 -2.4877 0.9476
2.1335 -13.1283 -2.5000 0.9473
3.1830 -12.9141 -2.5000 0.9473
3.7004 -12.7754 -2.5000 0.9473
4.7164 -12.4362 -2.5000 0.9473
5.2145 -12.2362 -2.5000 0.9473
6.1811 -11.7771 -2.5000 0.9473
6.6503 -11.5186 -2.5000 0.9473
7.1087 -11.2415 -2.5000 0.9473
7.5556 -10.9461 -2.5000 0.9473
7.9902 -10.6330 -2.5000 0.9473
8.8199 -9.9556 -2.5000 0.9473
9.5925 -9.2136 -2.5000 0.9473
9.9556 -8.8199 -2.5000 0.9473
10.6330 -7.9902 -2.5000 0.9473
12.4362 -4.7164 -2.5000 0.9473
12.7754 -3.7004 -2.5000 0.9473
12.9141 -3.1830 -2.5000 0.9473
7.1789 -1.4656 -1.3772 0.9706
6.8913 -1.1200 -1.3123 0.9720
6.9064 -0.8386 -1.3077 0.9721
6.9867 -0.2816 -1.3143 0.9719
7.1391 0.0000 -1.3419 0.9714
13.1283 2.1336 -2.5000 0.9473
11.9966 3.4749 -2.3476 0.9504
11.8470 3.9551 -2.3476 0.9504
11.4903 4.8956 -2.3476 0.9504
11.0591 5.8043 -2.3476 0.9504
10.8164 6.2449 -2.3476 0.9504
9.6145 7.8500 -2.3330 0.9507
9.0681 8.0337 -2.2771 0.9519
7.9185 8.2441 -2.1486 0.9545
7.3680 9.0242 -2.1898 0.9537
6.0522 9.5708 -2.1284 0.9550
4.7911 8.2985 -1.8011 0.9618
3.5391 8.3067 -1.6971 0.9639
2.9877 8.9493 -1.7734 0.9623
1.7139 8.3954 -1.6106 0.9657
1.3646 8.3968 -1.5990 0.9660
0.6781 8.3996 -1.5839 0.9663
-0.3385 8.3989 -1.5799 0.9664
-1.0195 8.3961 -1.5897 0.9662
-1.2221 7.5196 -1.4319 0.9695
-2.5503 8.8047 -1.7230 0.9634
-2.8096 8.4157 -1.6677 0.9645
-3.1298 8.2526 -1.6590 0.9647
-3.5256 8.2749 -1.6906 0.9641
-1.9993 3.4629 -0.7516 0.9839
-6.5824 10.4092 -2.3149 0.9511
-7.3968 9.8434 -2.3143 0.9511
-8.5294 8.8800 -2.3143 0.9511
-9.5304 7.7813 -2.3126 0.9512
-10.1135 6.9808 -2.3098 0.9512
-10.6883 6.1709 -2.3198 0.9510
-11.9147 5.6536 -2.4788 0.9477
-12.1695 5.1849 -2.4863 0.9476
-12.3877 4.6980 -2.4902 0.9475
-12.5938 4.2044 -2.4956 0.9474
-12.9116 3.1824 -2.4995 0.9473
-13.1283 2.1336 -2.5000 0.9473
-13.2036 1.6032 -2.5000 0.9473
-11.8174 -0.4762 -2.5000 0.9528
-11.7886 -0.9517 -2.5000 0.9528
-11.7407 -1.4256 -2.5000 0.9528
-11.6739 -1.8972 -2.5000 0.9528
-11.5880 -2.3657 -2.5000 0.9528
-11.4833 -2.8304 -2.5000 0.9528
-10.8806 -4.6358 -2.5000 0.9528
-10.6851 -5.0701 -2.5000 0.9528
-10.2425 -5.9135 -2.5000 0.9528
-9.9960 -6.3211 -2.5000 0.9528
-9.4550 -7.1050 -2.5000 0.9528
-9.1612 -7.4799 -2.5000 0.9528
-8.8526 -7.8427 -2.5000 0.9528
-8.1929 -8.5296 -2.5000 0.9528
-7.4799 -9.1612 -2.5000 0.9528
-6.7185 -9.7334 -2.5000 0.9528
-6.3211 -9.9961 -2.5000 0.9528
-5.9135 -10.2425 -2.5000 0.9528
-4.6358 -10.8806 -2.5000 0.9528
-4.1939 -11.0584 -2.5000 0.9528
-3.7452 -11.2183 -2.5000 0.9528
-2.8304 -11.4833 -2.5000 0.9528
-2.3658 -11.5880 -2.5000 0.9528
-1.8975 -11.6739 -2.5000 0.9528
-1.4256 -11.7408 -2.5000 0.9528
-0.4762 -11.8174 -2.5000 0.9528
0.0000 -11.8270 -2.5000 0.9528
0.9517 -11.7886 -2.5000 0.9528
2.3657 -11.5880 -2.5000 0.9528
2.8304 -11.4833 -2.5000 0.9528
3.2905 -11.3600 -2.5000 0.9528
3.7452 -11.2183 -2.5000 0.9528
4.1939 -11.0584 -2.5000 0.9528
5.9135 -10.2425 -2.5000 0.9528
8.1928 -8.5296 -2.5000 0.9528
8.8526 -7.8427 -2.5000 0.9528
9.4550 -7.1050 -2.5000 0.9528
9.7334 -6.7185 -2.5000 0.9528
9.9960 -6.3211 -2.5000 0.9528
10.4723 -5.4963 -2.5000 0.9528
11.2183 -3.7452 -2.5000 0.9528
11.3600 -3.2905 -2.5000 0.9528
11.4833 -2.8304 -2.5000 0.9528
6.5080 -1.0577 -1.3937 0.9734
6.4937 -0.7885 -1.3827 0.9736
6.5809 -0.2652 -1.3922 0.9734
6.7499 0.0000 -1.4268 0.9728
11.8174 0.4762 -2.5000 0.9528
11.7886 0.9517 -2.5000 0.9528
11.0216 2.7166 -2.3995 0.9547
10.5344 3.5169 -2.3476 0.9556
10.3843 3.9382 -2.3476 0.9556
9.8339 5.1612 -2.3476 0.9556
9.6180 5.5530 -2.3476 0.9556
9.3867 5.9358 -2.3476 0.9556
8.8786 6.6718 -2.3476 0.9556
7.9511 7.6371 -2.3304 0.9559
7.6390 7.9531 -2.3310 0.9559
6.9773 8.5456 -2.3320 0.9559
6.1858 8.2318 -2.1766 0.9588
6.2691 9.0824 -2.3328 0.9559
5.8977 9.3265 -2.3325 0.9559
4.3430 8.2749 -1.9754 0.9625
2.7191 9.3876 -2.0659 0.9608
1.3335 8.2057 -1.7573 0.9666
0.6626 8.2084 -1.7407 0.9669
-0.0000 8.2090 -1.7352 0.9670
-0.3308 8.2077 -1.7363 0.9670
-0.9963 8.2050 -1.7471 0.9668
-1.2519 7.7034 -1.6497 0.9686
-1.4344 7.0259 -1.5158 0.9711
-2.2350 9.0676 -1.9741 0.9625
-2.5503 8.8047 -1.9376 0.9632
-2.8096 8.4157 -1.8754 0.9644
-4.3845 8.3540 -1.9943 0.9622
-6.2222 9.0144 -2.3153 0.9562
-6.5787 8.7546 -2.3148 0.9562
-6.9244 8.4808 -2.3143 0.9562
-7.2603 8.1952 -2.3143 0.9562
-8.1952 7.2603 -2.3143 0.9562
-8.7842 6.6008 -2.3226 0.9561
-9.0712 6.2614 -2.3299 0.9559
-9.3382 5.9051 -2.3354 0.9558
-9.5804 5.5312 -2.3384 0.9558
-9.8066 5.1469 -2.3411 0.9557
-10.0159 4.7526 -2.3434 0.9557
-10.8504 4.6229 -2.4930 0.9529
-11.5880 2.3657 -2.5000 0.9528
-11.6738 1.8972 -2.5000 0.9528
-11.8174 0.4762 -2.5000 0.9528
-10.6027 -0.8559 -2.5000 0.9572
-10.5596 -1.2822 -2.5000 0.9572
-10.4222 -2.1277 -2.5000 0.9572
-10.2172 -2.9595 -2.5000 0.9572
-10.0898 -3.3685 -2.5000 0.9572
-9.9460 -3.7720 -2.5000 0.9572
-9.6102 -4.5601 -2.5000 0.9572
-9.4188 -4.9433 -2.5000 0.9572
-8.7543 -6.0426 -2.5000 0.9572
-7.6716 -7.3687 -2.5000 0.9572
-7.3687 -7.6716 -2.5000 0.9572
-7.0538 -7.9621 -2.5000 0.9572
-6.7275 -8.2396 -2.5000 0.9572
-6.3902 -8.5038 -2.5000 0.9572
-6.0426 -8.7542 -2.5000 0.9572
-5.6852 -8.9904 -2.5000 0.9572
-4.9433 -9.4188 -2.5000 0.9572
-4.5601 -9.6102 -2.5000 0.9572
-3.3685 -10.0898 -2.5000 0.9572
-2.9595 -10.2172 -2.5000 0.9572
-2.1278 -10.4222 -2.5000 0.9572
-1.7063 -10.4995 -2.5000 0.9572
-1.2822 -10.5596 -2.5000 0.9572
-0.4283 -10.6286 -2.5000 0.9572
0.8559 -10.6027 -2.5000 0.9572
1.2821 -10.5597 -2.5000 0.9572
1.7063 -10.4995 -2.5000 0.9572
2.1276 -10.4222 -2.5000 0.9572
2.9594 -10.2172 -2.5000 0.9572
3.7719 -9.9460 -2.5000 0.9572
4.1694 -9.7860 -2.5000 0.9572
4.5601 -9.6102 -2.5000 0.9572
4.9433 -9.4188 -2.5000 0.9572
5.3186 -9.2121 -2.5000 0.9572
6.3902 -8.5038 -2.5000 0.9572
7.3686 -7.6716 -2.5000 0.9572
8.2396 -6.7274 -2.5000 0.9572
8.5038 -6.3902 -2.5000 0.9572
8.9904 -5.6852 -2.5000 0.9572
9.6102 -4.5601 -2.5000 0.9572
9.7860 -4.1694 -2.5000 0.9572
9.9459 -3.7720 -2.5000 0.9572
6.3784 -1.0366 -1.5187 0.9738
6.3716 -0.7737 -1.5085 0.9740
6.3904 -0.5159 -1.5068 0.9740
6.4621 -0.2604 -1.5200 0.9738
10.5596 1.2822 -2.5000 0.9572
9.5943 2.7790 -2.3476 0.9598
9.4747 3.1631 -2.3476 0.9598
9.3396 3.5421 -2.3476 0.9598
9.1894 3.9153 -2.3476 0.9598
8.4424 5.3386 -2.3476 0.9598
7.9854 6.0007 -2.3476 0.9598
7.4767 6.6237 -2.3476 0.9598
7.2038 6.9194 -2.3476 0.9598
6.8660 7.1483 -2.3295 0.9601
6.5714 7.4175 -2.3290 0.9601
6.2661 7.6747 -2.3286 0.9601
4.2576 8.1121 -2.1532 0.9631
3.5391 8.3067 -2.1221 0.9636
2.9177 8.7394 -2.1654 0.9628
2.7191 9.3876 -2.2970 0.9606
1.7662 7.1658 -1.7345 0.9701
1.3033 8.0197 -1.9096 0.9672
0.2846 7.0637 -1.6615 0.9714
-0.3233 8.0216 -1.8868 0.9676
-0.6475 8.0203 -1.8911 0.9675
-1.4424 7.0652 -1.6947 0.9708
-2.2350 9.0676 -2.1949 0.9624
-2.5489 8.7998 -2.1532 0.9631
-3.5256 8.2749 -2.1139 0.9637
-4.3845 8.3540 -2.2174 0.9620
-5.2682 8.3310 -2.3166 0.9603
-5.5980 8.1101 -2.3160 0.9603
-6.2301 7.6305 -2.3152 0.9603
-8.2194 5.6734 -2.3473 0.9598
-8.4416 5.3382 -2.3474 0.9598
-8.6502 4.9942 -2.3475 0.9598
-8.8445 4.6419 -2.3476 0.9598
-9.0244 4.2821 -2.3476 0.9598
-9.9450 3.7716 -2.4997 0.9572
-10.0895 3.3684 -2.4999 0.9572
-10.2172 2.9594 -2.5000 0.9572
-10.5597 1.2822 -2.5000 0.9572
-10.6027 0.8559 -2.5000 0.9572
-9.6555 0.0000 -2.5000 0.9609
-9.6477 -0.3888 -2.5000 0.9609
-9.5851 -1.1638 -2.5000 0.9609
-9.5305 -1.5489 -2.5000 0.9609
-9.3750 -2.3107 -2.5000 0.9609
-9.1586 -3.0576 -2.5000 0.9609
-8.7233 -4.1392 -2.5000 0.9609
-8.5496 -4.4871 -2.5000 0.9609
-6.9636 -6.6886 -2.5000 0.9609
-6.6886 -6.9636 -2.5000 0.9609
-6.1066 -7.4792 -2.5000 0.9609
-5.8005 -7.7190 -2.5000 0.9609
-5.4850 -7.9463 -2.5000 0.9609
-5.1606 -8.1608 -2.5000 0.9609
-4.8278 -8.3619 -2.5000 0.9609
-4.4872 -8.5495 -2.5000 0.9609
-4.1392 -8.7233 -2.5000 0.9609
-3.7846 -8.8829 -2.5000 0.9609
-3.4239 -9.0281 -2.5000 0.9609
-2.6863 -9.2743 -2.5000 0.9609
-2.3107 -9.3749 -2.5000 0.9609
-1.5489 -9.5305 -2.5000 0.9609
-0.7770 -9.6242 -2.5000 0.9609
-0.3888 -9.6477 -2.5000 0.9609
0.7769 -9.6242 -2.5000 0.9609
1.1638 -9.5851 -2.5000 0.9609
1.5489 -9.5305 -2.5000 0.9609
2.3107 -9.3749 -2.5000 0.9609
2.6864 -9.2743 -2.5000 0.9609
3.4239 -9.0281 -2.5000 0.9609
4.4871 -8.5495 -2.5000 0.9609
4.8277 -8.3619 -2.5000 0.9609
5.1605 -8.1607 -2.5000 0.9609
5.4850 -7.9463 -2.5000 0.9609
6.1066 -7.4792 -2.5000 0.9609
6.6886 -6.9636 -2.5000 0.9609
6.9636 -6.6886 -2.5000 0.9609
7.2272 -6.4028 -2.5000 0.9609
8.1607 -5.1606 -2.5000 0.9609
8.5495 -4.4871 -2.5000 0.9609
8.7233 -4.1392 -2.5000 0.9609
8.8829 -3.7846 -2.5000 0.9609
9.0281 -3.4239 -2.5000 0.9609
9.1586 -3.0576 -2.5000 0.9609
9.2743 -2.6863 -2.5000 0.9609
6.5866 -1.6235 -1.7564 0.9724
6.3029 -0.7653 -1.6439 0.9741
6.4758 -0.0000 -1.6767 0.9736
6.7334 0.2713 -1.7448 0.9725
9.6242 0.7769 -2.5000 0.9609
9.5851 1.1638 -2.5000 0.9609
9.5305 1.5489 -2.5000 0.9609
9.4604 1.9313 -2.5000 0.9609
9.3749 2.3107 -2.5000 0.9609
8.3413 3.5539 -2.3476 0.9632
8.1915 3.8869 -2.3476 0.9632
8.0283 4.2136 -2.3476 0.9632
7.8522 4.5335 -2.3476 0.9632
7.6632 4.8459 -2.3476 0.9632
7.4619 5.1506 -2.3476 0.9632
7.2485 5.4469 -2.3476 0.9632
7.0233 5.7343 -2.3476 0.9632
6.7867 6.0125 -2.3476 0.9632
5.1064 7.3979 -2.3274 0.9635
4.8036 7.5963 -2.3271 0.9635
4.1766 7.9579 -2.3270 0.9635
3.8530 8.1200 -2.3271 0.9635
3.5229 8.2687 -2.3271 0.9635
3.1872 8.4039 -2.3272 0.9635
1.6000 7.8376 -2.0712 0.9675
0.6330 7.8416 -2.0369 0.9680
-0.3160 7.8408 -2.0318 0.9681
-0.6329 7.8395 -2.0364 0.9680
-0.9517 7.8382 -2.0443 0.9679
-2.1454 8.7040 -2.3211 0.9636
-3.1298 8.2526 -2.2852 0.9642
-3.4824 8.1735 -2.3003 0.9640
-3.8380 8.0884 -2.3180 0.9637
-1.9993 3.4629 -1.0353 0.9836
-4.7823 7.5626 -2.3168 0.9637
-5.0824 7.3631 -2.3165 0.9637
-5.4033 7.1904 -2.3288 0.9635
-6.2809 6.5391 -2.3476 0.9632
-6.7867 6.0125 -2.3476 0.9632
-7.0233 5.7343 -2.3476 0.9632
-7.2485 5.4469 -2.3476 0.9632
-7.4619 5.1506 -2.3476 0.9632
-7.8522 4.5335 -2.3476 0.9632
-8.0284 4.2136 -2.3476 0.9632
-8.1915 3.8869 -2.3476 0.9632
-9.2743 2.6863 -2.5000 0.9609
-9.3750 2.3107 -2.5000 0.9609
-9.5305 1.5489 -2.5000 0.9609
-9.5851 1.1638 -2.5000 0.9609
-9.6242 0.7770 -2.5000 0.9609
-8.8238 -0.3556 -2.5000 0.9640
-8.7666 -1.0645 -2.5000 0.9640
-8.6525 -1.7664 -2.5000 0.9640
-8.5744 -2.1134 -2.5000 0.9640
-8.4823 -2.4569 -2.5000 0.9640
-8.1243 -3.4615 -2.5000 0.9640
-7.9784 -3.7858 -2.5000 0.9640
-7.8195 -4.1040 -2.5000 0.9640
-7.4639 -4.7199 -2.5000 0.9640
-6.6101 -5.8560 -2.5000 0.9640
-6.1175 -6.3689 -2.5000 0.9640
-5.5851 -6.8405 -2.5000 0.9640
-3.4615 -8.1243 -2.5000 0.9640
-2.1134 -8.5744 -2.5000 0.9640
-1.7664 -8.6525 -2.5000 0.9640
-1.0645 -8.7666 -2.5000 0.9640
-0.7106 -8.8023 -2.5000 0.9640
0.0000 -8.8310 -2.5000 0.9640
1.0645 -8.7666 -2.5000 0.9640
1.7664 -8.6525 -2.5000 0.9640
2.1134 -8.5743 -2.5000 0.9640
3.7857 -7.9784 -2.5000 0.9640
4.1039 -7.8194 -2.5000 0.9640
4.7198 -7.4638 -2.5000 0.9640
5.0165 -7.2677 -2.5000 0.9640
5.5851 -6.8405 -2.5000 0.9640
5.8560 -6.6101 -2.5000 0.9640
6.6101 -5.8560 -2.5000 0.9640
6.8405 -5.5851 -2.5000 0.9640
7.0599 -5.3051 -2.5000 0.9640
7.2677 -5.0166 -2.5000 0.9640
7.4638 -4.7199 -2.5000 0.9640
7.9783 -3.7858 -2.5000 0.9640
8.3765 -2.7965 -2.5000 0.9640
8.4823 -2.4569 -2.5000 0.9640
6.4910 -1.5999 -1.8926 0.9726
6.2798 -1.2820 -1.8144 0.9737
6.2335 -1.0131 -1.7878 0.9741
6.4083 0.0000 -1.8141 0.9737
8.8023 0.7106 -2.5000 0.9640
8.7166 1.4166 -2.5000 0.9640
8.6526 1.7664 -2.5000 0.9640
8.5743 2.1134 -2.5000 0.9640
8.4823 2.4569 -2.5000 0.9640
8.1203 2.7109 -2.4235 0.9650
7.6290 3.2504 -2.3476 0.9661
7.4920 3.5550 -2.3476 0.9661
7.3427 3.8538 -2.3476 0.9661
7.1816 4.1463 -2.3476 0.9661
6.8247 4.7108 -2.3476 0.9661
6.4235 5.2446 -2.3476 0.9661
6.2071 5.4990 -2.3476 0.9661
4.9817 6.6295 -2.3476 0.9661
4.4287 7.0035 -2.3458 0.9661
4.1250 7.1446 -2.3355 0.9663
3.8185 7.2756 -2.3261 0.9664
2.9123 7.6791 -2.3250 0.9664
2.6003 7.7890 -2.3246 0.9664
2.2845 7.8871 -2.3246 0.9664
1.7657 7.1638 -2.0887 0.9698
1.5621 7.6517 -2.2108 0.9681
0.2853 7.0793 -2.0057 0.9710
-0.3085 7.6547 -2.1688 0.9687
-0.6179 7.6535 -2.1737 0.9686
-2.2794 7.8694 -2.3193 0.9665
-2.5941 7.7702 -2.3190 0.9665
-2.9045 7.6585 -2.3187 0.9665
-3.2101 7.5344 -2.3185 0.9665
-1.9993 3.4629 -1.1320 0.9835
-4.7108 6.8247 -2.3476 0.9661
-4.9818 6.6295 -2.3476 0.9661
-5.4990 6.2071 -2.3476 0.9661
-5.7445 5.9807 -2.3476 0.9661
-6.2071 5.4990 -2.3476 0.9661
-6.6295 4.9817 -2.3476 0.9661
-6.8247 4.7108 -2.3476 0.9661
-7.0089 4.4321 -2.3476 0.9661
-7.3428 3.8538 -2.3476 0.9661
-7.4920 3.5550 -2.3476 0.9661
-7.7538 2.9406 -2.3476 0.9661
-8.3765 2.7965 -2.5000 0.9640
-8.4823 2.4569 -2.5000 0.9640
-8.5744 2.1134 -2.5000 0.9640
-8.6525 1.7664 -2.5000 0.9640
-8.1214 -0.3273 -2.5000 0.9666
-8.0227 -1.3038 -2.5000 0.9666
-7.8918 -1.9452 -2.5000 0.9666
-7.8071 -2.2613 -2.5000 0.9666
-7.4776 -3.1859 -2.5000 0.9666
-7.3432 -3.4844 -2.5000 0.9666
-7.1970 -3.7772 -2.5000 0.9666
-6.4978 -4.8828 -2.5000 0.9666
-5.6304 -5.8619 -2.5000 0.9666
-5.1405 -6.2960 -2.5000 0.9666
-4.8828 -6.4979 -2.5000 0.9666
-4.3441 -6.8697 -2.5000 0.9666
-4.0640 -7.0390 -2.5000 0.9666
-3.7773 -7.1970 -2.5000 0.9666
-3.1859 -7.4775 -2.5000 0.9666
-2.5739 -7.7097 -2.5000 0.9666
-1.9452 -7.8918 -2.5000 0.9666
-1.6258 -7.9637 -2.5000 0.9666
-0.0000 -8.1280 -2.5000 0.9666
0.6540 -8.1016 -2.5000 0.9666
0.9797 -8.0687 -2.5000 0.9666
1.3038 -8.0227 -2.5000 0.9666
1.6258 -7.9637 -2.5000 0.9666
1.9451 -7.8918 -2.5000 0.9666
2.2613 -7.8071 -2.5000 0.9666
2.5739 -7.7097 -2.5000 0.9666
2.8822 -7.5998 -2.5000 0.9666
4.0640 -7.0390 -2.5000 0.9666
4.6172 -6.6892 -2.5000 0.9666
4.8828 -6.4978 -2.5000 0.9666
5.3898 -6.0839 -2.5000 0.9666
6.4978 -4.8828 -2.5000 0.9666
6.8696 -4.3441 -2.5000 0.9666
7.1970 -3.7772 -2.5000 0.9666
7.5998 -2.8822 -2.5000 0.9666
7.7096 -2.5739 -2.5000 0.9666
6.4326 -1.5855 -2.0377 0.9727
6.2414 -1.2742 -1.9593 0.9737
6.2033 -0.7532 -1.9220 0.9742
6.2323 -0.5031 -1.9232 0.9742
6.5788 0.2651 -2.0251 0.9728
8.0687 0.9797 -2.5000 0.9666
8.0227 1.3038 -2.5000 0.9666
7.8918 1.9451 -2.5000 0.9666
7.8070 2.2613 -2.5000 0.9666
7.0217 2.9917 -2.3476 0.9686
6.8955 3.2720 -2.3476 0.9686
6.7582 3.5470 -2.3476 0.9686
6.6099 3.8162 -2.3476 0.9686
6.2814 4.3357 -2.3476 0.9686
6.1017 4.5851 -2.3476 0.9686
5.7130 5.0612 -2.3476 0.9686
5.2872 5.5046 -2.3476 0.9686
4.8271 5.9122 -2.3476 0.9686
3.5470 6.7582 -2.3476 0.9686
2.6935 7.1023 -2.3363 0.9687
0.9087 7.4838 -2.3188 0.9689
0.6043 7.4850 -2.3097 0.9691
0.2856 7.0873 -2.1817 0.9708
-0.0000 7.4854 -2.3023 0.9692
-0.3016 7.4842 -2.3038 0.9691
-0.9085 7.4817 -2.3181 0.9690
-1.4473 7.0893 -2.2255 0.9702
-1.8052 7.3237 -2.3200 0.9689
-2.3971 7.1800 -2.3282 0.9688
-3.2720 6.8956 -2.3476 0.9686
-1.9993 3.4629 -1.2299 0.9834
-4.0793 6.4509 -2.3476 0.9686
-5.0613 5.7130 -2.3476 0.9686
-5.5046 5.2872 -2.3476 0.9686
-5.7130 5.0612 -2.3476 0.9686
-6.1017 4.5851 -2.3476 0.9686
-6.2814 4.3357 -2.3476 0.9686
-6.6099 3.8162 -2.3476 0.9686
-7.0217 2.9917 -2.3476 0.9686
-7.8071 2.2613 -2.5000 0.9666
-7.8918 1.9451 -2.5000 0.9666
-7.9637 1.6258 -2.5000 0.9666
-8.0687 0.9797 -2.5000 0.9666
-8.1016 0.6540 -2.5000 0.9666
-7.5148 -0.3029 -2.5000 0.9688
-7.4965 -0.6052 -2.5000 0.9688
-7.4235 -1.2065 -2.5000 0.9688
-7.3024 -1.7999 -2.5000 0.9688
-7.2240 -2.0924 -2.5000 0.9688
-7.1338 -2.3816 -2.5000 0.9688
-6.6594 -3.4951 -2.5000 0.9688
-6.1896 -4.2724 -2.5000 0.9688
-6.0125 -4.5181 -2.5000 0.9688
-5.8257 -4.7566 -2.5000 0.9688
-5.6295 -4.9873 -2.5000 0.9688
-5.2099 -5.4241 -2.5000 0.9688
-4.5181 -6.0125 -2.5000 0.9688
-4.2724 -6.1896 -2.5000 0.9688
-4.0197 -6.3566 -2.5000 0.9688
-2.6670 -7.0321 -2.5000 0.9688
-1.7999 -7.3024 -2.5000 0.9688
-1.5044 -7.3689 -2.5000 0.9688
-0.0000 -7.5209 -2.5000 0.9688
0.3028 -7.5148 -2.5000 0.9688
0.6052 -7.4965 -2.5000 0.9688
1.5044 -7.3689 -2.5000 0.9688
2.9479 -6.9191 -2.5000 0.9688
3.2241 -6.7947 -2.5000 0.9688
3.4951 -6.6594 -2.5000 0.9688
4.2723 -6.1896 -2.5000 0.9688
4.5181 -6.0125 -2.5000 0.9688
4.7565 -5.8257 -2.5000 0.9688
4.9873 -5.6295 -2.5000 0.9688
5.2099 -5.4241 -2.5000 0.9688
5.6294 -4.9873 -2.5000 0.9688
5.8257 -4.7566 -2.5000 0.9688
6.7947 -3.2242 -2.5000 0.9688
6.9190 -2.9479 -2.5000 0.9688
7.0321 -2.6669 -2.5000 0.9688
7.1338 -2.3816 -2.5000 0.9688
6.4091 -1.5797 -2.1942 0.9726
6.1856 -1.0053 -2.0831 0.9739
6.2256 -0.5026 -2.0762 0.9740
6.2744 -0.2529 -2.0873 0.9739
6.3481 0.0000 -2.1102 0.9736
7.4965 0.6052 -2.5000 0.9688
7.4660 0.9065 -2.5000 0.9688
7.4235 1.2064 -2.5000 0.9688
7.3689 1.5044 -2.5000 0.9688
7.3023 1.7999 -2.5000 0.9688
7.2239 2.0924 -2.5000 0.9688
7.1338 2.3816 -2.5000 0.9688
7.0321 2.6669 -2.5000 0.9688
6.4973 2.7682 -2.3476 0.9707
6.3805 3.0276 -2.3476 0.9707
6.2534 3.2821 -2.3476 0.9707
5.9691 3.7746 -2.3476 0.9707
5.8122 4.0119 -2.3476 0.9707
5.4706 4.4666 -2.3476 0.9707
4.0119 5.8123 -2.3476 0.9707
3.7746 5.9691 -2.3476 0.9707
3.5312 6.1162 -2.3476 0.9707
3.2820 6.2534 -2.3476 0.9707
2.7682 6.4973 -2.3476 0.9707
2.5044 6.6035 -2.3476 0.9707
1.4126 6.9197 -2.3476 0.9707
0.2838 7.0442 -2.3434 0.9707
0.0000 7.0488 -2.3431 0.9707
-0.2839 7.0448 -2.3436 0.9707
-0.5677 7.0321 -2.3451 0.9707
-0.8512 7.0106 -2.3475 0.9707
-1.1331 6.9708 -2.3476 0.9707
-1.6902 6.8572 -2.3476 0.9707
-2.2364 6.6989 -2.3476 0.9707
-3.0276 6.3805 -2.3476 0.9707
-3.2821 6.2535 -2.3476 0.9707
-3.7746 5.9691 -2.3476 0.9707
-4.0119 5.8122 -2.3476 0.9707
-4.2427 5.6460 -2.3476 0.9707
-4.4666 5.4706 -2.3476 0.9707
-4.6833 5.2863 -2.3476 0.9707
-5.0934 4.8923 -2.3476 0.9707
-5.2863 4.6832 -2.3476 0.9707
-5.4706 4.4666 -2.3476 0.9707
-5.9691 3.7746 -2.3476 0.9707
-6.1162 3.5312 -2.3476 0.9707
-6.2535 3.2821 -2.3476 0.9707
-6.3805 3.0276 -2.3476 0.9707
-6.4973 2.7682 -2.3476 0.9707
-7.0322 2.6669 -2.5000 0.9688
-7.3024 1.7999 -2.5000 0.9688
-7.4235 1.2064 -2.5000 0.9688
-7.4661 0.9065 -2.5000 0.9688
-6.9852 -0.2815 -2.5000 0.9707
-6.9399 -0.8427 -2.5000 0.9707
-6.9004 -1.1214 -2.5000 0.9707
-6.7149 -1.9450 -2.5000 0.9707
-6.5366 -2.4790 -2.5000 0.9707
-6.3159 -2.9969 -2.5000 0.9707
-5.7534 -3.9713 -2.5000 0.9707
-5.4152 -4.4213 -2.5000 0.9707
-5.2328 -4.6358 -2.5000 0.9707
-4.8428 -5.0418 -2.5000 0.9707
-4.6358 -5.2327 -2.5000 0.9707
-3.9713 -5.7534 -2.5000 0.9707
-3.7364 -5.9086 -2.5000 0.9707
-3.4954 -6.0543 -2.5000 0.9707
-3.2488 -6.1901 -2.5000 0.9707
-2.7402 -6.4315 -2.5000 0.9707
-1.9450 -6.7149 -2.5000 0.9707
-1.6730 -6.7877 -2.5000 0.9707
-1.3984 -6.8496 -2.5000 0.9707
-1.1214 -6.9003 -2.5000 0.9707
-0.8427 -6.9399 -2.5000 0.9707
-0.5625 -6.9682 -2.5000 0.9707
-0.0000 -6.9909 -2.5000 0.9707
0.2815 -6.9852 -2.5000 0.9707
1.1214 -6.9003 -2.5000 0.9707
1.3983 -6.8496 -2.5000 0.9707
1.6730 -6.7877 -2.5000 0.9707
2.2138 -6.6311 -2.5000 0.9707
2.4790 -6.5366 -2.5000 0.9707
3.2488 -6.1901 -2.5000 0.9707
3.9713 -5.7534 -2.5000 0.9707
4.1997 -5.5888 -2.5000 0.9707
4.4213 -5.4152 -2.5000 0.9707
5.2327 -4.6358 -2.5000 0.9707
5.7533 -3.9713 -2.5000 0.9707
5.9086 -3.7364 -2.5000 0.9707
6.0543 -3.4954 -2.5000 0.9707
6.1901 -3.2488 -2.5000 0.9707
6.5366 -2.4790 -2.5000 0.9707
6.6311 -2.2138 -2.5000 0.9707
6.7148 -1.9450 -2.5000 0.9707
6.9399 -0.8427 -2.5000 0.9707
6.9682 -0.5625 -2.5000 0.9707
6.9003 1.1214 -2.5000 0.9707
6.7877 1.6730 -2.5000 0.9707
6.7149 1.9450 -2.5000 0.9707
6.6311 2.2138 -2.5000 0.9707
6.3429 2.7025 -2.4656 0.9711
5.9309 2.8142 -2.3476 0.9725
5.2481 3.9437 -2.3476 0.9725
4.9137 4.3532 -2.3476 0.9725
4.7345 4.5475 -2.3476 0.9725
4.5475 4.7345 -2.3476 0.9725
4.1518 5.0850 -2.3476 0.9725
3.7292 5.4026 -2.3476 0.9725
3.5086 5.5484 -2.3476 0.9725
3.2823 5.6852 -2.3476 0.9725
3.0508 5.8127 -2.3476 0.9725
2.8142 5.9309 -2.3476 0.9725
2.5731 6.0394 -2.3476 0.9725
2.3279 6.1381 -2.3476 0.9725
2.0788 6.2269 -2.3476 0.9725
1.3131 6.4320 -2.3476 0.9725
1.0530 6.4797 -2.3476 0.9725
-0.0000 6.5647 -2.3476 0.9725
-0.5283 6.5434 -2.3476 0.9725
-0.7913 6.5168 -2.3476 0.9725
-1.3131 6.4320 -2.3476 0.9725
-2.0788 6.2269 -2.3476 0.9725
-2.3279 6.1381 -2.3476 0.9725
-2.5731 6.0394 -2.3476 0.9725
-2.8143 5.9309 -2.3476 0.9725
-3.5086 5.5484 -2.3476 0.9725
-3.7292 5.4026 -2.3476 0.9725
-3.9437 5.2481 -2.3476 0.9725
-4.1518 5.0850 -2.3476 0.9725
-4.3532 4.9137 -2.3476 0.9725
-4.5475 4.7345 -2.3476 0.9725
-4.7345 4.5475 -2.3476 0.9725
-4.9137 4.3532 -2.3476 0.9725
-5.2481 3.9437 -2.3476 0.9725
-5.4027 3.7292 -2.3476 0.9725
-5.5484 3.5086 -2.3476 0.9725
-5.6852 3.2824 -2.3476 0.9725
-5.9309 2.8142 -2.3476 0.9725
-6.3328 2.6981 -2.4616 0.9712
-6.7149 1.9450 -2.5000 0.9707
-6.7877 1.6730 -2.5000 0.9707
-6.9399 0.8427 -2.5000 0.9707
-6.9852 0.2815 -2.5000 0.9707
-3.5589 -0.1434 -1.3649 0.9849
-6.1879 -2.0658 -2.5000 0.9724
-6.0997 -2.3133 -2.5000 0.9724
-5.5138 -3.4867 -2.5000 0.9724
-5.3689 -3.7059 -2.5000 0.9724
-5.0533 -4.1259 -2.5000 0.9724
-4.7049 -4.5191 -2.5000 0.9724
-4.3260 -4.8830 -2.5000 0.9724
-3.9191 -5.2153 -2.5000 0.9724
-3.7059 -5.3689 -2.5000 0.9724
-3.4867 -5.5137 -2.5000 0.9724
-3.2618 -5.6497 -2.5000 0.9724
-2.7967 -5.8938 -2.5000 0.9724
-1.8150 -6.2661 -2.5000 0.9724
-1.3049 -6.3918 -2.5000 0.9724
-0.7863 -6.4761 -2.5000 0.9724
-0.5250 -6.5025 -2.5000 0.9724
-0.2627 -6.5184 -2.5000 0.9724
-0.0000 -6.5237 -2.5000 0.9724
0.5249 -6.5025 -2.5000 0.9724
0.7863 -6.4761 -2.5000 0.9724
1.0465 -6.4392 -2.5000 0.9724
3.0317 -5.7764 -2.5000 0.9724
3.7059 -5.3689 -2.5000 0.9724
3.9190 -5.2153 -2.5000 0.9724
4.1259 -5.0533 -2.5000 0.9724
4.5191 -4.7049 -2.5000 0.9724
5.3688 -3.7059 -2.5000 0.9724
5.6496 -3.2618 -2.5000 0.9724
5.7764 -3.0317 -2.5000 0.9724
6.0016 -2.5571 -2.5000 0.9724
6.3341 -1.5612 -2.5000 0.9724
6.3918 -1.3049 -2.5000 0.9724
6.5025 -0.5249 -2.5000 0.9724
6.5237 -0.0000 -2.5000 0.9724
6.5183 0.2627 -2.5000 0.9724
6.5025 0.5249 -2.5000 0.9724
6.4392 1.0465 -2.5000 0.9724
6.3341 1.5612 -2.5000 0.9724
6.0997 2.3133 -2.5000 0.9724
6.0016 2.5570 -2.5000 0.9724
5.4244 2.8469 -2.3476 0.9741
5.3052 3.0630 -2.3476 0.9741
5.0416 3.4799 -2.3476 0.9741
4.7452 3.8743 -2.3476 0.9741
4.0623 4.5854 -2.3476 0.9741
3.2741 5.1776 -2.3476 0.9741
3.0630 5.3052 -2.3476 0.9741
2.8469 5.4243 -2.3476 0.9741
2.6261 5.5345 -2.3476 0.9741
1.9399 5.8107 -2.3476 0.9741
0.9827 6.0466 -2.3476 0.9741
0.7384 6.0813 -2.3476 0.9741
-0.2467 6.1210 -2.3476 0.9741
-0.7384 6.0813 -2.3476 0.9741
-1.2254 6.0022 -2.3476 0.9741
-2.1723 5.7279 -2.3476 0.9741
-2.4012 5.6358 -2.3476 0.9741
-3.6801 4.8974 -2.3476 0.9741
-4.2436 4.4181 -2.3476 0.9741
-4.8974 3.6801 -2.3476 0.9741
-5.1776 3.2741 -2.3476 0.9741
-5.4243 2.8469 -2.3476 0.9741
-6.0017 2.5571 -2.5000 0.9724
-6.1879 2.0658 -2.5000 0.9724
-6.2661 1.8150 -2.5000 0.9724
-6.3341 1.5612 -2.5000 0.9724
-3.5687 0.2881 -1.3720 0.9848
-3.5589 0.1434 -1.3649 0.9849
-2.8160 0.0000 -1.1525 0.9879
-2.8204 -0.1137 -1.1552 0.9879
-2.9322 -0.3560 -1.2089 0.9873
-3.0070 -0.6139 -1.2561 0.9868
-5.9308 -1.4618 -2.5000 0.9739
-5.8672 -1.6994 -2.5000 0.9739
-5.7940 -1.9343 -2.5000 0.9739
-5.6196 -2.3943 -2.5000 0.9739
-5.5186 -2.6186 -2.5000 0.9739
-5.4087 -2.8387 -2.5000 0.9739
-5.1627 -3.2647 -2.5000 0.9739
-5.0271 -3.4699 -2.5000 0.9739
-4.8833 -3.6695 -2.5000 0.9739
-4.7316 -3.8632 -2.5000 0.9739
-4.5721 -4.0506 -2.5000 0.9739
-4.4054 -4.2314 -2.5000 0.9739
-4.2314 -4.4054 -2.5000 0.9739
-4.0506 -4.5721 -2.5000 0.9739
-3.8632 -4.7316 -2.5000 0.9739
-3.6696 -4.8833 -2.5000 0.9739
-2.8387 -5.4087 -2.5000 0.9739
-2.6186 -5.5186 -2.5000 0.9739
-2.3943 -5.6196 -2.5000 0.9739
-2.1661 -5.7114 -2.5000 0.9739
-1.9343 -5.7940 -2.5000 0.9739
-1.2218 -5.9849 -2.5000 0.9739
-0.9799 -6.0292 -2.5000 0.9739
-0.0000 -6.1083 -2.5000 0.9739
0.2459 -6.1034 -2.5000 0.9739
0.9798 -6.0292 -2.5000 0.9739
1.2218 -5.9849 -2.5000 0.9739
1.6994 -5.8672 -2.5000 0.9739
1.9343 -5.7940 -2.5000 0.9739
2.6186 -5.5186 -2.5000 0.9739
3.0542 -5.2900 -2.5000 0.9739
3.4699 -5.0271 -2.5000 0.9739
3.6695 -4.8833 -2.5000 0.9739
3.8632 -4.7316 -2.5000 0.9739
4.0505 -4.5721 -2.5000 0.9739
4.4053 -4.2314 -2.5000 0.9739
4.5721 -4.0506 -2.5000 0.9739
4.7315 -3.8632 -2.5000 0.9739
4.8832 -3.6695 -2.5000 0.9739
5.1627 -3.2647 -2.5000 0.9739
5.2900 -3.0542 -2.5000 0.9739
5.4087 -2.8387 -2.5000 0.9739
5.7114 -2.1661 -2.5000 0.9739
5.9309 -1.4618 -2.5000 0.9739
6.0638 -0.7363 -2.5000 0.9739
6.0885 -0.4915 -2.5000 0.9739
6.1083 -0.0000 -2.5000 0.9739
6.0885 0.4915 -2.5000 0.9739
6.0638 0.7363 -2.5000 0.9739
6.0292 0.9798 -2.5000 0.9739
5.9849 1.2218 -2.5000 0.9739
5.9308 1.4618 -2.5000 0.9739
5.7940 1.9343 -2.5000 0.9739
5.7114 2.1660 -2.5000 0.9739
5.6195 2.3942 -2.5000 0.9739
4.9675 2.8680 -2.3476 0.9755
4.8480 3.0657 -2.3476 0.9755
4.7206 3.2584 -2.3476 0.9755
4.5855 3.4458 -2.3476 0.9755
4.2934 3.8036 -2.3476 0.9755
3.9734 4.1368 -2.3476 0.9755
3.8036 4.2934 -2.3476 0.9755
2.8680 4.9675 -2.3476 0.9755
2.6656 5.0789 -2.3476 0.9755
2.2483 5.2770 -2.3476 0.9755
1.8164 5.4408 -2.3476 0.9755
0.9201 5.6617 -2.3476 0.9755
0.6914 5.6941 -2.3476 0.9755
0.2310 5.7313 -2.3476 0.9755
-0.6914 5.6941 -2.3476 0.9755
-0.9201 5.6617 -2.3476 0.9755
-2.2483 5.2770 -2.3476 0.9755
-2.6657 5.0789 -2.3476 0.9755
-1.9993 3.4629 -1.6365 0.9829
-3.0657 4.8480 -2.3476 0.9755
-3.2584 4.7206 -2.3476 0.9755
-3.4458 4.5856 -2.3476 0.9755
-3.6277 4.4431 -2.3476 0.9755
-3.8037 4.2934 -2.3476 0.9755
-3.9734 4.1368 -2.3476 0.9755
-4.1368 3.9734 -2.3476 0.9755
-4.2934 3.8036 -2.3476 0.9755
-4.4431 3.6277 -2.3476 0.9755
-4.7206 3.2584 -2.3476 0.9755
-4.8480 3.0657 -2.3476 0.9755
-5.6196 2.3943 -2.5000 0.9739
-5.8672 1.6994 -2.5000 0.9739
-5.9309 1.4618 -2.5000 0.9739
-2.8204 0.1136 -1.1552 0.9879
-2.3650 -0.0000 -1.0307 0.9897
-2.3670 -0.0954 -1.0324 0.9897
-2.3794 -0.2889 -1.0446 0.9896
-2.4021 -0.3904 -1.0606 0.9894
-2.4207 -0.4942 -1.0767 0.9893
-5.5696 -1.3728 -2.5000 0.9753
-5.4411 -1.8165 -2.5000 0.9753
-5.3636 -2.0341 -2.5000 0.9753
-5.2773 -2.2485 -2.5000 0.9753
-5.1825 -2.4591 -2.5000 0.9753
-5.0793 -2.6658 -2.5000 0.9753
-4.4434 -3.6279 -2.5000 0.9753
-4.2937 -3.8039 -2.5000 0.9753
-4.1371 -3.9737 -2.5000 0.9753
-3.8039 -4.2937 -2.5000 0.9753
-3.6279 -4.4434 -2.5000 0.9753
-3.0659 -4.8483 -2.5000 0.9753
-2.8682 -4.9678 -2.5000 0.9753
-2.6658 -5.0793 -2.5000 0.9753
-2.4591 -5.1825 -2.5000 0.9753
-2.2485 -5.2773 -2.5000 0.9753
-2.0341 -5.3636 -2.5000 0.9753
-1.3728 -5.5696 -2.5000 0.9753
-0.9202 -5.6620 -2.5000 0.9753
-0.4616 -5.7177 -2.5000 0.9753
-0.0000 -5.7363 -2.5000 0.9753
0.4616 -5.7177 -2.5000 0.9753
0.9202 -5.6620 -2.5000 0.9753
1.5959 -5.5099 -2.5000 0.9753
2.0341 -5.3635 -2.5000 0.9753
3.0658 -4.8483 -2.5000 0.9753
3.6279 -4.4434 -2.5000 0.9753
3.8039 -4.2937 -2.5000 0.9753
4.1370 -3.9737 -2.5000 0.9753
4.5858 -3.4461 -2.5000 0.9753
4.7209 -3.2586 -2.5000 0.9753
4.9678 -2.8682 -2.5000 0.9753
5.0793 -2.6658 -2.5000 0.9753
5.1825 -2.4591 -2.5000 0.9753
5.3635 -2.0341 -2.5000 0.9753
5.5098 -1.5959 -2.5000 0.9753
5.5696 -1.3728 -2.5000 0.9753
5.6203 -1.1474 -2.5000 0.9753
5.6621 -0.9202 -2.5000 0.9753
5.6945 -0.6914 -2.5000 0.9753
5.7177 -0.4616 -2.5000 0.9753
5.7316 -0.2310 -2.5000 0.9753
5.7363 0.0000 -2.5000 0.9753
5.7177 0.4616 -2.5000 0.9753
5.6620 0.9202 -2.5000 0.9753
5.6204 1.1474 -2.5000 0.9753
5.5696 1.3728 -2.5000 0.9753
5.5098 1.5959 -2.5000 0.9753
5.3635 2.0341 -2.5000 0.9753
5.2773 2.2484 -2.5000 0.9753
5.1825 2.4591 -2.5000 0.9753
4.7103 2.7194 -2.3704 0.9765
4.3063 3.2360 -2.3476 0.9768
4.0319 3.5720 -2.3476 0.9768
3.4067 4.1725 -2.3476 0.9768
3.2360 4.3063 -2.3476 0.9768
2.8790 4.5527 -2.3476 0.9768
2.6933 4.6650 -2.3476 0.9768
2.3092 4.8665 -2.3476 0.9768
1.2891 5.2301 -2.3476 0.9768
0.4334 5.3692 -2.3476 0.9768
0.2169 5.3823 -2.3476 0.9768
-0.2169 5.3823 -2.3476 0.9768
-0.4334 5.3692 -2.3476 0.9768
-0.8641 5.3169 -2.3476 0.9768
-1.0775 5.2778 -2.3476 0.9768
-1.2891 5.2301 -2.3476 0.9768
-1.7058 5.1094 -2.3476 0.9768
-1.9101 5.0366 -2.3476 0.9768
-2.3092 4.8666 -2.3476 0.9768
-2.5033 4.7696 -2.3476 0.9768
-1.9993 3.4629 -1.7427 0.9827
-2.8790 4.5527 -2.3476 0.9768
-3.4068 4.1725 -2.3476 0.9768
-3.5720 4.0319 -2.3476 0.9768
-3.7315 3.8848 -2.3476 0.9768
-3.8849 3.7314 -2.3476 0.9768
-4.0320 3.5720 -2.3476 0.9768
-4.7046 2.7162 -2.3675 0.9766
-5.1825 2.4591 -2.5000 0.9753
-5.2773 2.2484 -2.5000 0.9753
-5.3636 2.0341 -2.5000 0.9753
-5.4411 1.8165 -2.5000 0.9753
-5.5696 1.3728 -2.5000 0.9753
-2.4207 0.4942 -1.0767 0.9893
-2.4021 0.3904 -1.0606 0.9894
-2.3670 0.0954 -1.0324 0.9897
-2.2030 0.0000 -1.0198 0.9903
-2.2037 -0.0888 -1.0209 0.9903
-2.2008 -0.1777 -1.0220 0.9903
-2.2302 -0.3624 -1.0459 0.9901
-2.2466 -0.4586 -1.0614 0.9899
-2.3851 -0.5879 -1.1371 0.9892
-5.1876 -1.5026 -2.5000 0.9765
-5.1229 -1.7103 -2.5000 0.9765
-4.9687 -2.1170 -2.5000 0.9765
-4.7823 -2.5099 -2.5000 0.9765
-4.6773 -2.7004 -2.5000 0.9765
-4.5648 -2.8866 -2.5000 0.9765
-4.4449 -3.0681 -2.5000 0.9765
-4.1836 -3.4158 -2.5000 0.9765
-4.0426 -3.5815 -2.5000 0.9765
-3.8951 -3.7413 -2.5000 0.9765
-3.7413 -3.8951 -2.5000 0.9765
-3.4158 -4.1836 -2.5000 0.9765
-3.0681 -4.4448 -2.5000 0.9765
-2.7005 -4.6773 -2.5000 0.9765
-2.5099 -4.7822 -2.5000 0.9765
-2.3153 -4.8794 -2.5000 0.9765
-2.1170 -4.9687 -2.5000 0.9765
-1.7103 -5.1229 -2.5000 0.9765
-1.5026 -5.1876 -2.5000 0.9765
-1.0803 -5.2917 -2.5000 0.9765
-0.4346 -5.3834 -2.5000 0.9765
0.2175 -5.3965 -2.5000 0.9765
0.4346 -5.3834 -2.5000 0.9765
2.1169 -4.9687 -2.5000 0.9765
2.3153 -4.8794 -2.5000 0.9765
2.5099 -4.7822 -2.5000 0.9765
2.8866 -4.5648 -2.5000 0.9765
3.0680 -4.4448 -2.5000 0.9765
3.2445 -4.3177 -2.5000 0.9765
3.4157 -4.1836 -2.5000 0.9765
3.7413 -3.8951 -2.5000 0.9765
4.0426 -3.5814 -2.5000 0.9765
4.4448 -3.0681 -2.5000 0.9765
4.5647 -2.8866 -2.5000 0.9765
4.6773 -2.7004 -2.5000 0.9765
4.9687 -2.1170 -2.5000 0.9765
5.0499 -1.9152 -2.5000 0.9765
5.1876 -1.5026 -2.5000 0.9765
5.2917 -1.0803 -2.5000 0.9765
5.3309 -0.8664 -2.5000 0.9765
5.3615 -0.6510 -2.5000 0.9765
5.3833 -0.4346 -2.5000 0.9765
5.3965 -0.2175 -2.5000 0.9765
5.3615 0.6510 -2.5000 0.9765
5.2439 1.2925 -2.5000 0.9765
5.1230 1.7103 -2.5000 0.9765
5.0499 1.9152 -2.5000 0.9765
4.9687 2.1170 -2.5000 0.9765
4.8794 2.3153 -2.5000 0.9765
4.7822 2.5099 -2.5000 0.9765
4.0545 3.0467 -2.3476 0.9779
3.9285 3.2075 -2.3476 0.9779
3.5132 3.6577 -2.3476 0.9779
3.2075 3.9285 -2.3476 0.9779
3.0467 4.0545 -2.3476 0.9779
2.7106 4.2865 -2.3476 0.9779
2.5358 4.3922 -2.3476 0.9779
2.3569 4.4907 -2.3476 0.9779
2.1742 4.5820 -2.3476 0.9779
1.7984 4.7421 -2.3476 0.9779
1.6060 4.8106 -2.3476 0.9779
1.2137 4.9243 -2.3476 0.9779
1.0145 4.9691 -2.3476 0.9779
0.6113 5.0347 -2.3476 0.9779
0.4081 5.0552 -2.3476 0.9779
0.2042 5.0675 -2.3476 0.9779
-0.2042 5.0675 -2.3476 0.9779
-0.6113 5.0347 -2.3476 0.9779
-0.8136 5.0060 -2.3476 0.9779
-1.2137 4.9243 -2.3476 0.9779
-1.7984 4.7421 -2.3476 0.9779
-1.9879 4.6658 -2.3476 0.9779
-1.9993 3.4629 -1.8509 0.9825
-2.7106 4.2865 -2.3476 0.9779
-2.8810 4.1739 -2.3476 0.9779
-3.2075 3.9285 -2.3476 0.9779
-3.3631 3.7962 -2.3476 0.9779
-3.5132 3.6577 -2.3476 0.9779
-3.6577 3.5133 -2.3476 0.9779
-3.7962 3.3631 -2.3476 0.9779
-3.9285 3.2075 -2.3476 0.9779
-4.1770 2.8832 -2.3493 0.9779
-4.3050 2.7223 -2.3577 0.9778
-4.6644 2.6930 -2.4931 0.9765
-4.7823 2.5099 -2.5000 0.9765
-4.8794 2.3153 -2.5000 0.9765
-4.9687 2.1169 -2.5000 0.9765
-2.3851 0.5879 -1.1371 0.9892
-2.2466 0.4586 -1.0614 0.9899
-2.2302 0.3624 -1.0459 0.9901
-2.2080 0.2681 -1.0295 0.9902
-2.2008 0.1777 -1.0220 0.9903
-2.2037 0.0888 -1.0209 0.9903
-2.0595 -0.0830 -1.0111 0.9909
-2.0575 -0.2498 -1.0167 0.9908
-2.0750 -0.3372 -1.0312 0.9907
-2.1007 -0.5178 -1.0613 0.9904
-2.9436 -0.8526 -1.5032 0.9864
-4.7654 -1.8073 -2.5000 0.9775
-4.6887 -1.9977 -2.5000 0.9775
-4.4138 -2.5483 -2.5000 0.9775
-4.3076 -2.7239 -2.5000 0.9775
-4.1944 -2.8952 -2.5000 0.9775
-3.8149 -3.3796 -2.5000 0.9775
-3.3797 -3.8148 -2.5000 0.9775
-3.0617 -4.0744 -2.5000 0.9775
-2.3685 -4.5128 -2.5000 0.9775
-1.8073 -4.7654 -2.5000 0.9775
-1.4180 -4.8954 -2.5000 0.9775
-0.8176 -5.0306 -2.5000 0.9775
-0.6143 -5.0594 -2.5000 0.9775
-0.2052 -5.0924 -2.5000 0.9775
0.2052 -5.0924 -2.5000 0.9775
0.4101 -5.0800 -2.5000 0.9775
1.2197 -4.9485 -2.5000 0.9775
1.4180 -4.8953 -2.5000 0.9775
2.5483 -4.4138 -2.5000 0.9775
2.8952 -4.1944 -2.5000 0.9775
3.2233 -3.9478 -2.5000 0.9775
3.6756 -3.5305 -2.5000 0.9775
4.0744 -3.0617 -2.5000 0.9775
4.3075 -2.7240 -2.5000 0.9775
4.5128 -2.3685 -2.5000 0.9775
4.6887 -1.9977 -2.5000 0.9775
4.8343 -1.6139 -2.5000 0.9775
5.0965 -0.0000 -2.5000 0.9775
5.0924 0.2052 -2.5000 0.9775
5.0800 0.4101 -2.5000 0.9775
5.0594 0.6143 -2.5000 0.9775
5.0306 0.8175 -2.5000 0.9775
4.9936 1.0194 -2.5000 0.9775
4.8953 1.4179 -2.5000 0.9775
4.8343 1.6139 -2.5000 0.9775
4.5128 2.3685 -2.5000 0.9775
4.2688 2.6994 -2.4775 0.9777
3.5823 3.1736 -2.3476 0.9789
3.3153 3.4516 -2.3476 0.9789
2.8751 3.8260 -2.3476 0.9789
2.7187 3.9387 -2.3476 0.9789
2.5579 4.0450 -2.3476 0.9789
1.3315 4.5969 -2.3476 0.9789
0.5769 4.7510 -2.3476 0.9789
0.3851 4.7704 -2.3476 0.9789
0.1927 4.7820 -2.3476 0.9789
-0.0000 4.7859 -2.3476 0.9789
-0.1927 4.7820 -2.3476 0.9789
-1.3315 4.5969 -2.3476 0.9789
-1.5156 4.5396 -2.3476 0.9789
-1.6971 4.4749 -2.3476 0.9789
-2.2241 4.2377 -2.3476 0.9789
-2.5579 4.0450 -2.3476 0.9789
-2.7187 3.9387 -2.3476 0.9789
-3.1736 3.5823 -2.3476 0.9789
-3.4516 3.3153 -2.3476 0.9789
-3.5823 3.1736 -2.3476 0.9789
-3.9495 2.7262 -2.3540 0.9788
-4.4138 2.5483 -2.5000 0.9775
-2.0898 0.4266 -1.0462 0.9905
-2.0575 0.2498 -1.0167 0.9908
-2.0571 0.1661 -1.0123 0.9908
-1.9479 -0.0000 -1.0105 0.9913
-1.9445 -0.2361 -1.0162 0.9912
-1.9687 -0.4852 -1.0519 0.9909
-4.5710 -1.5260 -2.5000 0.9785
-4.5058 -1.7088 -2.5000 0.9785
-4.3537 -2.0658 -2.5000 0.9785
-4.2670 -2.2395 -2.5000 0.9785
-4.1734 -2.4095 -2.5000 0.9785
-3.9660 -2.7375 -2.5000 0.9785
-3.7328 -3.0478 -2.5000 0.9785
-3.6071 -3.1956 -2.5000 0.9785
-3.0478 -3.7328 -2.5000 0.9785
-2.7375 -3.9659 -2.5000 0.9785
-2.5756 -4.0729 -2.5000 0.9785
-1.7088 -4.5058 -2.5000 0.9785
-1.5260 -4.5710 -2.5000 0.9785
-1.3407 -4.6287 -2.5000 0.9785
-0.9639 -4.7216 -2.5000 0.9785
-0.5809 -4.7838 -2.5000 0.9785
-0.1941 -4.8151 -2.5000 0.9785
-0.0000 -4.8190 -2.5000 0.9785
0.1940 -4.8151 -2.5000 0.9785
0.9639 -4.7216 -2.5000 0.9785
1.1533 -4.6789 -2.5000 0.9785
1.3407 -4.6287 -2.5000 0.9785
1.5260 -4.5710 -2.5000 0.9785
2.0658 -4.3537 -2.5000 0.9785
2.2395 -4.2670 -2.5000 0.9785
2.4095 -4.1733 -2.5000 0.9785
2.7375 -3.9659 -2.5000 0.9785
2.8949 -3.8525 -2.5000 0.9785
3.0477 -3.7328 -2.5000 0.9785
3.1956 -3.6071 -2.5000 0.9785
3.3382 -3.4755 -2.5000 0.9785
3.4755 -3.3382 -2.5000 0.9785
3.7328 -3.0478 -2.5000 0.9785
3.8525 -2.8950 -2.5000 0.9785
3.9659 -2.7375 -2.5000 0.9785
4.1733 -2.4095 -2.5000 0.9785
4.3537 -2.0659 -2.5000 0.9785
4.4333 -1.8889 -2.5000 0.9785
4.6287 -1.3407 -2.5000 0.9785
4.6789 -1.1533 -2.5000 0.9785
4.7216 -0.9639 -2.5000 0.9785
4.7838 -0.5809 -2.5000 0.9785
4.8150 0.1940 -2.5000 0.9785
4.7838 0.5809 -2.5000 0.9785
4.7566 0.7730 -2.5000 0.9785
4.7216 0.9639 -2.5000 0.9785
4.6789 1.1533 -2.5000 0.9785
4.5710 1.5260 -2.5000 0.9785
4.5058 1.7088 -2.5000 0.9785
4.3537 2.0658 -2.5000 0.9785
4.2670 2.2395 -2.5000 0.9785
4.0729 2.5756 -2.5000 0.9785
3.5052 2.8619 -2.3476 0.9798
3.3871 3.0008 -2.3476 0.9798
2.7185 3.6176 -2.3476 0.9798
2.5706 3.7242 -2.3476 0.9798
2.4186 3.8246 -2.3476 0.9798
2.2626 3.9189 -2.3476 0.9798
2.1029 4.0069 -2.3476 0.9798
1.9399 4.0883 -2.3476 0.9798
1.6046 4.2312 -2.3476 0.9798
1.4330 4.2923 -2.3476 0.9798
1.2590 4.3465 -2.3476 0.9798
1.0829 4.3937 -2.3476 0.9798
0.9051 4.4337 -2.3476 0.9798
0.7259 4.4666 -2.3476 0.9798
0.5454 4.4922 -2.3476 0.9798
0.3641 4.5105 -2.3476 0.9798
-0.3642 4.5105 -2.3476 0.9798
-0.7259 4.4666 -2.3476 0.9798
-1.0830 4.3937 -2.3476 0.9798
-1.4330 4.2923 -2.3476 0.9798
-1.7737 4.1631 -2.3476 0.9798
-1.9642 3.4020 -2.0379 0.9825
-2.5706 3.7242 -2.3476 0.9798
-2.8620 3.5052 -2.3476 0.9798
-3.1347 3.2636 -2.3476 0.9798
-3.2636 3.1347 -2.3476 0.9798
-3.3872 3.0008 -2.3476 0.9798
-3.6278 2.7261 -2.3542 0.9798
-3.9096 2.6986 -2.4644 0.9788
-4.3537 2.0658 -2.5000 0.9785
-4.505000 0.9794
4.00 0.9785
-2.3248 0.6734 -1.2557 0.9892
-1.9607 0.4003 -1.0382 0.9910
-1.9520 0.3172 -1.0259 0.9911
-1.9473 0.1572 -1.0135 0.9912
-1.8463 -0.1491 -1.0145 0.9916
-1.8515 -0.4563 -1.0444 0.9913
-1.9096 -0.5531 -1.0889 0.9910
-2.7121 -0.9055 -1.5660 0.9870
-4.2679 -1.6186 -2.5000 0.9794
-4.1992 -1.7891 -2.5000 0.9794
-4.1238 -1.9568 -2.5000 0.9794
-4.0417 -2.1212 -2.5000 0.9794
-3.8579 -2.4396 -2.5000 0.9794
-3.7565 -2.5929 -2.5000 0.9794
-3.5357 -2.8868 -2.5000 0.9794
-3.4166 -3.0268 -2.5000 0.9794
-3.2919 -3.1619 -2.5000 0.9794
-3.1619 -3.2919 -2.5000 0.9794
-2.7421 -3.6491 -2.5000 0.9794
-2.5929 -3.7565 -2.5000 0.9794
-2.4396 -3.8579 -2.5000 0.9794
-2.2823 -3.9530 -2.5000 0.9794
-1.9568 -4.1238 -2.5000 0.9794
-1.4454 -4.3296 -2.5000 0.9794
-1.0924 -4.4319 -2.5000 0.9794
-0.9130 -4.4722 -2.5000 0.9794
-0.5502 -4.5312 -2.5000 0.9794
-0.3673 -4.5497 -2.5000 0.9794
-0.1838 -4.5608 -2.5000 0.9794
0.3673 -4.5497 -2.5000 0.9794
0.5502 -4.5312 -2.5000 0.9794
0.7322 -4.5054 -2.5000 0.9794
0.9130 -4.4722 -2.5000 0.9794
1.0923 -4.4319 -2.5000 0.9794
1.4454 -4.3296 -2.5000 0.9794
1.6186 -4.2679 -2.5000 0.9794
1.9567 -4.1238 -2.5000 0.9794
2.5929 -3.7565 -2.5000 0.9794
2.8868 -3.5357 -2.5000 0.9794
3.0268 -3.4166 -2.5000 0.9794
3.1619 -3.2919 -2.5000 0.9794
3.2919 -3.1619 -2.5000 0.9794
3.5357 -2.8868 -2.5000 0.9794
3.7565 -2.5929 -2.5000 0.9794
3.8579 -2.4396 -2.5000 0.9794
4.1238 -1.9568 -2.5000 0.9794
4.3296 -1.4454 -2.5000 0.9794
4.3843 -1.2699 -2.5000 0.9794
4.4318 -1.0924 -2.5000 0.9794
4.4722 -0.9130 -2.5000 0.9794
4.5054 -0.7322 -2.5000 0.9794
4.5312 -0.5502 -2.5000 0.9794
4.5608 -0.1838 -2.5000 0.9794
4.5645 0.0000 -2.5000 0.9794
4.5497 0.3673 -2.5000 0.9794
4.5312 0.5502 -2.5000 0.9794
4.3843 1.2699 -2.5000 0.9794
4.3296 1.4454 -2.5000 0.9794
4.2679 1.6186 -2.5000 0.9794
3.9529 2.2822 -2.5000 0.9794
3.8578 2.4396 -2.5000 0.9794
3.5954 2.7018 -2.4633 0.9797
