ply
format ascii 1.0
element vertex 1563
property float32 x
property float32 y
property float32 z
property float32 I
end_header
13.5617 -19.6475 0.4033 0.9089
18.1331 -20.4680 0.4619 0.8964
32.0664 16.8297 0.6117 0.8651
30.2453 17.4621 0.5899 0.8696
19.9721 17.6937 0.4507 0.8988
9.4232 12.5400 0.2650 0.9392
7.2285 16.9659 0.3115 0.9289
4.7901 23.4633 0.4045 0.9086
2.2042 18.1528 0.3089 0.9295
0.6788 16.8452 0.2848 0.9348
-0.6502 16.1332 0.2727 0.9374
-5.2818 13.9269 0.2516 0.9422
-6.8083 14.3482 0.2683 0.9384
-12.1914 19.2792 0.3853 0.9128
-14.0542 18.7027 0.3952 0.9107
-14.4824 17.7377 0.3868 0.9125
-29.4572 30.6682 0.7183 0.8436
-34.9242 30.9402 0.7881 0.8297
-15.7749 11.8540 0.3333 0.9241
-15.8655 10.0327 0.3171 0.9277
-17.3800 9.1217 0.3316 0.9245
-33.5622 14.2995 0.6162 0.8642
-32.7114 10.9207 0.5825 0.8711
-33.4330 8.2405 0.5816 0.8713
-22.4037 4.5737 0.3862 0.9126
-46.5027 -17.6361 -0.2800 0.8196
-31.2347 -18.0334 -0.2031 0.8657
-26.6924 -20.0581 -0.1880 0.8750
-26.8414 -25.7815 -0.2095 0.8617
-32.7663 -36.9855 -0.2782 0.8207
-30.2512 -37.0509 -0.2693 0.8259
-27.1957 -39.3998 -0.2695 0.8257
-1.7284 -21.4099 -0.1209 0.9177
-0.8842 -21.9418 -0.1236 0.9159
-0.0001 -26.5365 -0.1494 0.8993
1.1731 -29.1113 -0.1640 0.8900
2.2407 -27.7568 -0.1568 0.8946
3.7864 -31.1835 -0.1769 0.8819
6.0046 -24.3617 -0.1413 0.9045
6.8616 -23.6891 -0.1389 0.9061
8.6516 -22.8123 -0.1374 0.9070
9.6629 -22.6797 -0.1388 0.9061
12.9134 -20.4209 -0.1360 0.9079
16.2998 -19.9636 -0.1451 0.9020
23.8318 15.0703 -0.1588 0.8933
21.3016 16.0071 -0.1500 0.8989
20.0072 16.3354 -0.1454 0.9018
20.3630 18.0400 -0.1532 0.8969
24.3754 25.3775 -0.1981 0.8687
11.6969 14.3261 -0.1041 0.9287
9.4270 14.9076 -0.0993 0.9319
8.7829 16.7344 -0.1064 0.9272
12.2312 25.7769 -0.1606 0.8921
10.7710 25.2804 -0.1547 0.8959
8.2071 24.5830 -0.1459 0.9015
4.5506 22.2901 -0.1281 0.9130
0.6457 16.0235 -0.0903 0.9379
0.0000 15.8604 -0.0893 0.9385
-2.0055 16.5164 -0.0937 0.9356
-7.7170 47.4842 -0.2709 0.8250
-4.0343 16.3676 -0.0949 0.9348
-5.4052 14.2523 -0.0858 0.9408
-6.0049 14.0939 -0.0863 0.9406
-7.1549 13.6325 -0.0867 0.9403
-26.2741 41.5491 -0.2768 0.8215
-21.4592 26.2827 -0.1910 0.8731
-23.7370 26.7935 -0.2015 0.8666
-29.1924 30.3924 -0.2373 0.8449
-15.1426 10.4522 -0.1036 0.9290
-16.0618 10.1569 -0.1070 0.9268
-17.7701 9.3265 -0.1130 0.9229
-22.3997 4.5729 -0.1287 0.9126
-37.6526 -17.8664 -1.1735 0.8464
-34.1109 -17.9028 -1.0847 0.8571
-31.2347 -18.0334 -1.0156 0.8656
-28.6249 -18.1013 -0.9536 0.8733
-26.3114 -18.1615 -0.9002 0.8799
-26.6924 -20.0581 -0.9402 0.8749
-26.7386 -21.8314 -0.9720 0.8710
-30.2511 -37.0510 -1.3468 0.8258
-6.5443 -17.2559 -0.5197 0.9288
-4.9854 -17.2113 -0.5046 0.9308
-3.5034 -17.1607 -0.4932 0.9323
-2.8243 -17.3785 -0.4958 0.9320
-0.7090 -17.5928 -0.4958 0.9320
0.0000 -17.3542 -0.4887 0.9329
0.6941 -17.2228 -0.4853 0.9334
1.4140 -17.5160 -0.4948 0.9321
2.1008 -17.3013 -0.4907 0.9326
2.8252 -17.3838 -0.4959 0.9320
3.6301 -17.7815 -0.5110 0.9300
4.2419 -17.2097 -0.4991 0.9315
5.7954 -17.3592 -0.5153 0.9294
8.4859 -17.8837 -0.5574 0.9238
11.9365 -20.6746 -0.6722 0.9089
14.0598 -20.3692 -0.6969 0.9057
15.3938 -20.4854 -0.7215 0.9025
16.2998 -19.9636 -0.7257 0.9020
18.4806 -20.8602 -0.7847 0.8945
29.0633 -30.2581 -1.1814 0.8454
18.0869 -17.3727 -0.7062 0.9045
21.7042 -17.7209 -0.7890 0.8939
23.1212 -17.3744 -0.8144 0.8907
25.3860 -17.5227 -0.8686 0.8839
27.6266 -17.4700 -0.9204 0.8774
49.2029 -0.0000 -1.3854 0.8213
21.2269 13.4230 -0.7072 0.9044
19.7865 17.5293 -0.7443 0.8996
9.5020 13.7660 -0.4710 0.9353
12.8393 24.4633 -0.7779 0.8953
10.8635 25.4976 -0.7804 0.8950
6.9294 23.9229 -0.7013 0.9051
3.7985 23.3728 -0.6668 0.9096
-0.6530 16.2039 -0.4566 0.9372
-1.1943 14.7945 -0.4179 0.9423
-1.9839 16.3386 -0.4634 0.9363
-3.7611 15.2595 -0.4425 0.9390
-4.8748 14.6019 -0.4335 0.9403
-5.8152 15.3335 -0.4618 0.9365
-7.2909 13.8916 -0.4418 0.9392
-21.2131 28.2295 -0.9943 0.8682
-22.0576 27.0156 -0.9821 0.8697
-23.3688 26.3779 -0.9923 0.8685
-16.5591 11.4299 -0.5666 0.9226
-15.5134 9.8101 -0.5168 0.9292
-16.8551 8.8462 -0.5360 0.9267
-17.6280 8.3646 -0.5494 0.9249
-32.5581 12.3476 -0.9805 0.8699
-45.1105 13.0664 -1.3224 0.8287
-22.3956 4.5721 -0.6436 0.9126
-49.2958 -0.0000 -2.5000 0.8208
-49.2558 -1.9849 -2.5000 0.8208
-49.1359 -3.9664 -2.5000 0.8208
-48.9364 -5.9420 -2.5000 0.8208
-48.6574 -7.9076 -2.5000 0.8208
-48.2995 -9.8604 -2.5000 0.8208
-47.3494 -13.7149 -2.5000 0.8208
-43.9347 -14.6675 -2.3490 0.8307
-37.5384 -17.8121 -2.1072 0.8467
-31.2347 -18.0334 -1.8291 0.8655
-28.6249 -18.1013 -1.7176 0.8732
-26.3114 -18.1615 -1.6214 0.8798
-26.6924 -20.0581 -1.6933 0.8748
-26.8414 -25.7815 -1.8875 0.8615
-31.7729 -33.0789 -2.3261 0.8322
-30.3901 -34.3034 -2.3242 0.8323
-24.3802 -38.5542 -2.3134 0.8330
-11.9547 -20.7061 -1.2125 0.9087
-11.4147 -21.7490 -1.2457 0.9063
-15.2136 -32.0619 -1.7998 0.8675
-3.4925 -17.1075 -0.8855 0.9325
-1.3695 -16.9647 -0.8632 0.9341
1.4060 -17.4163 -0.8861 0.9324
2.0880 -17.1959 -0.8785 0.9330
4.2180 -17.1127 -0.8938 0.9318
5.0855 -17.5570 -0.9270 0.9294
6.5637 -17.3071 -0.9387 0.9285
7.4170 -17.4083 -0.9596 0.9270
8.3985 -17.6994 -0.9935 0.9245
12.9134 -20.4209 -1.2253 0.9078
14.0598 -20.3692 -1.2552 0.9056
15.3938 -20.4854 -1.2995 0.9025
16.2998 -19.9636 -1.3070 0.9019
18.7425 -21.1559 -1.4334 0.8930
18.0665 -17.3531 -1.2704 0.9045
19.6129 -17.3755 -1.3288 0.9004
21.6236 -17.6551 -1.4157 0.8942
23.2130 -17.4434 -1.4726 0.8902
27.6852 -17.5070 -1.6612 0.8770
43.6493 -22.9089 -2.5000 0.8208
44.5363 -21.1327 -2.5000 0.8208
45.3511 -19.3223 -2.5000 0.8208
46.0924 -17.4805 -2.5000 0.8208
46.7587 -15.6104 -2.5000 0.8208
47.3492 -13.7149 -2.5000 0.8208
47.8631 -11.7972 -2.5000 0.8208
48.6572 -7.9076 -2.5000 0.8208
48.9362 -5.9419 -2.5000 0.8208
49.1357 -3.9667 -2.5000 0.8208
24.1007 -0.9712 -1.2232 0.9079
49.2557 1.9849 -2.5000 0.8208
48.6574 7.9076 -2.5000 0.8208
32.4290 10.8264 -1.7339 0.8720
44.5363 21.1328 -2.5000 0.8208
42.6914 24.6479 -2.5000 0.8208
32.6449 20.6434 -1.9589 0.8567
39.4092 29.6140 -2.5000 0.8208
32.8305 29.0853 -2.2244 0.8389
23.5008 22.5728 -1.6525 0.8776
22.3368 23.2550 -1.6353 0.8788
21.4300 24.1895 -1.6389 0.8786
26.4173 38.2720 -2.3584 0.8301
13.7394 23.7973 -1.3936 0.8958
12.5912 23.9906 -1.3741 0.8972
10.6700 25.0435 -1.3805 0.8967
16.6300 43.8496 -2.3784 0.8288
14.8730 44.5498 -2.3819 0.8285
11.2740 45.7401 -2.3891 0.8281
9.4375 46.2278 -2.3928 0.8278
1.3605 16.8527 -0.8575 0.9345
0.6736 16.7147 -0.8484 0.9352
-0.6348 15.7538 -0.7996 0.9388
-2.2980 18.9256 -0.9668 0.9265
-9.5847 46.9488 -2.4301 0.8254
-6.6420 26.9478 -1.4075 0.8948
-15.2418 45.6548 -2.4410 0.8247
-5.8139 15.3300 -0.8315 0.9364
-20.7220 43.6708 -2.4514 0.8240
-16.8849 24.4620 -1.5074 0.8878
-29.2276 38.8950 -2.4674 0.8229
-30.7588 37.6727 -2.4665 0.8230
-32.1874 36.3320 -2.4616 0.8233
-33.5551 34.9345 -2.4566 0.8237
-36.0935 31.9760 -2.4455 0.8244
-15.8544 12.9447 -1.0380 0.9213
-16.2770 12.2313 -1.0326 0.9217
-16.1662 11.1587 -0.9962 0.9243
-16.8165 9.7090 -0.9848 0.9252
-17.7320 8.4139 -0.9954 0.9244
-43.4076 18.4942 -2.3929 0.8278
-43.9799 16.6794 -2.3854 0.8283
-34.1859 11.4129 -1.8278 0.8656
-44.4368 12.8713 -2.3462 0.8309
-46.1404 3.7248 -2.3476 0.8308
-49.2558 1.9850 -2.5000 0.8208
-33.9854 -2.7436 -2.5000 0.8722
-33.8473 -4.1098 -2.5000 0.8722
-32.3412 -10.7971 -2.5000 0.8722
-31.8802 -12.0906 -2.5000 0.8722
-28.9270 -13.7260 -2.3477 0.8795
-28.3540 -14.8813 -2.3479 0.8795
-27.0618 -17.1129 -2.3477 0.8795
-25.2533 -18.9767 -2.3161 0.8810
-24.4453 -19.9590 -2.3139 0.8811
-23.3649 -20.6995 -2.2888 0.8823
-22.7139 -21.8170 -2.3092 0.8813
-22.4814 -23.4056 -2.3796 0.8780
-21.2309 -26.0032 -2.4614 0.8740
-12.5802 -19.8940 -1.7258 0.9099
-11.0498 -21.0537 -1.7434 0.9090
-5.7131 -17.1129 -1.3228 0.9302
-3.4892 -17.0912 -1.2790 0.9324
-1.3673 -16.9371 -1.2459 0.9341
-0.6912 -17.1514 -1.2586 0.9335
0.0000 -17.1462 -1.2572 0.9335
4.2261 -17.1455 -1.2948 0.9316
7.4045 -17.3790 -1.3851 0.9270
8.4053 -17.7138 -1.4376 0.9244
11.9405 -20.6816 -1.7510 0.9087
12.9134 -20.4209 -1.7716 0.9076
14.0598 -20.3692 -1.8148 0.9055
16.2998 -19.9636 -1.8897 0.9018
22.1950 -23.1075 -2.3493 0.8794
19.6670 -17.4235 -1.9265 0.9000
27.0608 -17.1122 -2.3476 0.8795
28.9262 -13.7256 -2.3476 0.8795
31.3675 -13.3645 -2.5000 0.8722
31.8802 -12.0906 -2.5000 0.8722
33.1052 -8.1597 -2.5000 0.8722
33.6544 -5.4694 -2.5000 0.8722
23.6161 -0.9517 -1.7330 0.9096
34.0684 1.3729 -2.5000 0.8722
33.9855 2.7436 -2.5000 0.8722
31.6029 5.1360 -2.3476 0.8795
20.3758 5.0222 -1.5387 0.9193
30.3816 10.1429 -2.3485 0.8794
29.9384 11.3541 -2.3477 0.8795
29.4706 12.5562 -2.3488 0.8794
28.3941 14.9024 -2.3512 0.8793
26.4390 18.2495 -2.3555 0.8791
25.7002 19.3124 -2.3571 0.8790
23.2365 22.3190 -2.3624 0.8788
20.4276 25.0192 -2.3683 0.8785
19.4207 25.8442 -2.3703 0.8784
18.3809 26.6293 -2.3725 0.8783
13.8019 23.9056 -2.0240 0.8952
12.5741 23.9581 -1.9839 0.8972
10.3640 21.8417 -1.7726 0.9076
10.6465 24.9883 -1.9916 0.8968
11.5413 30.4319 -2.3864 0.8776
10.3172 30.9038 -2.3889 0.8775
9.0739 31.3268 -2.3914 0.8774
6.5376 32.0230 -2.3964 0.8771
5.2484 32.2948 -2.3990 0.8770
2.6384 32.6825 -2.4041 0.8768
-0.0000 14.6040 -1.0708 0.9431
-0.6978 17.3152 -1.2706 0.9329
-5.2936 32.5730 -2.4197 0.8760
-6.6404 26.9414 -2.0345 0.8947
-9.2099 31.7963 -2.4272 0.8757
-10.4934 31.4315 -2.4297 0.8755
-14.2473 30.0256 -2.4368 0.8752
-15.4431 29.4243 -2.4365 0.8752
-16.5987 28.7498 -2.4341 0.8753
-16.8808 24.4561 -2.1789 0.8876
-19.8748 26.4486 -2.4258 0.8757
-21.8813 24.6989 -2.4194 0.8760
-23.7290 22.7921 -2.4125 0.8764
-24.5888 21.7838 -2.4087 0.8766
-25.4047 20.7422 -2.4047 0.8767
-28.2056 16.2845 -2.3880 0.8775
-28.7853 15.1077 -2.3836 0.8778
-29.3152 13.9102 -2.3792 0.8780
-30.9253 8.9576 -2.3607 0.8789
-20.7379 5.1115 -1.5661 0.9179
-22.3875 4.5704 -1.6754 0.9124
-31.6185 5.1385 -2.3488 0.8794
-33.1780 2.6784 -2.4406 0.8750
-34.0683 1.3729 -2.5000 0.8722
-26.0402 -0.0000 -2.5000 0.9006
-25.8503 -3.1388 -2.5000 0.9006
-25.7029 -4.1772 -2.5000 0.9006
-25.5139 -5.2087 -2.5000 0.9006
-25.0120 -7.2448 -2.5000 0.9006
-24.7000 -8.2461 -2.5000 0.9006
-24.3480 -9.2340 -2.5000 0.9006
-23.9564 -10.2069 -2.5000 0.9006
-21.1765 -14.6171 -2.4703 0.9018
-20.5089 -15.4114 -2.4629 0.9020
-19.8683 -16.2220 -2.4625 0.9021
-18.4911 -17.7609 -2.4615 0.9021
-17.7602 -18.4903 -2.4614 0.9021
-17.0013 -19.1905 -2.4614 0.9021
-10.9939 -20.9472 -2.2712 0.9093
-10.3107 -21.7294 -2.3091 0.9079
-9.4371 -22.1496 -2.3114 0.9078
-5.7325 -17.1708 -1.7379 0.9298
-3.4884 -17.0872 -1.6743 0.9323
-2.7792 -17.1010 -1.6633 0.9327
-2.0823 -17.1492 -1.6585 0.9329
-1.3737 -17.0161 -1.6389 0.9337
-0.6912 -17.1535 -1.6482 0.9333
2.0897 -17.2103 -1.6644 0.9327
2.8073 -17.2740 -1.6801 0.9321
3.5271 -17.2766 -1.6929 0.9316
5.0603 -17.4700 -1.7462 0.9295
7.4411 -17.4648 -1.8226 0.9266
8.4038 -17.7106 -1.8820 0.9242
9.0716 -17.2845 -1.8741 0.9246
11.7284 -20.3142 -2.2520 0.9100
12.5407 -19.8315 -2.2527 0.9100
13.5617 -19.6476 -2.2920 0.9085
14.7030 -19.5662 -2.3497 0.9063
17.6354 -16.9390 -2.3476 0.9064
22.5514 -13.0201 -2.5000 0.9006
23.5260 -11.1632 -2.5000 0.9006
24.7000 -8.2461 -2.5000 0.9006
25.0120 -7.2448 -2.5000 0.9006
25.5139 -5.2087 -2.5000 0.9006
25.7029 -4.1771 -2.5000 0.9006
25.8503 -3.1388 -2.5000 0.9006
25.9557 -2.0954 -2.5000 0.9006
23.9327 -0.0000 -2.2977 0.9083
25.9557 2.0954 -2.5000 0.9006
24.2744 2.9474 -2.3476 0.9064
24.1361 3.9225 -2.3476 0.9064
15.0333 5.0189 -1.5216 0.9383
21.8000 11.4415 -2.3636 0.9058
21.3310 12.3154 -2.3647 0.9058
20.8275 13.1705 -2.3658 0.9057
20.2903 14.0054 -2.3670 0.9057
19.7202 14.8187 -2.3682 0.9056
19.1179 15.6093 -2.3695 0.9056
17.8206 17.1169 -2.3722 0.9055
17.1274 17.8315 -2.3737 0.9054
14.0827 20.4022 -2.3800 0.9052
11.5459 21.9988 -2.3852 0.9050
10.3558 21.8242 -2.3191 0.9075
9.7531 22.8914 -2.3888 0.9048
8.8303 23.2836 -2.3907 0.9048
7.8919 23.6389 -2.3926 0.9047
5.9737 24.2362 -2.3964 0.9046
3.0162 24.8402 -2.4023 0.9043
2.0151 24.9620 -2.4043 0.9043
1.0092 25.0435 -2.4063 0.9042
-0.6976 17.3107 -1.6633 0.9328
-4.0370 24.8405 -2.4161 0.9038
-5.0380 24.6775 -2.4180 0.9037
-7.9705 23.8744 -2.4164 0.9038
-10.7711 22.6996 -2.4122 0.9040
-13.3982 21.1876 -2.4067 0.9042
-15.8110 19.3649 -2.4001 0.9044
-17.9724 17.2627 -2.3924 0.9047
-19.8486 14.9152 -2.3836 0.9050
-20.4064 14.0855 -2.3805 0.9052
-20.9290 13.2347 -2.3773 0.9053
-22.2779 10.5710 -2.3674 0.9057
-22.9890 8.7186 -2.3604 0.9059
-22.1913 4.5304 -2.1744 0.9130
-24.1383 3.9229 -2.3478 0.9064
-24.2746 2.9475 -2.3476 0.9064
-25.9557 2.0953 -2.5000 0.9006
-26.0190 1.0485 -2.5000 0.9006
-20.9779 -1.6935 -2.5000 0.9187
-20.8927 -2.5368 -2.5000 0.9187
-20.7736 -3.3761 -2.5000 0.9187
-20.6208 -4.2098 -2.5000 0.9187
-20.4346 -5.0367 -2.5000 0.9187
-20.2152 -5.8554 -2.5000 0.9187
-19.6785 -7.4631 -2.5000 0.9187
-19.0141 -9.0223 -2.5000 0.9187
-18.6354 -9.7806 -2.5000 0.9187
-18.2265 -10.5231 -2.5000 0.9187
-16.8252 -12.6433 -2.5000 0.9187
-15.0523 -14.4580 -2.4792 0.9194
-9.7192 -16.8341 -2.3090 0.9247
-9.0334 -17.2118 -2.3090 0.9247
-7.6368 -17.9242 -2.3143 0.9245
-6.4588 -17.0305 -2.1636 0.9293
-3.4911 -17.1002 -2.0732 0.9321
-2.0890 -17.2048 -2.0587 0.9326
-1.3758 -17.0422 -2.0310 0.9334
-0.6962 -17.2768 -2.0539 0.9327
1.4051 -17.4044 -2.0741 0.9321
2.0920 -17.2287 -2.0616 0.9325
3.5797 -17.5345 -2.1258 0.9304
4.2388 -17.1972 -2.1039 0.9311
5.7835 -17.3236 -2.1694 0.9291
6.6368 -17.4999 -2.2232 0.9274
8.4067 -17.7168 -2.3294 0.9240
10.5627 -16.7036 -2.3476 0.9235
11.8726 -15.7995 -2.3476 0.9235
12.4991 -15.3087 -2.3476 0.9235
16.8252 -12.6433 -2.5000 0.9187
17.3206 -11.9556 -2.5000 0.9187
17.7880 -11.2484 -2.5000 0.9187
19.3620 -8.2494 -2.5000 0.9187
19.6785 -7.4631 -2.5000 0.9187
20.7736 -3.3761 -2.5000 0.9187
21.0291 -0.8475 -2.5000 0.9187
21.0462 -0.0000 -2.5000 0.9187
21.0291 0.8474 -2.5000 0.9187
20.8927 2.5368 -2.5000 0.9187
19.5072 3.1702 -2.3476 0.9235
19.3638 3.9531 -2.3476 0.9235
19.1889 4.7296 -2.3476 0.9235
17.2834 5.0062 -2.1374 0.9301
15.0331 5.0188 -1.8826 0.9382
17.2491 9.9588 -2.3659 0.9229
16.8521 10.6566 -2.3685 0.9228
15.9728 12.0028 -2.3733 0.9227
15.4918 12.6487 -2.3757 0.9226
13.2908 15.0022 -2.3808 0.9224
12.6827 15.5335 -2.3821 0.9224
12.0536 16.0403 -2.3834 0.9224
11.4043 16.5220 -2.3847 0.9223
9.3461 17.8075 -2.3889 0.9222
7.1448 18.8393 -2.3934 0.9220
5.6129 19.3780 -2.3964 0.9219
4.0407 19.7926 -2.3996 0.9219
3.2426 19.9524 -2.4012 0.9218
1.6278 20.1636 -2.4029 0.9217
0.8146 20.2144 -2.4031 0.9217
-0.6974 17.3062 -2.0574 0.9326
-2.4381 20.0793 -2.4027 0.9218
-4.0442 19.8099 -2.4017 0.9218
-6.3963 19.1592 -2.3993 0.9219
-8.6468 18.2228 -2.3959 0.9220
-9.3683 17.8498 -2.3946 0.9220
-10.0733 17.4475 -2.3931 0.9221
-10.7607 17.0166 -2.3916 0.9221
-11.4292 16.5580 -2.3899 0.9222
-12.0778 16.0726 -2.3882 0.9222
-12.7053 15.5611 -2.3863 0.9223
-14.4513 13.8807 -2.3802 0.9225
-15.4911 12.6481 -2.3756 0.9226
-15.9715 12.0018 -2.3731 0.9227
-16.4245 11.3370 -2.3706 0.9228
-16.8495 10.6550 -2.3681 0.9228
-17.6129 9.2440 -2.3628 0.9230
-11.7065 4.9877 -1.5115 0.9500
-13.1679 4.9939 -1.6729 0.9449
-19.3640 3.9532 -2.3476 0.9235
-20.8927 2.5368 -2.5000 0.9187
-20.9779 1.6935 -2.5000 0.9187
-21.0291 0.8474 -2.5000 0.9187
-17.6441 -0.0000 -2.5000 0.9312
-17.6298 -0.7105 -2.5000 0.9312
-17.5869 -1.4198 -2.5000 0.9312
-17.4156 -2.8303 -2.5000 0.9312
-16.7361 -5.5873 -2.5000 0.9312
-16.4976 -6.2567 -2.5000 0.9312
-16.2322 -6.9159 -2.5000 0.9312
-15.6231 -8.1996 -2.5000 0.9312
-15.2802 -8.8221 -2.5000 0.9312
-14.9126 -9.4302 -2.5000 0.9312
-14.5208 -10.0230 -2.5000 0.9312
-14.1055 -10.5996 -2.5000 0.9312
-13.2068 -11.7002 -2.5000 0.9312
-12.7250 -12.2225 -2.5000 0.9312
-9.3647 -14.8091 -2.4826 0.9317
-7.1028 -14.9689 -2.3476 0.9353
-6.4943 -15.2427 -2.3476 0.9353
-4.6097 -15.9144 -2.3476 0.9353
-3.9651 -16.0871 -2.3476 0.9353
-2.6578 -16.3540 -2.3476 0.9353
-0.6671 -16.5551 -2.3476 0.9353
-0.0000 -16.5685 -2.3476 0.9353
0.6671 -16.5551 -2.3476 0.9353
1.3332 -16.5148 -2.3476 0.9353
2.6578 -16.3540 -2.3476 0.9353
3.9651 -16.0871 -2.3476 0.9353
4.6097 -15.9144 -2.3476 0.9353
6.4943 -15.2427 -2.3476 0.9353
8.2843 -14.3488 -2.3476 0.9353
9.4120 -13.6356 -2.3476 0.9353
9.9534 -13.2456 -2.3476 0.9353
11.6806 -13.1847 -2.4958 0.9313
12.2225 -12.7250 -2.5000 0.9312
14.5208 -10.0230 -2.5000 0.9312
15.6231 -8.1996 -2.5000 0.9312
16.2322 -6.9159 -2.5000 0.9312
16.4976 -6.2567 -2.5000 0.9312
17.1314 -4.2225 -2.5000 0.9312
17.2876 -3.5293 -2.5000 0.9312
17.4156 -2.8303 -2.5000 0.9312
17.6298 -0.7105 -2.5000 0.9312
17.6441 -0.0000 -2.5000 0.9312
17.5869 1.4198 -2.5000 0.9312
16.7458 2.7215 -2.4038 0.9338
16.2337 3.3141 -2.3476 0.9353
16.0871 3.9651 -2.3476 0.9353
15.9144 4.6096 -2.3476 0.9353
15.0329 5.0187 -2.2456 0.9380
13.1932 5.0035 -1.9993 0.9446
13.7321 9.4786 -2.3642 0.9348
12.9465 10.5705 -2.3682 0.9347
12.5204 11.0921 -2.3700 0.9347
10.6098 12.9946 -2.3769 0.9345
9.5418 13.8236 -2.3800 0.9344
8.9827 14.2049 -2.3813 0.9344
7.2159 15.2072 -2.3850 0.9343
5.9738 15.7516 -2.3869 0.9342
3.3737 16.5253 -2.3898 0.9341
2.0337 16.7489 -2.3906 0.9341
1.3578 16.8190 -2.3908 0.9341
0.0000 16.8752 -2.3910 0.9341
-0.6795 16.8612 -2.3910 0.9341
-2.0337 16.7490 -2.3906 0.9341
-2.7061 16.6511 -2.3902 0.9341
-3.3737 16.5254 -2.3898 0.9341
-4.0354 16.3724 -2.3892 0.9341
-5.3367 15.9852 -2.3878 0.9342
-5.8085 15.3158 -2.3209 0.9360
-6.6007 15.4924 -2.3860 0.9342
-8.4081 14.5633 -2.3827 0.9343
-8.9828 14.2052 -2.3814 0.9344
-9.5420 13.8239 -2.3800 0.9344
-10.0847 13.4203 -2.3785 0.9344
-10.6100 12.9949 -2.3770 0.9345
-12.5204 11.0921 -2.3700 0.9347
-12.9461 10.5701 -2.3681 0.9347
-14.0886 8.9091 -2.3618 0.9349
-14.7323 7.7321 -2.3574 0.9350
-10.4514 4.9593 -1.6391 0.9543
-13.2440 5.0228 -2.0069 0.9444
-15.9144 4.6096 -2.3476 0.9353
-16.0871 3.9651 -2.3476 0.9353
-16.6177 2.7006 -2.3854 0.9342
-17.5155 2.1267 -2.5000 0.9312
-17.5869 1.4197 -2.5000 0.9312
-15.1262 -1.2211 -2.5000 0.9403
-15.0648 -1.8292 -2.5000 0.9403
-14.9789 -2.4343 -2.5000 0.9403
-14.8687 -3.0355 -2.5000 0.9403
-14.1892 -5.3813 -2.5000 0.9403
-13.9611 -5.9483 -2.5000 0.9403
-13.4371 -7.0524 -2.5000 0.9403
-12.4891 -8.6206 -2.5000 0.9403
-12.1319 -9.1165 -2.5000 0.9403
-11.7550 -9.5976 -2.5000 0.9403
-10.9445 -10.5124 -2.5000 0.9403
-10.5124 -10.9445 -2.5000 0.9403
-9.5976 -11.7550 -2.5000 0.9403
-8.1107 -12.8261 -2.5000 0.9403
-7.0167 -13.3693 -2.4874 0.9406
-5.6330 -13.2211 -2.3675 0.9434
-4.5126 -13.5170 -2.3476 0.9439
-3.9647 -13.6877 -2.3476 0.9439
-3.4103 -13.8362 -2.3476 0.9439
-1.7177 -14.1464 -2.3476 0.9439
-0.5738 -14.2387 -2.3476 0.9439
0.5738 -14.2387 -2.3476 0.9439
1.1467 -14.2041 -2.3476 0.9439
2.8504 -13.9623 -2.3476 0.9439
3.9647 -13.6877 -2.3476 0.9439
5.6295 -13.2131 -2.3661 0.9434
9.1165 -12.1319 -2.5000 0.9403
9.5976 -11.7549 -2.5000 0.9403
10.0632 -11.3590 -2.5000 0.9403
11.3590 -10.0632 -2.5000 0.9403
11.7549 -9.5976 -2.5000 0.9403
12.1319 -9.1165 -2.5000 0.9403
13.7102 -6.5056 -2.5000 0.9403
13.9611 -5.9483 -2.5000 0.9403
14.1893 -5.3813 -2.5000 0.9403
14.5763 -4.2221 -2.5000 0.9403
14.7345 -3.6317 -2.5000 0.9403
14.8687 -3.0355 -2.5000 0.9403
14.9789 -2.4343 -2.5000 0.9403
15.1262 -1.2211 -2.5000 0.9403
6.2993 -0.0000 -1.0377 0.9748
6.3237 0.2548 -1.0426 0.9747
15.1262 1.2211 -2.5000 0.9403
15.0648 1.8292 -2.5000 0.9403
14.9789 2.4343 -2.5000 0.9403
13.9623 2.8504 -2.3476 0.9439
13.5169 4.5126 -2.3476 0.9439
13.1369 4.9822 -2.3146 0.9446
10.5110 4.9875 -1.9166 0.9539
9.5230 4.9981 -1.7717 0.9573
12.3841 7.1500 -2.3558 0.9437
11.4577 8.6099 -2.3611 0.9436
11.1096 9.0707 -2.3627 0.9435
10.7427 9.5171 -2.3643 0.9435
9.9549 10.3641 -2.3674 0.9434
9.5354 10.7632 -2.3689 0.9434
9.0995 11.1449 -2.3702 0.9433
8.6482 11.5087 -2.3716 0.9433
8.1821 11.8538 -2.3728 0.9433
6.1858 13.0363 -2.3771 0.9432
4.5740 13.7008 -2.3795 0.9431
3.4585 14.0315 -2.3807 0.9431
2.8912 14.1622 -2.3812 0.9431
1.7428 14.3531 -2.3819 0.9431
1.1635 14.4130 -2.3821 0.9431
0.5823 14.4489 -2.3822 0.9431
0.0000 14.4609 -2.3823 0.9431
-1.1635 14.4130 -2.3821 0.9431
-1.7428 14.3532 -2.3819 0.9431
-4.5741 13.7009 -2.3795 0.9431
-5.1205 13.5016 -2.3788 0.9431
-6.1859 13.0365 -2.3771 0.9432
-6.7031 12.7717 -2.3762 0.9432
-8.1823 11.8540 -2.3729 0.9433
-8.6484 11.5089 -2.3716 0.9433
-9.0997 11.1451 -2.3703 0.9433
-9.9552 10.3644 -2.3675 0.9434
-11.4571 8.6095 -2.3609 0.9436
-7.1404 4.9287 -1.4293 0.9654
-7.8075 4.9372 -1.5218 0.9632
-12.3826 7.1491 -2.3555 0.9437
-12.6501 6.6393 -2.3536 0.9437
-13.1679 4.9939 -2.3200 0.9445
-13.6877 3.9647 -2.3476 0.9439
-13.9623 2.8504 -2.3476 0.9439
-15.1631 0.6110 -2.5000 0.9403
-13.3006 -0.0000 -2.5000 0.9473
-13.2898 -0.5356 -2.5000 0.9473
-13.2036 -1.6032 -2.5000 0.9473
-12.9141 -3.1830 -2.5000 0.9473
-12.6161 -4.2119 -2.5000 0.9473
-12.0164 -5.7019 -2.5000 0.9473
-11.5186 -6.6503 -2.5000 0.9473
-10.6330 -7.9902 -2.5000 0.9473
-9.9556 -8.8199 -2.5000 0.9473
-9.5924 -9.2137 -2.5000 0.9473
-9.2136 -9.5924 -2.5000 0.9473
-8.8199 -9.9556 -2.5000 0.9473
-8.4119 -10.3027 -2.5000 0.9473
-6.6503 -11.5187 -2.5000 0.9473
-6.1811 -11.7771 -2.5000 0.9473
-5.2134 -12.2362 -2.5000 0.9473
-4.2119 -12.6161 -2.5000 0.9473
-3.7004 -12.7754 -2.5000 0.9473
-3.1830 -12.9141 -2.5000 0.9473
-2.1336 -13.1283 -2.5000 0.9473
-1.6020 -13.1939 -2.4982 0.9473
-1.0652 -13.1954 -2.4883 0.9475
-0.5318 -13.1961 -2.4824 0.9477
0.0000 -13.1961 -2.4803 0.9477
1.0651 -13.1939 -2.4880 0.9476
1.6018 -13.1917 -2.4977 0.9474
2.1336 -13.1283 -2.5000 0.9473
3.1830 -12.9141 -2.5000 0.9473
3.7005 -12.7754 -2.5000 0.9473
5.2127 -12.2362 -2.5000 0.9473
7.1087 -11.2415 -2.5000 0.9473
7.5556 -10.9461 -2.5000 0.9473
8.4119 -10.3027 -2.5000 0.9473
9.2136 -9.5924 -2.5000 0.9473
9.5924 -9.2136 -2.5000 0.9473
10.3027 -8.4119 -2.5000 0.9473
10.9462 -7.5556 -2.5000 0.9473
11.2415 -7.1087 -2.5000 0.9473
11.5186 -6.6503 -2.5000 0.9473
12.4362 -4.7165 -2.5000 0.9473
12..1612 -2.3476 0.9556
9.1401 6.3090 -2.3476 0.9556
8.8787 6.6719 -2.3476 0.9556
8.2611 7.3185 -2.3329 0.9559
7.9603 7.6460 -2.3331 0.9559
7.6471 7.9615 -2.3335 0.9559
7.3214 8.2642 -2.3338 0.9559
6.6348 8.8294 -2.3346 0.9559
5.9049 9.3378 -2.3354 0.9558
3.5025 10.4914 -2.3380 0.9558
0.4460 11.0674 -2.3413 0.9557
0.0000 11.0787 -2.3418 0.9557
-0.8918 11.0474 -2.3428 0.9557
-1.3362 11.0048 -2.3433 0.9557
-1.7786 10.9443 -2.3438 0.9557
-3.5140 10.5258 -2.3457 0.9556
-3.9358 10.3778 -2.3461 0.9556
-3.1173 7.3166 -1.6811 0.9680
-3.6639 6.9810 -1.6665 0.9683
-6.3090 9.1401 -2.3476 0.9556
-7.3647 8.3130 -2.3476 0.9556
-7.6934 8.0097 -2.3476 0.9556
-8.0097 7.6934 -2.3476 0.9556
-9.1401 6.3090 -2.3476 0.9556
-11.0585 4.1939 -2.5000 0.9528
-11.2184 3.7453 -2.5000 0.9528
-11.5880 2.3657 -2.5000 0.9528
-11.7887 0.9517 -2.5000 0.9528
-10.6373 0.0000 -2.5000 0.9572
-10.4223 -2.1277 -2.5000 0.9572
-10.3282 -2.5457 -2.5000 0.9572
-9.9460 -3.7720 -2.5000 0.9572
-9.7861 -4.1695 -2.5000 0.9572
-9.6103 -4.5598 -2.5000 0.9572
-9.4188 -4.9435 -2.5000 0.9572
-8.9905 -5.6853 -2.5000 0.9572
-8.5039 -6.3903 -2.5000 0.9572
-8.2397 -6.7274 -2.5000 0.9572
-7.6716 -7.3687 -2.5000 0.9572
-7.3687 -7.6716 -2.5000 0.9572
-7.0538 -7.9621 -2.5000 0.9572
-6.7275 -8.2397 -2.5000 0.9572
-6.3903 -8.5039 -2.5000 0.9572
-6.0427 -8.7543 -2.5000 0.9572
-4.1694 -9.7861 -2.5000 0.9572
-2.5457 -10.3282 -2.5000 0.9572
-2.1277 -10.4223 -2.5000 0.9572
-1.7063 -10.4995 -2.5000 0.9572
-1.2822 -10.5597 -2.5000 0.9572
0.4283 -10.6286 -2.5000 0.9572
0.8560 -10.6027 -2.5000 0.9572
1.2821 -10.5597 -2.5000 0.9572
2.1277 -10.4223 -2.5000 0.9572
2.5457 -10.3282 -2.5000 0.9572
2.9595 -10.2173 -2.5000 0.9572
3.7720 -9.9460 -2.5000 0.9572
4.1694 -9.7861 -2.5000 0.9572
4.5601 -9.6102 -2.5000 0.9572
4.9434 -9.4188 -2.5000 0.9572
5.3186 -9.2121 -2.5000 0.9572
5.6853 -8.9905 -2.5000 0.9572
6.3903 -8.5039 -2.5000 0.9572
6.7275 -8.2397 -2.5000 0.9572
7.6716 -7.3687 -2.5000 0.9572
7.9621 -7.0538 -2.5000 0.9572
8.2397 -6.7275 -2.5000 0.9572
8.7543 -6.0427 -2.5000 0.9572
9.4188 -4.9434 -2.5000 0.9572
9.6102 -4.5601 -2.5000 0.9572
9.7861 -4.1694 -2.5000 0.9572
9.9461 -3.7720 -2.5000 0.9572
10.2173 -2.9595 -2.5000 0.9572
10.3282 -2.5457 -2.5000 0.9572
10.4223 -2.1277 -2.5000 0.9572
6.2429 -1.0146 -1.4865 0.9743
5.3181 -0.6457 -1.2590 0.9782
10.4997 1.7063 -2.5000 0.9572
10.4223 2.1277 -2.5000 0.9572
9.1895 3.9153 -2.3476 0.9598
9.0244 4.2821 -2.3476 0.9598
8.6506 4.9944 -2.3476 0.9598
8.4424 5.3387 -2.3476 0.9598
8.2206 5.6743 -2.3476 0.9598
7.7374 6.3174 -2.3476 0.9598
7.4767 6.6238 -2.3476 0.9598
7.1988 6.9144 -2.3459 0.9598
6.5872 7.4354 -2.3346 0.9600
5.3123 8.4007 -2.3360 0.9600
3.5275 9.3013 -2.3380 0.9599
3.1507 9.4375 -2.3384 0.9599
2.3819 9.6639 -2.3392 0.9599
1.5972 9.8278 -2.3401 0.9599
0.0000 9.9642 -2.3418 0.9599
-2.3872 9.6854 -2.3444 0.9598
-2.7758 9.5832 -2.3448 0.9598
-3.1600 9.4653 -2.3453 0.9598
-3.5392 9.3321 -2.3457 0.9598
-3.2112 7.5370 -1.9254 0.9669
-3.4052 7.1764 -1.8669 0.9679
-3.7410 7.1279 -1.8919 0.9675
-4.9937 8.6494 -2.3473 0.9598
-6.6238 7.4767 -2.3476 0.9598
-6.9195 7.2040 -2.3476 0.9598
-7.2039 6.9195 -2.3476 0.9598
-6.7964 5.1071 -1.9980 0.9657
-8.2206 5.6743 -2.3476 0.9598
-8.4425 5.3387 -2.3476 0.9598
-9.4188 4.9434 -2.5000 0.9572
-10.0898 3.3685 -2.5000 0.9572
-10.6028 0.8559 -2.5000 0.9572
-10.6287 0.4283 -2.5000 0.9572
-9.6478 -0.3888 -2.5000 0.9609
-9.5852 -1.1639 -2.5000 0.9609
-9.5305 -1.5489 -2.5000 0.9609
-9.4605 -1.9314 -2.5000 0.9609
-9.2744 -2.6862 -2.5000 0.9609
-9.1587 -3.0578 -2.5000 0.9609
-8.5496 -4.4872 -2.5000 0.9609
-8.3620 -4.8276 -2.5000 0.9609
-7.4793 -6.1066 -2.5000 0.9609
-7.2273 -6.4028 -2.5000 0.9609
-6.9636 -6.6887 -2.5000 0.9609
-6.6886 -6.9636 -2.5000 0.9609
-5.8005 -7.7191 -2.5000 0.9609
-5.4850 -7.9464 -2.5000 0.9609
-4.8278 -8.3620 -2.5000 0.9609
-4.4872 -8.5496 -2.5000 0.9609
-3.4239 -9.0281 -2.5000 0.9609
-3.0576 -9.1587 -2.5000 0.9609
-2.6863 -9.2744 -2.5000 0.9609
-0.3888 -9.6477 -2.5000 0.9609
0.3888 -9.6477 -2.5000 0.9609
0.7769 -9.6243 -2.5000 0.9609
1.5489 -9.5305 -2.5000 0.9609
1.9314 -9.4604 -2.5000 0.9609
2.3107-5.63750 -2.5000 0.9609
3.7846 -8.8829 -2.5000 0.9609
4.4872 -8.5496 -2.5000 0.9609
4.8278 -8.3620 -2.5000 0.9609
5.1606 -8.1608 -2.5000 0.9609
5.4850 -7.9464 -2.5000 0.9609
5.8005 -7.7191 -2.5000 0.9609
6.4028 -7.2273 -2.5000 0.9609
6.6886 -6.9636 -2.5000 0.9609
6.9636 -6.6887 -2.5000 0.9609
7.4793 -6.1066 -2.5000 0.9609
7.7191 -5.8005 -2.5000 0.9609
8.1607 -5.1606 -2.5000 0.9609
8.3620 -4.8278 -2.5000 0.9609
8.5496 -4.4872 -2.5000 0.9609
8.7233 -4.1393 -2.5000 0.9609
9.1587 -3.0576 -2.5000 0.9609
9.2744 -2.6864 -2.5000 0.9609
9.3750 -2.3107 -2.5000 0.9609
5.4321 -0.8828 -1.4249 0.9775
5.1715 -0.6279 -1.3488 0.9787
5.2050 -0.0000 -1.3477 0.9787
5.2340 0.2109 -1.3563 0.9786
9.5852 1.1639 -2.5000 0.9609
9.4604 1.9314 -2.5000 0.9609
9.3750 2.3107 -2.5000 0.9609
9.2666 2.6841 -2.4979 0.9609
8.4778 3.2152 -2.3476 0.9632
8.3414 3.5539 -2.3476 0.9632
8.1916 3.8869 -2.3476 0.9632
7.6633 4.8460 -2.3476 0.9632
7.0233 5.7344 -2.3476 0.9632
6.7867 6.0125 -2.3476 0.9632
6.2809 6.5391 -2.3476 0.9632
6.0125 6.7867 -2.3476 0.9632
5.4202 7.2129 -2.3361 0.9634
4.8232 7.6272 -2.3365 0.9634
3.5393 8.3071 -2.3379 0.9634
3.2025 8.4442 -2.3383 0.9634
2.1623 8.7729 -2.3394 0.9634
0.3641 9.0357 -2.3414 0.9633
0.0000 9.0446 -2.3418 0.9633
-0.3642 9.0388 -2.3422 0.9633
-1.0908 8.9832 -2.3430 0.9633
-1.4518 8.9335 -2.3434 0.9633
-2.1667 8.7907 -2.3442 0.9633
-2.5193 8.6977 -2.3446 0.9633
-3.2121 8.4695 -2.3453 0.9633
-3.8701 7.3739 -2.1562 0.9662
-4.8450 7.6617 -2.3471 0.9632
-5.1503 7.4615 -2.3474 0.9632
-5.7344 7.0233 -2.3476 0.9632
-6.7867 6.0125 -2.3476 0.9632
-7.0233 5.7343 -2.3476 0.9632
-6.7964 5.1071 -2.2012 0.9655
-7.6633 4.8460 -2.3476 0.9632
-7.8522 4.5335 -2.3476 0.9632
-8.7233 4.1393 -2.5000 0.9609
-8.8829 3.7847 -2.5000 0.9609
-9.2744 2.6864 -2.5000 0.9609
-9.3750 2.3107 -2.5000 0.9609
-9.4605 1.9314 -2.5000 0.9609
-9.5852 1.1639 -2.5000 0.9609
-9.6243 0.7770 -2.5000 0.9609
-8.8310 0.0000 -2.5000 0.9640
-8.8024 -0.7106 -2.5000 0.9640
-8.7667 -1.0645 -2.5000 0.9640
-8.7167 -1.4166 -2.5000 0.9640
-8.4824 -2.4570 -2.5000 0.9640
-8.3766 -2.7965 -2.5000 0.9640
-8.2572 -3.1315 -2.5000 0.9640
-7.9784 -3.7858 -2.5000 0.9640
-7.8195 -4.1040 -2.5000 0.9640
-6.6101 -5.8560 -2.5000 0.9640
-5.5851 -6.8406 -2.5000 0.9640
-5.3052 -7.0599 -2.5000 0.9640
-5.0166 -7.2678 -2.5000 0.9640
-4.7199 -7.4639 -2.5000 0.9640
-4.1040 -7.8195 -2.5000 0.9640
-3.7858 -7.9784 -2.5000 0.9640
-3.4615 -8.1244 -2.5000 0.9640
-2.7965 -8.3766 -2.5000 0.9640
-2.1134 -8.5744 -2.5000 0.9640
-1.7664 -8.6526 -2.5000 0.9640
-1.4166 -8.7167 -2.5000 0.9640
-0.3556 -8.8239 -2.5000 0.9640
0.3556 -8.8239 -2.5000 0.9640
0.7106 -8.8024 -2.5000 0.9640
1.4166 -8.7167 -2.5000 0.9640
2.1134 -8.5744 -2.5000 0.9640
2.7965 -8.3765 -2.5000 0.9640
3.1315 -8.2572 -2.5000 0.9640
3.7858 -7.9784 -2.5000 0.9640
5.3052 -7.0599 -2.5000 0.9640
5.5851 -6.8406 -2.5000 0.9640
6.3690 -6.1175 -2.5000 0.9640
6.8406 -5.5851 -2.5000 0.9640
7.4639 -4.7199 -2.5000 0.9640
7.6479 -4.4155 -2.5000 0.9640
8.1244 -3.4615 -2.5000 0.9640
8.5744 -2.1134 -2.5000 0.9640
5.0494 -0.2035 -1.4306 0.9792
5.0632 0.0000 -1.4334 0.9792
8.7167 1.4166 -2.5000 0.9640
8.6525 1.7664 -2.5000 0.9640
8.4824 2.4569 -2.5000 0.9640
8.0856 2.6994 -2.4132 0.9652
7.7538 2.9406 -2.3476 0.9661
7.4920 3.5550 -2.3476 0.9661
7.3428 3.8538 -2.3476 0.9661
7.1817 4.1463 -2.3476 0.9661
7.0089 4.4322 -2.3476 0.9661
6.8247 4.7108 -2.3476 0.9661
5.9807 5.7445 -2.3476 0.9661
4.9818 6.6295 -2.3476 0.9661
4.7108 6.8247 -2.3476 0.9661
4.4220 6.9929 -2.3422 0.9662
1.9778 8.0245 -2.3397 0.9662
1.3261 8.1601 -2.3404 0.9662
0.9966 8.2081 -2.3407 0.9662
0.3330 8.2643 -2.3414 0.9662
-0.0000 8.2722 -2.3418 0.9662
-0.3331 8.2668 -2.3422 0.9662
-0.9976 8.2158 -2.3429 0.9662
-2.3040 7.9542 -2.3443 0.9662
-2.6228 7.8561 -2.3447 0.9662
-3.2474 7.6218 -2.3454 0.9661
-3.8512 7.3379 -2.3460 0.9661
-4.1441 7.1779 -2.3464 0.9661
-4.4308 7.0067 -2.3469 0.9661
-4.9818 6.6295 -2.3476 0.9661
-5.2447 6.4236 -2.3476 0.9661
-5.4991 6.2072 -2.3476 0.9661
-5.7445 5.9807 -2.3476 0.9661
-5.9807 5.7446 -2.3476 0.9661
-6.8247 4.7108 -2.3476 0.9661
-7.0089 4.4322 -2.3476 0.9661
-7.4920 3.5550 -2.3476 0.9661
-8.3766 2.7965 -2.5000 0.9640
-8.4824 2.4569 -2.5000 0.9640
-8.6526 1.7664 -2.5000 0.9640
-8.7666 1.0646 -2.5000 0.9640
-8.8024 0.7106 -2.5000 0.9640
-8.8239 0.3556 -2.5000 0.9640
-7.9637 -1.6258 -2.5000 0.9666
-7.8918 -1.9452 -2.5000 0.9666
-7.5998 -2.8822 -2.5000 0.9666
-7.4776 -3.1859 -2.5000 0.9666
-7.3433 -3.4844 -2.5000 0.9666
-7.0391 -4.0640 -2.5000 0.9666
-6.8697 -4.3441 -2.5000 0.9666
-6.4979 -4.8828 -2.5000 0.9666
-6.0839 -5.3899 -2.5000 0.9666
-5.3899 -6.0839 -2.5000 0.9666
-5.1405 -6.2960 -2.5000 0.9666
-4.8828 -6.4979 -2.5000 0.9666
-4.3441 -6.8697 -2.5000 0.9666
-3.1859 -7.4776 -2.5000 0.9666
-2.8822 -7.5998 -2.5000 0.9666
-2.5739 -7.7097 -2.5000 0.9666
-1.6258 -7.9637 -2.5000 0.9666
-1.3038 -8.0227 -2.5000 0.9666
-0.9797 -8.0687 -2.5000 0.9666
-0.3273 -8.1214 -2.5000 0.9666
0.6540 -8.1017 -2.5000 0.9666
0.9797 -8.0687 -2.5000 0.9666
1.6258 -7.9637 -2.5000 0.9666
1.9451 -7.8918 -2.5000 0.9666
2.2613 -7.8071 -2.5000 0.9666
2.5739 -7.7097 -2.5000 0.9666
2.8822 -7.5998 -2.5000 0.9666
3.1859 -7.4776 -2.5000 0.9666
3.7773 -7.1970 -2.5000 0.9666
4.3441 -6.8697 -2.5000 0.9666
4.6172 -6.6892 -2.5000 0.9666
5.3899 -6.0839 -2.5000 0.9666
6.0840 -5.3899 -2.5000 0.9666
6.2960 -5.1405 -2.5000 0.9666
6.6892 -4.6172 -2.5000 0.9666
6.8697 -4.3441 -2.5000 0.9666
7.0391 -4.0640 -2.5000 0.9666
7.1970 -3.7773 -2.5000 0.9666
7.5998 -2.8822 -2.5000 0.9666
4.9328 -0.8017 -1.5371 0.9793
4.9525 -0.1996 -1.5245 0.9795
4.9703 0.0000 -1.5288 0.9794
4.9914 0.2011 -1.5365 0.9793
8.0228 1.3038 -2.5000 0.9666
7.9637 1.6258 -2.5000 0.9666
7.1608 2.7157 -2.3556 0.9685
7.0217 2.9917 -2.3476 0.9686
6.6100 3.8163 -2.3476 0.9686
6.2814 4.3358 -2.3476 0.9686
5.0613 5.7130 -2.3476 0.9686
4.3358 6.2814 -2.3476 0.9686
3.8163 6.6100 -2.3476 0.9686
2.1162 7.3059 -2.3395 0.9687
1.8205 7.3862 -2.3398 0.9687
1.2206 7.5108 -2.3405 0.9687
0.0000 7.6137 -2.3418 0.9686
-1.8236 7.3988 -2.3438 0.9686
-2.1204 7.3204 -2.3441 0.9686
-2.7034 7.1282 -2.3449 0.9686
-4.8271 5.9122 -2.3476 0.9686
-5.0613 5.7130 -2.3476 0.9686
-5.5046 5.2872 -2.3476 0.9686
-5.7130 5.0613 -2.3476 0.9686
-5.9122 4.8271 -2.3476 0.9686
-6.2815 4.3358 -2.3476 0.9686
-6.4509 4.0793 -2.3476 0.9686
-6.6100 3.8163 -2.3476 0.9686
-6.7583 3.5470 -2.3476 0.9686
-7.7097 2.5738 -2.5000 0.9666
-7.8071 2.2613 -2.5000 0.9666
-7.8918 1.9452 -2.5000 0.9666
-7.9637 1.6258 -2.5000 0.9666
-8.0687 0.9797 -2.5000 0.9666
-8.1214 0.3273 -2.5000 0.9666
-7.5209 0.0000 -2.5000 0.9688
-7.5148 -0.3028 -2.5000 0.9688
-7.4661 -0.9066 -2.5000 0.9688
-7.2240 -2.0925 -2.5000 0.9688
-7.1339 -2.3816 -2.5000 0.9688
-6.9191 -2.9480 -2.5000 0.9688
-6.6595 -3.4952 -2.5000 0.9688
-6.5133 -3.7605 -2.5000 0.9688
-6.3566 -4.0197 -2.5000 0.9688
-6.1896 -4.2724 -2.5000 0.9688
-6.0126 -4.5181 -2.5000 0.9688
-5.4241 -5.2099 -2.5000 0.9688
-5.2099 -5.4241 -2.5000 0.9688
-4.9873 -5.6295 -2.5000 0.9688
-4.7566 -5.8258 -2.5000 0.9688
-3.7605 -6.5133 -2.5000 0.9688
-3.4951 -6.6595 -2.5000 0.9688
-2.9480 -6.9191 -2.5000 0.9688
-2.3816 -7.1339 -2.5000 0.9688
-2.0925 -7.2240 -2.5000 0.9688
-0.6052 -7.4965 -2.5000 0.9688
0.0000 -7.5209 -2.5000 0.9688
0.3028 -7.5148 -2.5000 0.9688
0.9066 -7.4661 -2.5000 0.9688
1.5044 -7.3689 -2.5000 0.9688
1.7999 -7.3024 -2.5000 0.9688
2.0925 -7.2240 -2.5000 0.9688
2.3816 -7.1339 -2.5000 0.9688
2.6670 -7.0322 -2.5000 0.9688
2.9480 -6.9191 -2.5000 0.9688
3.2242 -6.7948 -2.5000 0.9688
4.0197 -6.3566 -2.5000 0.9688
4.2724 -6.1896 -2.5000 0.9688
4.7566 -5.8258 -2.5000 0.9688
4.9873 -5.6295 -2.5000 0.9688
5.6295 -4.9873 -2.5000 0.9688
6.5133 -3.7605 -2.5000 0.9688
7.0322 -2.6670 -2.5000 0.9688
7.2240 -2.0925 -2.5000 0.9688
4.9022 -0.7967 -1.6509 0.9793
4.8908 -0.3948 -1.6310 0.9795
4.9238 0.0000 -1.6367 0.9795
5.0037 0.4039 -1.6687 0.9791
7.3689 1.5044 -2.5000 0.9688
7.2240 2.0925 -2.5000 0.9688
7.1339 2.3816 -2.5000 0.9688
7.0322 2.6670 -2.5000 0.9688
6.4973 2.7682 -2.3476 0.9707
5.8123 4.0119 -2.3476 0.9707
5.6460 4.2427 -2.3476 0.9707
4.8923 5.0935 -2.3476 0.9707
4.0119 5.8123 -2.3476 0.9707
3.7746 5.9691 -2.3476 0.9707
3.0276 6.3806 -2.3476 0.9707
2.7683 6.4973 -2.3476 0.9707
1.9649 6.7836 -2.3476 0.9707
1.1310 6.9595 -2.3437 0.9707
0.8493 6.9946 -2.3421 0.9707
0.2837 7.0392 -2.3418 0.9707
0.0000 7.0458 -2.3421 0.9707
-0.2837 7.0410 -2.3424 0.9707
-0.5672 7.0249 -2.3427 0.9707
-0.8496 6.9974 -2.3430 0.9707
-1.1310 6.9594 -2.3437 0.9707
-1.4115 6.9143 -2.3457 0.9707
-1.6901 6.8572 -2.3476 0.9707
-1.9649 6.7836 -2.3476 0.9707
-3.5312 6.1163 -2.3476 0.9707
-4.0119 5.8123 -2.3476 0.9707
-4.2427 5.6460 -2.3476 0.9707
-4.6833 5.2863 -2.3476 0.9707
-5.0934 4.8923 -2.3476 0.9707
-5.2863 4.6833 -2.3476 0.9707
-5.4706 4.4666 -2.3476 0.9707
-5.6460 4.2427 -2.3476 0.9707
-5.8123 4.0119 -2.3476 0.9707
-5.9691 3.7747 -2.3476 0.9707
-6.2535 3.2821 -2.3476 0.9707
-6.9191 2.9480 -2.5000 0.9688
-7.0322 2.6670 -2.5000 0.9688
-7.1339 2.3816 -2.5000 0.9688
-7.3689 1.5044 -2.5000 0.9688
-7.4235 1.2064 -2.5000 0.9688
-7.4661 0.9065 -2.5000 0.9688
-7.4965 0.6052 -2.5000 0.9688
-7.5148 0.3028 -2.5000 0.9688
-6.9909 0.0000 -2.5000 0.9707
-6.9852 -0.2815 -2.5000 0.9707
-6.9004 -1.1214 -2.5000 0.9707
-6.7878 -1.6730 -2.5000 0.9707
-6.5366 -2.4790 -2.5000 0.9707
-6.4315 -2.7402 -2.5000 0.9707
-6.3159 -2.9970 -2.5000 0.9707
-6.0543 -3.4955 -2.5000 0.9707
-5.9087 -3.7364 -2.5000 0.9707
-5.7534 -3.9713 -2.5000 0.9707
-5.5888 -4.1997 -2.5000 0.9707
-5.4152 -4.4214 -2.5000 0.9707
-5.0419 -4.8428 -2.5000 0.9707
-4.8428 -5.0419 -2.5000 0.9707
-4.4214 -5.4152 -2.5000 0.9707
-3.7364 -5.9086 -2.5000 0.9707
-3.4954 -6.0543 -2.5000 0.9707
-3.2488 -6.1901 -2.5000 0.9707
-2.9969 -6.3159 -2.5000 0.9707
-2.7402 -6.4315 -2.5000 0.9707
-2.2138 -6.6311 -2.5000 0.9707
-1.9450 -6.7149 -2.5000 0.9707
-0.8427 -6.9399 -2.5000 0.9707
-0.2815 -6.9852 -2.5000 0.9707
-0.0000 -6.9909 -2.5000 0.9707
0.2815 -6.9852 -2.5000 0.9707
0.5625 -6.9682 -2.5000 0.9707
1.6730 -6.7878 -2.5000 0.9707
2.7402 -6.4315 -2.5000 0.9707
3.4955 -6.0543 -2.5000 0.9707
3.9713 -5.7534 -2.5000 0.9707
4.1997 -5.5888 -2.5000 0.9707
4.6359 -5.2328 -2.5000 0.9707
5.0419 -4.8428 -2.5000 0.9707
5.2328 -4.6358 -2.5000 0.9707
5.5888 -4.1997 -2.5000 0.9707
6.0543 -3.4955 -2.5000 0.9707
6.3159 -2.9969 -2.5000 0.9707
6.5366 -2.4790 -2.5000 0.9707
6.6311 -2.2138 -2.5000 0.9707
6.7879 -1.6730 -2.5000 0.9707
4.8967 -0.7958 -1.7741 0.9791
4.8831 -0.3942 -1.7519 0.9794
4.8952 -0.1973 -1.7520 0.9794
4.9162 0.0000 -1.7581 0.9793
4.9919 0.4030 -1.7910 0.9789
6.9004 1.1214 -2.5000 0.9707
6.7878 1.6730 -2.5000 0.9707
5.6852 3.2824 -2.3476 0.9725
5.5485 3.5086 -2.3476 0.9725
5.4027 3.7292 -2.3476 0.9725
4.9138 4.3532 -2.3476 0.9725
4.5475 4.7345 -2.3476 0.9725
4.3532 4.9138 -2.3476 0.9725
4.1518 5.0851 -2.3476 0.9725
2.5732 6.0394 -2.3476 0.9725
1.8264 6.3056 -2.3476 0.9725
1.3131 6.4321 -2.3476 0.9725
1.0531 6.4797 -2.3476 0.9725
0.5282 6.5435 -2.3476 0.9725
-0.0000 6.5647 -2.3476 0.9725
-0.5282 6.5435 -2.3476 0.9725
-1.0531 6.4797 -2.3476 0.9725
-2.0788 6.2269 -2.3476 0.9725
-2.3279 6.1381 -2.3476 0.9725
-2.8143 5.9309 -2.3476 0.9725
-3.9437 5.2481 -2.3476 0.9725
-4.1518 5.0851 -2.3476 0.9725
-4.3532 4.9138 -2.3476 0.9725
-4.9138 4.3532 -2.3476 0.9725
-5.6852 3.2824 -2.3476 0.9725
-5.9566 2.8265 -2.3578 0.9724
-6.4315 2.7402 -2.5000 0.9707
-6.5366 2.4790 -2.5000 0.9707
-6.8496 1.3984 -2.5000 0.9707
-6.9682 0.5625 -2.5000 0.9707
-6.9852 0.2815 -2.5000 0.9707
-6.5237 -0.0000 -2.5000 0.9724
-6.5026 -0.5249 -2.5000 0.9724
-6.4761 -0.7863 -2.5000 0.9724
-6.3341 -1.5612 -2.5000 0.9724
-6.1880 -2.0659 -2.5000 0.9724
-6.0998 -2.3133 -2.5000 0.9724
-5.7764 -3.0317 -2.5000 0.9724
-5.6497 -3.2619 -2.5000 0.9724
-5.5138 -3.4867 -2.5000 0.9724
-5.2153 -3.9191 -2.5000 0.9724
-5.0533 -4.1259 -2.5000 0.9724
-4.8831 -4.3260 -2.5000 0.9724
-4.7049 -4.5191 -2.5000 0.9724
-4.1259 -5.0533 -2.5000 0.9724
-3.9191 -5.2153 -2.5000 0.9724
-3.7059 -5.3689 -2.5000 0.9724
-3.2619 -5.6497 -2.5000 0.9724
-2.7967 -5.8938 -2.5000 0.9724
-1.8150 -6.2661 -2.5000 0.9724
-0.7863 -6.4761 -2.5000 0.9724
-0.2627 -6.5184 -2.5000 0.9724
0.0000 -6.5237 -2.5000 0.9724
0.5249 -6.5025 -2.5000 0.9724
0.7863 -6.4761 -2.5000 0.9724
1.3049 -6.3919 -2.5000 0.9724
1.5612 -6.3341 -2.5000 0.9724
1.8150 -6.2661 -2.5000 0.9724
2.3133 -6.0998 -2.5000 0.9724
2.5571 -6.0017 -2.5000 0.9724
3.4867 -5.5138 -2.5000 0.9724
4.5191 -4.7049 -2.5000 0.9724
5.5138 -3.4867 -2.5000 0.9724
6.0017 -2.5571 -2.5000 0.9724
6.0998 -2.3133 -2.5000 0.9724
4.8618 -0.7901 -1.8876 0.9791
4.8810 -0.1967 -1.8720 0.9793
4.9612 0.4005 -1.9074 0.9789
5.2731 0.6403 -2.0356 0.9775
6.3919 1.3049 -2.5000 0.9724
6.3341 1.5612 -2.5000 0.9724
6.2661 1.8150 -2.5000 0.9724
6.0017 2.5571 -2.5000 0.9724
5.6875 2.6988 -2.4125 0.9734
5.4243 2.8469 -2.3476 0.9741
5.3053 3.0630 -2.3476 0.9741
4.8974 3.6802 -2.3476 0.9741
4.4181 4.2436 -2.3476 0.9741
4.2436 4.4181 -2.3476 0.9741
3.6802 4.8974 -2.3476 0.9741
3.4800 5.0416 -2.3476 0.9741
2.8469 5.4243 -2.3476 0.9741
2.6262 5.5346 -2.3476 0.9741
2.4012 5.6358 -2.3476 0.9741
2.1723 5.7279 -2.3476 0.9741
1.4661 5.9480 -2.3476 0.9741
1.2254 6.0022 -2.3476 0.9741
0.7384 6.0813 -2.3476 0.9741
0.4929 6.1062 -2.3476 0.9741
0.0000 6.1260 -2.3476 0.9741
-0.2467 6.1210 -2.3476 0.9741
-0.4929 6.1062 -2.3476 0.9741
-1.2254 6.0022 -2.3476 0.9741
-1.7044 5.8841 -2.3476 0.9741
-1.9399 5.8108 -2.3476 0.9741
-2.1723 5.7279 -2.3476 0.9741
-3.0630 5.3053 -2.3476 0.9741
-3.2742 5.1777 -2.3476 0.9741
-3.4800 5.0416 -2.3476 0.9741
-3.6802 4.8974 -2.3476 0.9741
-3.8744 4.7452 -2.3476 0.9741
-4.4181 4.2436 -2.3476 0.9741
-4.7452 3.8744 -2.3476 0.9741
-4.8974 3.6802 -2.3476 0.9741
-6.0017 2.5571 -2.5000 0.9724
-6.1880 2.0659 -2.5000 0.9724
-6.2661 1.8150 -2.5000 0.9724
-6.3341 1.5612 -2.5000 0.9724
-6.3919 1.3049 -2.5000 0.9724
-6.4392 1.0465 -2.5000 0.9724
-6.5026 0.5249 -2.5000 0.9724
-2.6381 0.0000 -1.0797 0.9887
-2.6602 -0.3230 -1.0968 0.9885
-2.8591 -0.4647 -1.1855 0.9876
-5.9849 -1.2218 -2.5000 0.9739
-5.8672 -1.6995 -2.5000 0.9739
-5.7940 -1.9343 -2.5000 0.9739
-5.5186 -2.6186 -2.5000 0.9739
-5.1627 -3.2647 -2.5000 0.9739
-5.0271 -3.4700 -2.5000 0.9739
-4.8833 -3.6696 -2.5000 0.9739
-4.7316 -3.8632 -2.5000 0.9739
-4.5722 -4.0506 -2.5000 0.9739
-4.2314 -4.4054 -2.5000 0.9739
-3.8632 -4.7316 -2.5000 0.9739
-3.6696 -4.8833 -2.5000 0.9739
-3.4700 -5.0271 -2.5000 0.9739
-3.2647 -5.1627 -2.5000 0.9739
-3.0542 -5.2900 -2.5000 0.9739
-2.1660 -5.7114 -2.5000 0.9739
-1.9343 -5.7940 -2.5000 0.9739
-1.6994 -5.8672 -2.5000 0.9739
-1.2218 -5.9849 -2.5000 0.9739
-0.9799 -6.0293 -2.5000 0.9739
-0.7363 -6.0638 -2.5000 0.9739
-0.2460 -6.1034 -2.5000 0.9739
0.0000 -6.1084 -2.5000 0.9739
0.2460 -6.1034 -2.5000 0.9739
0.4915 -6.0886 -2.5000 0.9739
0.7363 -6.0638 -2.5000 0.9739
0.9798 -6.0293 -2.5000 0.9739
1.2218 -5.9849 -2.5000 0.9739
1.4618 -5.9309 -2.5000 0.9739
1.6994 -5.8672 -2.5000 0.9739
2.1661 -5.7114 -2.5000 0.9739
2.6186 -5.5186 -2.5000 0.9739
2.8386 -5.4087 -2.5000 0.9739
3.2647 -5.1627 -2.5000 0.9739
3.8632 -4.7316 -2.5000 0.9739
4.5722 -4.0506 -2.5000 0.9739
4.8833 -3.6696 -2.5000 0.9739
5.0271 -3.4699 -2.5000 0.9739
5.4087 -2.8387 -2.5000 0.9739
5.6196 -2.3943 -2.5000 0.9739
5.7114 -2.1661 -2.5000 0.9739
5.7940 -1.9343 -2.5000 0.9739
5.8672 -1.6995 -2.5000 0.9739
4.8463 -0.5884 -1.9980 0.9791
4.9634 0.4007 -2.0380 0.9787
5.8672 1.6995 -2.5000 0.9739
5.5186 2.6186 -2.5000 0.9739
4.9746 2.8721 -2.3509 0.9755
4.8480 3.0657 -2.3476 0.9755
4.7206 3.2584 -2.3476 0.9755
4.5856 3.4459 -2.3476 0.9755
4.4431 3.6277 -2.3476 0.9755
4.1368 3.9735 -2.3476 0.9755
3.9735 4.1368 -2.3476 0.9755
3.4459 4.5856 -2.3476 0.9755
3.2584 4.7206 -2.3476 0.9755
3.0657 4.8480 -2.3476 0.9755
2.8680 4.9675 -2.3476 0.9755
2.6657 5.0790 -2.3476 0.9755
2.2483 5.2770 -2.3476 0.9755
2.0340 5.3633 -2.3476 0.9755
1.8164 5.4408 -2.3476 0.9755
1.5959 5.5095 -2.3476 0.9755
1.1473 5.6201 -2.3476 0.9755
0.4616 5.7174 -2.3476 0.9755
-0.2310 5.7313 -2.3476 0.9755
-0.9201 5.6617 -2.3476 0.9755
-1.1474 5.6201 -2.3476 0.9755
-1.3727 5.5693 -2.3476 0.9755
-1.8164 5.4408 -2.3476 0.9755
-2.0340 5.3632 -2.3476 0.9755
-2.2483 5.2770 -2.3476 0.9755
-2.6657 5.0790 -2.3476 0.9755
-3.0657 4.8480 -2.3476 0.9755
-3.6277 4.4431 -2.3476 0.9755
-3.8037 4.2935 -2.3476 0.9755
-4.1368 3.9735 -2.3476 0.9755
-5.6196 2.3943 -2.5000 0.9739
-5.9849 1.2218 -2.5000 0.9739
-2.6499 0.2139 -1.0881 0.9886
-2.6418 0.1065 -1.0821 0.9886
-2.4020 0.0000 -1.0468 0.9896
-2.4007 -0.1938 -1.0497 0.9895
-2.4304 -0.3950 -1.0731 0.9893
-5.5697 -1.3728 -2.5000 0.9753
-5.4411 -1.8165 -2.5000 0.9753
-5.1825 -2.4591 -2.5000 0.9753
-5.0793 -2.6658 -2.5000 0.9753
-4.9678 -2.8682 -2.5000 0.9753
-4.8483 -3.0659 -2.5000 0.9753
-4.7209 -3.2586 -2.5000 0.9753
-4.5859 -3.4461 -2.5000 0.9753
-3.9737 -4.1371 -2.5000 0.9753
-3.6279 -4.4434 -2.5000 0.9753
-3.4461 -4.5859 -2.5000 0.9753
-3.2586 -4.7209 -2.5000 0.9753
-2.8682 -4.9678 -2.5000 0.9753
-2.2485 -5.2773 -2.5000 0.9753
-1.8165 -5.4411 -2.5000 0.9753
-1.1474 -5.6204 -2.5000 0.9753
-0.6914 -5.6945 -2.5000 0.9753
-0.2310 -5.7317 -2.5000 0.9753
0.0000 -5.7364 -2.5000 0.9753
0.2310 -5.7317 -2.5000 0.9753
0.4616 -5.7178 -2.5000 0.9753
0.6914 -5.6945 -2.5000 0.9753
0.9202 -5.6621 -2.5000 0.9753
1.5960 -5.5099 -2.5000 0.9753
2.0341 -5.3636 -2.5000 0.9753
2.2485 -5.2773 -2.5000 0.9753
2.4591 -5.1825 -2.5000 0.9753
2.8682 -4.9678 -2.5000 0.9753
3.4461 -4.5859 -2.5000 0.9753
3.9737 -4.1371 -2.5000 0.9753
4.4434 -3.6279 -2.5000 0.9753
4.5859 -3.4461 -2.5000 0.9753
4.8483 -3.0659 -2.5000 0.9753
5.1825 -2.4591 -2.5000 0.9753
5.2773 -2.2485 -2.5000 0.9753
5.3636 -2.0341 -2.5000 0.9753
5.4411 -1.8165 -2.5000 0.9753
5.1152 -1.0443 -2.2753 0.9775
4.8639 -0.7905 -2.1476 0.9787
4.8587 -0.3922 -2.1244 0.9790
4.8765 -0.1965 -2.1270 0.9789
4.8946 -0.0000 -2.1332 0.9789
4.9124 0.1980 -2.1426 0.9788
4.9665 0.4009 -2.1715 0.9785
5.2936 0.6428 -2.3240 0.9770
5.6204 1.1474 -2.5000 0.9753
5.5697 1.3728 -2.5000 0.9753
5.5099 1.5960 -2.5000 0.9753
5.2773 2.2485 -2.5000 0.9753
5.1825 2.4591 -2.5000 0.9753
5.0793 2.6658 -2.5000 0.9753
4.6924 2.7091 -2.3614 0.9766
4.4331 3.0600 -2.3476 0.9768
4.1725 3.4068 -2.3476 0.9768
4.0320 3.5720 -2.3476 0.9768
3.5720 4.0320 -2.3476 0.9768
3.4068 4.1725 -2.3476 0.9768
3.0600 4.4331 -2.3476 0.9768
2.8790 4.5528 -2.3476 0.9768
2.6933 4.6650 -2.3476 0.9768
2.5033 4.7697 -2.3476 0.9768
2.3092 4.8666 -2.3476 0.9768
2.1114 4.9556 -2.3476 0.9768
1.7058 5.1094 -2.3476 0.9768
1.4987 5.1740 -2.3476 0.9768
1.2891 5.2301 -2.3476 0.9768
1.0775 5.2778 -2.3476 0.9768
0.6493 5.3474 -2.3476 0.9768
0.4334 5.3692 -2.3476 0.9768
0.2169 5.3823 -2.3476 0.9768
0.0000 5.3867 -2.3476 0.9768
-0.2169 5.3823 -2.3476 0.9768
-0.4335 5.3692 -2.3476 0.9768
-0.6493 5.3474 -2.3476 0.9768
-0.8641 5.3169 -2.3476 0.9768
-1.0775 5.2778 -2.3476 0.9768
-1.4987 5.1740 -2.3476 0.9768
-1.9101 5.0366 -2.3476 0.9768
-2.6933 4.6650 -2.3476 0.9768
-3.2360 4.3063 -2.3476 0.9768
-3.5720 4.0320 -2.3476 0.9768
-3.7315 3.8849 -2.3476 0.9768
-3.8849 3.7315 -2.3476 0.9768
-4.0320 3.5720 -2.3476 0.9768
-4.1725 3.4068 -2.3476 0.9768
-4.3063 3.2360 -2.3476 0.9768
-4.4331 3.0600 -2.3476 0.9768
-4.5527 2.8790 -2.3476 0.9768
-4.6897 2.7076 -2.3600 0.9766
-5.3636 2.0341 -2.5000 0.9753
-5.4411 1.8165 -2.5000 0.9753
-5.5697 1.3728 -2.5000 0.9753
-5.6204 1.1474 -2.5000 0.9753
-2.4304 0.3950 -1.0731 0.9893
-2.4095 0.2926 -1.0578 0.9895
-2.4007 0.1938 -1.0497 0.9895
-2.2449 -0.3648 -1.0528 0.9900
-5.2440 -1.2925 -2.5000 0.9765
-4.9687 -2.1170 -2.5000 0.9765
-4.8795 -2.3153 -2.5000 0.9765
-4.3177 -3.2446 -2.5000 0.9765
-4.0426 -3.5815 -2.5000 0.9765
-3.7413 -3.8952 -2.5000 0.9765
-3.5815 -4.0426 -2.5000 0.9765
-3.2446 -4.3177 -2.5000 0.9765
-2.7004 -4.6773 -2.5000 0.9765
-2.5099 -4.7823 -2.5000 0.9765
-2.3153 -4.8795 -2.5000 0.9765
-1.9152 -5.0499 -2.5000 0.9765
-1.2925 -5.2440 -2.5000 0.9765
-0.8664 -5.3310 -2.5000 0.9765
-0.2175 -5.3965 -2.5000 0.9765
0.0001 -5.4009 -2.5000 0.9765
0.4346 -5.3834 -2.5000 0.9765
0.8664 -5.3310 -2.5000 0.9765
1.0804 -5.2918 -2.5000 0.9765
1.7103 -5.1230 -2.5000 0.9765
1.9152 -5.0499 -2.5000 0.9765
2.1170 -4.9687 -2.5000 0.9765
2.5099 -4.7823 -2.5000 0.9765
2.8866 -4.5648 -2.5000 0.9765
3.0681 -4.4449 -2.5000 0.9765
3.2446 -4.3177 -2.5000 0.9765
3.7413 -3.8952 -2.5000 0.9765
4.1836 -3.4158 -2.5000 0.9765
4.4448 -3.0681 -2.5000 0.9765
4.8794 -2.3153 -2.5000 0.9765
5.1230 -1.7103 -2.5000 0.9765
5.2440 -1.2925 -2.5000 0.9765
5.3310 -0.8664 -2.5000 0.9765
5.3834 -0.4346 -2.5000 0.9765
5.4009 0.0000 -2.5000 0.9765
5.3615 0.6510 -2.5000 0.9765
5.3310 0.8664 -2.5000 0.9765
5.2918 1.0803 -2.5000 0.9765
5.2440 1.2925 -2.5000 0.9765
5.1229 1.7103 -2.5000 0.9765
4.9687 2.1170 -2.5000 0.9765
4.8795 2.3153 -2.5000 0.9765
4.6504 2.6849 -2.4856 0.9766
4.1739 2.8810 -2.3476 0.9779
3.9285 3.2076 -2.3476 0.9779
3.7962 3.3631 -2.3476 0.9779
3.2075 3.9285 -2.3476 0.9779
2.7106 4.2865 -2.3476 0.9779
2.3569 4.4907 -2.3476 0.9779
2.1742 4.5820 -2.3476 0.9779
1.9879 4.6658 -2.3476 0.9779
1.6060 4.8107 -2.3476 0.9779
1.2137 4.9243 -2.3476 0.9779
0.8135 5.0060 -2.3476 0.9779
0.6113 5.0347 -2.3476 0.9779
0.0000 5.0717 -2.3476 0.9779
-0.2042 5.0676 -2.3476 0.9779
-0.4081 5.0552 -2.3476 0.9779
-1.0145 4.9692 -2.3476 0.9779
-1.4110 4.8714 -2.3476 0.9779
-1.6060 4.8107 -2.3476 0.9779
-1.9879 4.6658 -2.3476 0.9779
-2.3569 4.4907 -2.3476 0.9779
-2.5358 4.3922 -2.3476 0.9779
-2.7106 4.2865 -2.3476 0.9779
-2.8810 4.1739 -2.3476 0.9779
-3.0468 4.0545 -2.3476 0.9779
-3.2075 3.9285 -2.3476 0.9779
-3.3631 3.7962 -2.3476 0.9779
-3.9286 3.2076 -2.3476 0.9779
-4.0545 3.0468 -2.3476 0.9779
-4.6461 2.6825 -2.4833 0.9766
-4.7823 2.5099 -2.5000 0.9765
-4.9687 2.1170 -2.5000 0.9765
-5.0500 1.9152 -2.5000 0.9765
-5.1877 1.5026 -2.5000 0.9765
-5.2440 1.2925 -2.5000 0.9765
-2.2422 0.2723 -1.0455 0.9901
-2.0958 -0.2545 -1.0356 0.9906
-2.1259 -0.4340 -1.0643 0.9904
-4.8343 -1.6139 -2.5000 0.9775
-4.7654 -1.8073 -2.5000 0.9775
-4.6888 -1.9977 -2.5000 0.9775
-4.6045 -2.1849 -2.5000 0.9775
-4.4138 -2.5483 -2.5000 0.9775
-4.3076 -2.7240 -2.5000 0.9775
-4.1944 -2.8952 -2.5000 0.9775
-3.9479 -3.2233 -2.5000 0.9775
-3.8149 -3.3797 -2.5000 0.9775
-3.6757 -3.5305 -2.5000 0.9775
-3.5305 -3.6757 -2.5000 0.9775
-3.3797 -3.8149 -2.5000 0.9775
-2.3685 -4.5128 -2.5000 0.9775
-2.1849 -4.6045 -2.5000 0.9775
-1.9977 -4.6888 -2.5000 0.9775
-1.8073 -4.7654 -2.5000 0.9775
