ply
format ascii 1.0
element vertex 1575
property float32 x
property float32 y
property float32 z
property float32 I
end_header
24.9122 20.3402 -2.3581 0.8790
24.0909 21.3426 -2.3599 0.8789
23.2299 22.3126 -2.3617 0.8788
22.2657 23.1811 -2.3567 0.8790
19.4151 25.8368 -2.3697 0.8784
11.3998 16.5156 -1.4714 0.9227
10.2425 16.1972 -1.4051 0.9260
13.7028 23.7341 -2.0094 0.8959
11.6184 22.1370 -1.8331 0.9046
11.5465 24.3338 -1.9749 0.8976
10.5806 24.8337 -1.9792 0.8974
9.9322 26.1891 -2.0537 0.8937
10.3143 30.8949 -2.3882 0.8775
9.0713 31.3178 -2.3907 0.8774
5.2469 32.2855 -2.3983 0.8771
2.6376 32.6732 -2.4035 0.8768
0.0000 32.8502 -2.4086 0.8766
-2.6491 32.8141 -2.4138 0.8763
-2.4032 14.7872 -1.0985 0.9417
-6.6059 32.3581 -2.4215 0.8759
-10.4904 31.4225 -2.4290 0.8756
-11.7589 31.0055 -2.4314 0.8755
-16.5987 28.7498 -2.4341 0.8753
-17.7238 28.0280 -2.4315 0.8755
-17.0169 24.6532 -2.1964 0.8868
-19.8748 26.4486 -2.4258 0.8757
-21.8813 24.6989 -2.4194 0.8760
-25.4049 20.7424 -2.4048 0.8767
-26.1756 19.6697 -2.4007 0.8769
-26.9000 18.5677 -2.3966 0.8771
-28.7856 15.1078 -2.3837 0.8778
-29.3155 13.9104 -2.3792 0.8780
-31.6180 5.1384 -2.3487 0.8794
-33.2072 2.6807 -2.4427 0.8749
-34.0682 1.3729 -2.5000 0.8722
-26.0401 -0.0000 -2.5000 0.9006
-25.9557 -2.0954 -2.5000 0.9006
-25.8503 -3.1388 -2.5000 0.9006
-25.7029 -4.1772 -2.5000 0.9006
-25.5139 -5.2087 -2.5000 0.9006
-25.2834 -6.2318 -2.5000 0.9006
-24.7000 -8.2461 -2.5000 0.9006
-24.3480 -9.2340 -2.5000 0.9006
-21.8814 -13.8369 -2.4855 0.9012
-17.7602 -18.4903 -2.4614 0.9021
-16.2147 -19.8595 -2.4614 0.9021
-15.4019 -20.4963 -2.4614 0.9021
-12.8191 -22.2033 -2.4614 0.9021
-9.8224 -20.7002 -2.1997 0.9120
-6.4134 -16.9108 -1.7364 0.9299
-5.7275 -17.1559 -1.7364 0.9299
-3.5180 -17.2323 -1.6885 0.9318
-1.3791 -17.0825 -1.6453 0.9335
-0.6886 -17.0877 -1.6418 0.9336
0.0000 -17.2529 -1.6564 0.9330
4.2348 -17.1810 -1.6988 0.9314
5.0437 -17.4131 -1.7405 0.9297
5.7963 -17.3622 -1.7573 0.9291
13.5709 -19.6609 -2.2935 0.9085
16.2356 -18.3262 -2.3505 0.9063
17.6354 -16.9390 -2.3476 0.9064
18.3031 -16.2152 -2.3476 0.9064
20.8827 -13.2054 -2.3721 0.9055
22.5514 -13.0201 -2.5000 0.9006
23.9564 -10.2069 -2.5000 0.9006
25.5139 -5.2087 -2.5000 0.9006
25.7029 -4.1771 -2.5000 0.9006
25.8503 -3.1388 -2.5000 0.9006
25.9557 -2.0954 -2.5000 0.9006
26.0190 -1.0485 -2.5000 0.9006
26.0190 1.0485 -2.5000 0.9006
24.1361 3.9225 -2.3476 0.9064
23.5571 6.8234 -2.3546 0.9061
13.2119 5.0106 -1.3566 0.9448
11.3378 5.3798 -1.2048 0.9508
19.7145 14.8145 -2.3675 0.9057
19.1124 15.6048 -2.3688 0.9056
17.1225 17.8264 -2.3730 0.9054
16.4012 18.5132 -2.3745 0.9054
15.6527 19.1711 -2.3761 0.9053
14.8781 19.7992 -2.3777 0.9053
11.3972 16.5117 -1.9262 0.9225
10.2401 16.1934 -1.8394 0.9259
12.4095 21.4939 -2.3828 0.9051
10.6557 22.4564 -2.3863 0.9049
7.8896 23.6322 -2.3919 0.9047
6.9371 23.9498 -2.3938 0.9047
4.0095 24.6713 -2.3996 0.9044
3.0153 24.8331 -2.4016 0.9044
-0.0000 25.0773 -2.4075 0.9041
-1.0106 25.0775 -2.4095 0.9041
-3.0302 24.9556 -2.4135 0.9039
-4.0358 24.8334 -2.4154 0.9038
-7.0059 24.1873 -2.4176 0.9038
-8.9206 23.5217 -2.4151 0.9039
-6.7215 15.7758 -1.6463 0.9334
-11.6682 22.2319 -2.4105 0.9040
-12.5444 21.7275 -2.4086 0.9041
-13.3982 21.1876 -2.4067 0.9042
-14.2282 20.6131 -2.4046 0.9043
-15.8110 19.3649 -2.4001 0.9044
-17.2821 17.9925 -2.3951 0.9046
-18.6309 16.5055 -2.3896 0.9048
-19.2566 15.7225 -2.3867 0.9049
-20.4066 14.0857 -2.3805 0.9052
-20.9292 13.2348 -2.3773 0.9053
-21.4157 12.3644 -2.3741 0.9054
-22.2781 10.5711 -2.3674 0.9057
-22.6528 9.6515 -2.3640 0.9058
-15.0524 5.0253 -1.5235 0.9382
-17.5206 5.0750 -1.7512 0.9293
-22.5363 4.6008 -2.2082 0.9117
-24.2746 2.9475 -2.3476 0.9064
-26.0190 1.0485 -2.5000 0.9006
-21.0461 0.0000 -2.5000 0.9187
-20.8927 -2.5368 -2.5000 0.9187
-20.7736 -3.3760 -2.5000 0.9187
-20.4346 -5.0367 -2.5000 0.9187
-19.6785 -7.4631 -2.5000 0.9187
-19.3620 -8.2494 -2.5000 0.9187
-18.6354 -9.7806 -2.5000 0.9187
-17.7880 -11.2484 -2.5000 0.9187
-17.3206 -11.9556 -2.5000 0.9187
-16.2985 -13.3073 -2.4994 0.9187
-14.4128 -15.0052 -2.4714 0.9196
-13.1266 -16.0772 -2.4654 0.9198
-12.4487 -16.5662 -2.4615 0.9199
-11.7710 -17.0533 -2.4614 0.9199
-10.3899 -16.4303 -2.3092 0.9247
-9.7191 -16.8341 -2.3090 0.9247
-9.0334 -17.2118 -2.3090 0.9247
-8.3331 -17.5615 -2.3090 0.9247
-7.6368 -17.9241 -2.3143 0.9245
-6.4602 -17.0342 -2.1641 0.9292
-3.5093 -17.1894 -2.0840 0.9318
-2.7665 -17.0227 -2.0486 0.9329
-2.1244 -17.4956 -2.0935 0.9315
-1.3803 -17.0982 -2.0376 0.9332
1.3940 -17.2682 -2.0579 0.9326
3.5447 -17.3629 -2.1050 0.9311
6.6313 -17.4852 -2.2214 0.9274
7.3915 -17.3485 -2.2400 0.9269
8.2890 -17.4686 -2.2968 0.9251
10.5627 -16.7036 -2.3476 0.9235
11.2267 -16.2648 -2.3476 0.9235
12.4991 -15.3087 -2.3476 0.9235
13.1054 -14.7929 -2.3476 0.9235
13.6904 -14.2532 -2.3476 0.9235
14.9110 -13.2100 -2.3663 0.9229
16.8252 -12.6433 -2.5000 0.9187
17.7880 -11.2485 -2.5000 0.9187
18.6354 -9.7806 -2.5000 0.9187
19.0142 -9.0223 -2.5000 0.9187
19.9630 -6.6646 -2.5000 0.9187
20.7737 -3.3760 -2.5000 0.9187
21.0291 -0.8475 -2.5000 0.9187
21.0461 -0.0000 -2.5000 0.9187
21.0291 0.8474 -2.5000 0.9187
20.9779 1.6935 -2.5000 0.9187
19.5072 3.1702 -2.3476 0.9235
19.3638 3.9531 -2.3476 0.9235
19.1889 4.7296 -2.3476 0.9235
19.0007 5.5036 -2.3498 0.9234
11.7016 4.9856 -1.5109 0.9501
17.6170 9.2461 -2.3634 0.9230
16.8522 10.6567 -2.3685 0.9228
16.4265 11.3385 -2.3709 0.9227
14.9756 13.2672 -2.3766 0.9226
13.2870 14.9979 -2.3801 0.9225
12.6791 15.5290 -2.3814 0.9224
11.3945 16.5079 -2.3827 0.9224
10.2376 16.1895 -2.2753 0.9257
9.3434 17.8024 -2.3882 0.9222
8.6243 18.1753 -2.3897 0.9222
5.6113 19.3724 -2.3958 0.9220
4.8298 19.5954 -2.3973 0.9219
4.0395 19.7869 -2.3989 0.9219
3.2417 19.9467 -2.4005 0.9218
1.6278 20.1637 -2.4030 0.9217
-0.0000 20.2314 -2.4032 0.9217
-1.6278 20.1637 -2.4030 0.9217
-3.2441 19.9613 -2.4022 0.9218
-4.8373 19.6256 -2.4010 0.9218
-6.3963 19.1593 -2.3993 0.9219
-8.6468 18.2228 -2.3959 0.9220
-9.3683 17.8498 -2.3946 0.9220
-10.0733 17.4475 -2.3931 0.9221
-10.7607 17.0166 -2.3916 0.9221
-12.0778 16.0726 -2.3882 0.9222
-13.3107 15.0247 -2.3844 0.9223
-14.4514 13.8808 -2.3802 0.9225
-15.9717 12.0019 -2.3732 0.9227
-16.4247 11.3372 -2.3707 0.9228
-17.9504 8.5176 -2.3601 0.9231
-11.7262 4.9961 -1.5141 0.9500
-13.1550 4.9891 -1.6712 0.9449
-15.0524 5.0253 -1.8850 0.9381
-17.5203 5.0749 -2.1667 0.9292
-19.3640 3.9532 -2.3476 0.9235
-20.8927 2.5368 -2.5000 0.9187
-20.9779 1.6935 -2.5000 0.9187
-17.6441 0.0000 -2.5000 0.9312
-17.5155 -2.1268 -2.5000 0.9312
-17.2876 -3.5293 -2.5000 0.9312
-17.1314 -4.2225 -2.5000 0.9312
-16.9475 -4.9089 -2.5000 0.9312
-16.4975 -6.2567 -2.5000 0.9312
-16.2322 -6.9159 -2.5000 0.9312
-15.9406 -7.5639 -2.5000 0.9312
-14.9126 -9.4302 -2.5000 0.9312
-14.1055 -10.5996 -2.5000 0.9312
-13.2068 -11.7002 -2.5000 0.9312
-12.7250 -12.2225 -2.5000 0.9312
-12.2225 -12.7250 -2.5000 0.9312
-9.0595 -14.3264 -2.4017 0.9338
-7.1028 -14.9688 -2.3476 0.9353
-6.4943 -15.2427 -2.3476 0.9353
-5.2467 -15.7158 -2.3476 0.9353
-3.9651 -16.0871 -2.3476 0.9353
-3.3141 -16.2337 -2.3476 0.9353
-1.9971 -16.4477 -2.3476 0.9353
-1.3332 -16.5148 -2.3476 0.9353
1.3332 -16.5148 -2.3476 0.9353
2.6578 -16.3540 -2.3476 0.9353
3.3141 -16.2337 -2.3476 0.9353
3.9651 -16.0871 -2.3476 0.9353
5.8753 -15.4918 -2.3476 0.9353
6.4943 -15.2427 -2.3476 0.9353
8.2843 -14.3488 -2.3476 0.9353
9.4120 -13.6356 -2.3476 0.9353
9.9534 -13.2456 -2.3476 0.9353
10.7803 -13.2034 -2.4151 0.9335
11.6834 -13.1878 -2.4964 0.9313
12.7253 -12.2225 -2.5000 0.9312
13.2068 -11.7002 -2.5000 0.9312
14.1055 -10.5996 -2.5000 0.9312
14.5208 -10.0230 -2.5000 0.9312
14.9126 -9.4302 -2.5000 0.9312
15.6231 -8.1996 -2.5000 0.9312
16.2322 -6.9159 -2.5000 0.9312
16.4975 -6.2567 -2.5000 0.9312
17.2876 -3.5293 -2.5000 0.9312
17.5155 -2.1268 -2.5000 0.9312
7.5341 -0.3036 -1.0684 0.9700
7.4983 0.0000 -1.0624 0.9702
7.5330 0.3036 -1.0682 0.9700
15.9144 4.6097 -2.3476 0.9353
15.0064 5.0099 -2.2416 0.9381
13.1701 4.9948 -1.9957 0.9447
11.7016 4.9856 -1.8022 0.9499
14.0904 8.9103 -2.3621 0.9349
13.7322 9.4787 -2.3642 0.9348
13.3507 10.0324 -2.3662 0.9348
12.9466 10.5706 -2.3682 0.9347
12.5204 11.0921 -2.3701 0.9347
11.1168 12.5483 -2.3753 0.9345
10.6098 12.9946 -2.3770 0.9345
8.9826 14.2049 -2.3813 0.9344
7.8187 14.8974 -2.3839 0.9343
7.2160 15.2073 -2.3850 0.9343
6.6006 15.4922 -2.3860 0.9342
5.9738 15.7517 -2.3870 0.9342
5.3366 15.9851 -2.3878 0.9342
3.3737 16.5254 -2.3898 0.9341
2.0337 16.7490 -2.3906 0.9341
1.3578 16.8191 -2.3908 0.9341
-0.6795 16.8612 -2.3910 0.9341
-1.3578 16.8191 -2.3908 0.9341
-5.9739 15.7518 -2.3870 0.9342
-7.8189 14.8976 -2.3839 0.9343
-9.5420 13.8239 -2.3800 0.9344
-10.6100 12.9949 -2.3770 0.9345
-12.0732 11.5965 -2.3719 0.9346
-13.7310 9.4778 -2.3640 0.9348
-14.7325 7.7322 -2.3575 0.9350
-10.4404 4.9541 -1.6374 0.9544
-13.1870 5.0012 -1.9983 0.9446
-15.0524 5.0253 -2.2485 0.9379
-16.0871 3.9651 -2.3476 0.9353
-15.1754 0.0000 -2.5000 0.9403
-15.1631 -0.6111 -2.5000 0.9403
-15.1262 -1.2211 -2.5000 0.9403
-15.0648 -1.8292 -2.5000 0.9403
-14.5762 -4.2221 -2.5000 0.9403
-14.3944 -4.8055 -2.5000 0.9403
-14.1892 -5.3813 -2.5000 0.9403
-13.7102 -6.5056 -2.5000 0.9403
-13.4371 -7.0524 -2.5000 0.9403
-13.1423 -7.5877 -2.5000 0.9403
-11.3590 -10.0632 -2.5000 0.9403
-10.5124 -10.9445 -2.5000 0.9403
-8.6206 -12.4891 -2.5000 0.9403
-8.1107 -12.8261 -2.5000 0.9403
-6.9689 -13.2781 -2.4704 0.9410
-6.2704 -13.2145 -2.4096 0.9424
-5.6333 -13.2219 -2.3676 0.9434
-2.8504 -13.9623 -2.3476 0.9439
-1.7177 -14.1464 -2.3476 0.9439
0.5738 -14.2387 -2.3476 0.9439
1.1467 -14.2041 -2.3476 0.9439
1.7116 -14.0960 -2.3392 0.9441
2.8504 -13.9623 -2.3476 0.9439
3.4103 -13.8362 -2.3476 0.9439
3.9647 -13.6877 -2.3476 0.9439
5.0532 -13.3243 -2.3476 0.9439
6.2670 -13.2073 -2.4083 0.9425
8.6206 -12.4891 -2.5000 0.9403
9.1165 -12.1319 -2.5000 0.9403
10.5124 -10.9445 -2.5000 0.9403
10.9445 -10.5124 -2.5000 0.9403
11.7550 -9.5976 -2.5000 0.9403
12.1319 -9.1165 -2.5000 0.9403
12.8261 -8.1108 -2.5000 0.9403
13.4372 -7.0524 -2.5000 0.9403
13.7102 -6.5056 -2.5000 0.9403
13.9611 -5.9483 -2.5000 0.9403
14.3944 -4.8056 -2.5000 0.9403
14.7344 -3.6317 -2.5000 0.9403
14.8687 -3.0355 -2.5000 0.9403
7.0859 -0.2856 -1.1683 0.9717
9.0203 0.7282 -1.4908 0.9640
15.0648 1.8292 -2.5000 0.9403
13.6877 3.9647 -2.3476 0.9439
13.1380 4.9826 -2.3148 0.9446
11.7016 4.9856 -2.0954 0.9497
10.4989 4.9818 -1.9144 0.9540
8.6481 4.9930 -1.6451 0.9603
7.8649 4.9735 -1.5330 0.9630
11.1096 9.0707 -2.3627 0.9435
10.7427 9.5172 -2.3644 0.9435
10.3576 9.9486 -2.3659 0.9434
9.5354 10.7632 -2.3689 0.9434
7.2087 12.4859 -2.3751 0.9432
6.7030 12.7716 -2.3762 0.9432
5.6580 13.2798 -2.3780 0.9432
3.4585 14.0316 -2.3807 0.9431
2.8912 14.1623 -2.3812 0.9431
1.1635 14.4130 -2.3821 0.9431
-0.0000 14.4610 -2.3823 0.9431
-0.5823 14.4490 -2.3822 0.9431
-2.3191 14.2696 -2.3816 0.9431
-3.4585 14.0317 -2.3807 0.9431
-6.1859 13.0366 -2.3771 0.9432
-6.7031 12.7717 -2.3762 0.9432
-7.7021 12.1800 -2.3740 0.9433
-8.6484 11.5089 -2.3716 0.9433
-9.0997 11.1451 -2.3703 0.9433
-9.5356 10.7634 -2.3689 0.9434
-9.9552 10.3644 -2.3675 0.9434
-10.3578 9.9488 -2.3660 0.9434
-11.4573 8.6096 -2.3610 0.9436
-7.8099 4.9387 -1.5223 0.9632
-12.6503 6.6394 -2.3536 0.9437
-12.8967 6.1196 -2.3516 0.9438
-13.9623 2.8504 -2.3476 0.9439
-14.9789 2.4343 -2.5000 0.9403
-15.0648 1.8292 -2.5000 0.9403
-15.1262 1.2211 -2.5000 0.9403
-13.3005 0.0000 -2.5000 0.9473
-13.2898 -0.5356 -2.5000 0.9473
-13.0318 -2.6605 -2.5000 0.9473
-12.9141 -3.1830 -2.5000 0.9473
-12.6161 -4.2119 -2.5000 0.9473
-12.2362 -5.2134 -2.5000 0.9473
-12.0164 -5.7019 -2.5000 0.9473
-11.5186 -6.6503 -2.5000 0.9473
-11.2415 -7.1087 -2.5000 0.9473
-10.9461 -7.5556 -2.5000 0.9473
-10.6330 -7.9902 -2.5000 0.9473
-10.3027 -8.4119 -2.5000 0.9473
-8.8199 -9.9556 -2.5000 0.9473
-8.4119 -10.3027 -2.5000 0.9473
-7.5556 -10.9462 -2.5000 0.9473
-7.1087 -11.2415 -2.5000 0.9473
-6.6503 -11.5186 -2.5000 0.9473
-5.2134 -12.2362 -2.5000 0.9473
-4.2119 -12.6161 -2.5000 0.9473
-1.6022 -13.1953 -2.4984 0.9473
-0.5319 -13.1976 -2.4826 0.9477
1.6020 -13.1935 -2.4981 0.9473
2.1336 -13.1283 -2.5000 0.9473
3.7004 -12.7754 -2.5000 0.9473
4.7165 -12.4363 -2.5000 0.9473
5.7018 -12.0164 -2.5000 0.9473
6.1811 -11.7771 -2.5000 0.9473
7.5556 -10.9462 -2.5000 0.9473
7.9902 -10.6331 -2.5000 0.9473
8.8199 -9.9556 -2.5000 0.9473
9.2136 -9.5924 -2.5000 0.9473
9.5924 -9.2136 -2.5000 0.9473
9.9556 -8.8199 -2.5000 0.9473
10.3027 -8.4119 -2.5000 0.9473
10.9461 -7.5556 -2.5000 0.9473
11.2415 -7.1087 -2.5000 0.9473
11.5186 -6.6503 -2.5000 0.9473
11.7771 -6.1811 -2.5000 0.9473
12.0164 -5.7018 -2.5000 0.9473
12.2363 -5.2134 -2.5000 0.9473
12.4362 -4.7165 -2.5000 0.9473
12.7754 -3.7005 -2.5000 0.9473
12.9141 -3.1830 -2.5000 0.9473
13.0318 -2.6605 -2.5000 0.9473
13.1283 -2.1336 -2.5000 0.9473
6.8792 -0.2772 -1.2941 0.9724
6.8690 -0.0000 -1.2911 0.9724
13.1283 2.1336 -2.5000 0.9473
12.1268 2.9890 -2.3476 0.9504
11.9966 3.4749 -2.3476 0.9504
11.8470 3.9551 -2.3476 0.9504
11.6781 4.4289 -2.3476 0.9504
11.4903 4.8956 -2.3476 0.9504
10.4989 4.9818 -2.1843 0.9538
9.4955 4.9836 -2.0157 0.9573
7.1853 4.9597 -1.6410 0.9651
10.0256 7.5338 -2.3572 0.9502
9.3983 8.3262 -2.3600 0.9502
5.1864 4.9817 -1.3517 0.9712
8.7077 9.0657 -2.3627 0.9501
7.9583 9.7472 -2.3652 0.9501
7.5631 10.0646 -2.3663 0.9501
7.1550 10.3658 -2.3674 0.9500
4.9464 11.6096 -2.3719 0.9499
3.9984 11.9767 -2.3733 0.9499
3.5137 12.1308 -2.3738 0.9499
3.0230 12.2650 -2.3743 0.9499
1.0170 12.5975 -2.3755 0.9499
-0.0000 12.6393 -2.3757 0.9499
-0.5089 12.6288 -2.3757 0.9499
-1.5233 12.5453 -2.3754 0.9499
-2.0270 12.4725 -2.3751 0.9499
-3.5138 12.1309 -2.3739 0.9499
-3.9984 11.9767 -2.3733 0.9499
-4.4763 11.8029 -2.3727 0.9499
-4.9464 11.6097 -2.3720 0.9499
-5.8606 11.1664 -2.3704 0.9500
-6.3031 10.9172 -2.3695 0.9500
-6.7348 10.6503 -2.3685 0.9500
-7.1551 10.3659 -2.3675 0.9500
-7.5632 10.0648 -2.3664 0.9500
-7.9585 9.7473 -2.3652 0.9501
-8.3402 9.4142 -2.3640 0.9501
-8.7079 9.0659 -2.3628 0.9501
-9.0608 8.7030 -2.3614 0.9502
-6.0378 4.9298 -1.4651 0.9688
-10.0253 7.5335 -2.3571 0.9502
-7.8097 4.9386 -1.7368 0.9631
-8.5589 4.9415 -1.8576 0.9606
-11.6781 4.4289 -2.3476 0.9504
-11.8470 3.9551 -2.3476 0.9504
-13.2574 1.0703 -2.5000 0.9473
-13.2898 0.5355 -2.5000 0.9473
-11.7886 -0.9517 -2.5000 0.9528
-11.6738 -1.8972 -2.5000 0.9528
-11.4833 -2.8304 -2.5000 0.9528
-11.2183 -3.7452 -2.5000 0.9528
-11.0584 -4.1939 -2.5000 0.9528
-10.8806 -4.6358 -2.5000 0.9528
-10.4723 -5.4963 -2.5000 0.9528
-10.2425 -5.9135 -2.5000 0.9528
-9.9960 -6.3211 -2.5000 0.9528
-9.4550 -7.1050 -2.5000 0.9528
-7.1050 -9.4550 -2.5000 0.9528
-6.3211 -9.9960 -2.5000 0.9528
-5.9135 -10.2425 -2.5000 0.9528
-5.4963 -10.4723 -2.5000 0.9528
-5.0701 -10.6851 -2.5000 0.9528
-4.6358 -10.8806 -2.5000 0.9528
-4.1939 -11.0584 -2.5000 0.9528
-2.8304 -11.4833 -2.5000 0.9528
-2.3657 -11.5879 -2.5000 0.9528
-1.8972 -11.6738 -2.5000 0.9528
0.0000 -11.8270 -2.5000 0.9528
0.9517 -11.7886 -2.5000 0.9528
2.3657 -11.5880 -2.5000 0.9528
2.8304 -11.4833 -2.5000 0.9528
3.7452 -11.2183 -2.5000 0.9528
5.0701 -10.6851 -2.5000 0.9528
5.9135 -10.2425 -2.5000 0.9528
6.3211 -9.9961 -2.5000 0.9528
6.7185 -9.7334 -2.5000 0.9528
7.1050 -9.4550 -2.5000 0.9528
7.8427 -8.8526 -2.5000 0.9528
9.1612 -7.4799 -2.5000 0.9528
10.4723 -5.4963 -2.5000 0.9528
10.6851 -5.0701 -2.5000 0.9528
10.8806 -4.6358 -2.5000 0.9528
11.3600 -3.2905 -2.5000 0.9528
11.4833 -2.8304 -2.5000 0.9528
11.5879 -2.3657 -2.5000 0.9528
6.7112 -0.5418 -1.4232 0.9728
6.6831 -0.2693 -1.4138 0.9730
11.7407 1.4256 -2.5000 0.9528
11.6738 1.8972 -2.5000 0.9528
10.6675 3.0899 -2.3476 0.9556
10.5344 3.5169 -2.3476 0.9556
10.3843 3.9382 -2.3476 0.9556
10.2173 4.3532 -2.3476 0.9556
10.0337 4.7611 -2.3476 0.9556
9.4953 4.9836 -2.2668 0.9571
8.6479 4.9929 -2.1108 0.9600
7.8649 4.9735 -1.9670 0.9627
8.9033 6.6904 -2.3541 0.9555
6.0701 4.9562 -1.6565 0.9685
8.3451 7.3931 -2.3567 0.9554
7.7309 8.0487 -2.3590 0.9554
7.4041 8.3575 -2.3602 0.9554
6.7135 8.9341 -2.3623 0.9553
6.3509 9.2009 -2.3632 0.9553
5.9776 9.4528 -2.3641 0.9553
5.5942 9.6894 -2.3650 0.9553
4.7995 10.1147 -2.3665 0.9553
4.3896 10.3027 -2.3672 0.9552
3.9722 10.4739 -2.3678 0.9552
3.5481 10.6278 -2.3684 0.9552
3.1179 10.7643 -2.3689 0.9552
2.6824 10.8831 -2.3693 0.9552
-0.4516 11.2053 -2.3705 0.9552
-0.9024 11.1775 -2.3704 0.9552
-2.2424 10.9840 -2.3697 0.9552
-2.6825 10.8832 -2.3693 0.9552
-3.5481 10.6279 -2.3684 0.9552
-3.9722 10.4739 -2.3679 0.9552
-4.3896 10.3028 -2.3672 0.9552
-5.2013 9.9102 -2.3658 0.9553
-6.3510 9.2010 -2.3632 0.9553
-6.7136 8.9342 -2.3623 0.9553
-7.0649 8.6529 -2.3613 0.9554
-7.4042 8.3576 -2.3602 0.9554
-5.1354 4.9326 -1.5051 0.9713
-8.3452 7.3932 -2.3567 0.9554
-7.1369 4.9263 -1.8331 0.9652
-8.5589 4.9415 -2.0891 0.9604
-9.8371 5.1629 -2.3483 0.9556
-10.0337 4.7611 -2.3476 0.9556
-10.2173 4.3532 -2.3476 0.9556
-10.3843 3.9382 -2.3476 0.9556
-10.5345 3.5169 -2.3476 0.9556
-10.6675 3.0899 -2.3476 0.9556
-10.9706 2.7040 -2.3884 0.9549
-11.6738 1.8972 -2.5000 0.9528
-11.7407 1.4256 -2.5000 0.9528
-11.8174 0.4762 -2.5000 0.9528
-10.6372 0.0000 -2.5000 0.9572
-10.6286 -0.4283 -2.5000 0.9572
-10.6027 -0.8559 -2.5000 0.9572
-10.5596 -1.2822 -2.5000 0.9572
-10.4222 -2.1277 -2.5000 0.9572
-10.3281 -2.5456 -2.5000 0.9572
-10.2172 -2.9595 -2.5000 0.9572
-10.0898 -3.3685 -2.5000 0.9572
-8.9905 -5.6852 -2.5000 0.9572
-8.7542 -6.0426 -2.5000 0.9572
-5.6852 -8.9905 -2.5000 0.9572
-5.3186 -9.2121 -2.5000 0.9572
-4.9433 -9.4188 -2.5000 0.9572
-4.1694 -9.7860 -2.5000 0.9572
-3.7720 -9.9459 -2.5000 0.9572
-3.3684 -10.0898 -2.5000 0.9572
-2.9595 -10.2172 -2.5000 0.9572
-2.5456 -10.3281 -2.5000 0.9572
-1.2822 -10.5596 -2.5000 0.9572
-0.4283 -10.6286 -2.5000 0.9572
-0.0000 -10.6372 -2.5000 0.9572
0.4283 -10.6286 -2.5000 0.9572
0.8559 -10.6027 -2.5000 0.9572
2.9595 -10.2172 -2.5000 0.9572
4.1694 -9.7860 -2.5000 0.9572
4.5601 -9.6102 -2.5000 0.9572
5.3186 -9.2121 -2.5000 0.9572
6.0426 -8.7542 -2.5000 0.9572
7.0538 -7.9621 -2.5000 0.9572
7.3686 -7.6716 -2.5000 0.9572
7.6716 -7.3687 -2.5000 0.9572
7.9621 -7.0538 -2.5000 0.9572
8.7542 -6.0426 -2.5000 0.9572
8.9905 -5.6852 -2.5000 0.9572
9.4188 -4.9433 -2.5000 0.9572
9.6102 -4.5601 -2.5000 0.9572
10.3281 -2.5457 -2.5000 0.9572
10.4995 -1.7063 -2.5000 0.9572
6.5517 -0.5289 -1.5448 0.9734
6.5445 0.2637 -1.5394 0.9734
6.5533 0.5290 -1.5452 0.9733
10.5596 1.2822 -2.5000 0.9572
10.4222 2.1277 -2.5000 0.9572
10.3281 2.5456 -2.5000 0.9572
9.4747 3.1631 -2.3476 0.9598
9.0243 4.2821 -2.3476 0.9598
8.8446 4.6420 -2.3476 0.9598
8.5981 4.9641 -2.3334 0.9600
7.8649 4.9735 -2.1870 0.9625
7.9993 6.0111 -2.3517 0.9597
7.4969 6.6417 -2.3539 0.9597
6.9445 7.2300 -2.3561 0.9596
4.0509 4.9615 -1.5054 0.9740
5.7038 8.2634 -2.3598 0.9596
5.3683 8.4893 -2.3606 0.9596
5.0238 8.7015 -2.3614 0.9596
3.5668 9.4048 -2.3640 0.9595
2.4085 9.7716 -2.3653 0.9595
2.0133 9.8621 -2.3656 0.9595
1.2135 9.9941 -2.3661 0.9595
-0.8102 10.0355 -2.3663 0.9595
-2.0134 9.8621 -2.3656 0.9595
-3.5668 9.4049 -2.3640 0.9595
-5.0239 8.7015 -2.3614 0.9596
-5.7039 8.2635 -2.3598 0.9596
-6.0298 8.0242 -2.3590 0.9596
-6.6506 7.5070 -2.3571 0.9596
-5.1232 4.9209 -1.6695 0.9712
-7.4970 6.6418 -2.3540 0.9597
-6.0378 4.9298 -1.8319 0.9685
-7.9992 6.0110 -2.3516 0.9597
-7.1369 4.9263 -2.0381 0.9650
-8.5381 4.9295 -2.3171 0.9603
-8.8446 4.6420 -2.3476 0.9598
-9.1894 3.9153 -2.3476 0.9598
-10.3281 2.5457 -2.5000 0.9572
-10.5596 1.2822 -2.5000 0.9572
-10.6027 0.8559 -2.5000 0.9572
-10.6286 0.4283 -2.5000 0.9572
-9.5851 -1.1638 -2.5000 0.9609
-9.4604 -1.9314 -2.5000 0.9609
-9.2743 -2.6863 -2.5000 0.9609
-8.7233 -4.1393 -2.5000 0.9609
-8.5495 -4.4871 -2.5000 0.9609
-8.3619 -4.8278 -2.5000 0.9609
-8.1607 -5.1605 -2.5000 0.9609
-7.9463 -5.4850 -2.5000 0.9609
-7.4792 -6.1066 -2.5000 0.9609
-7.2273 -6.4028 -2.5000 0.9609
-6.9636 -6.6886 -2.5000 0.9609
-6.6886 -6.9636 -2.5000 0.9609
-6.1066 -7.4792 -2.5000 0.9609
-5.1605 -8.1607 -2.5000 0.9609
-4.8278 -8.3619 -2.5000 0.9609
-4.4871 -8.5496 -2.5000 0.9609
-3.4239 -9.0281 -2.5000 0.9609
-2.6863 -9.2743 -2.5000 0.9609
-1.5489 -9.5305 -2.5000 0.9609
-1.1639 -9.5851 -2.5000 0.9609
-0.3888 -9.6477 -2.5000 0.9609
0.7769 -9.6242 -2.5000 0.9609
1.1638 -9.5851 -2.5000 0.9609
1.9313 -9.4604 -2.5000 0.9609
2.6863 -9.2743 -2.5000 0.9609
3.0576 -9.1586 -2.5000 0.9609
4.8278 -8.3619 -2.5000 0.9609
5.1606 -8.1608 -2.5000 0.9609
5.4850 -7.9463 -2.5000 0.9609
5.8005 -7.7190 -2.5000 0.9609
6.1066 -7.4792 -2.5000 0.9609
6.9636 -6.6886 -2.5000 0.9609
7.2273 -6.4028 -2.5000 0.9609
7.7190 -5.8005 -2.5000 0.9609
8.1607 -5.1605 -2.5000 0.9609
8.5495 -4.4871 -2.5000 0.9609
8.8829 -3.7846 -2.5000 0.9609
9.0281 -3.4239 -2.5000 0.9609
9.2743 -2.6863 -2.5000 0.9609
9.3749 -2.3107 -2.5000 0.9609
9.4604 -1.9314 -2.5000 0.9609
6.5332 -0.5274 -1.6971 0.9733
6.4971 0.0000 -1.6822 0.9735
6.5059 0.2622 -1.6859 0.9735
9.4604 1.9313 -2.5000 0.9609
9.2743 2.6863 -2.5000 0.9609
8.6003 2.8712 -2.3476 0.9632
8.4777 3.2152 -2.3476 0.9632
8.3414 3.5539 -2.3476 0.9632
8.1915 3.8869 -2.3476 0.9632
7.8522 4.5335 -2.3476 0.9632
7.2023 4.9714 -2.2659 0.9645
7.2548 5.4516 -2.3496 0.9632
7.0325 5.7419 -2.3507 0.9632
6.7986 6.0230 -2.3517 0.9632
5.1691 4.9650 -1.8558 0.9708
6.2971 6.5559 -2.3536 0.9631
4.3965 4.9626 -1.7166 0.9730
3.1433 4.9708 -1.5228 0.9760
4.2343 8.0678 -2.3591 0.9631
2.3517 4.9562 -1.4204 0.9776
3.2332 8.5253 -2.3608 0.9630
-0.0000 9.1263 -2.3630 0.9630
-0.3675 9.1188 -2.3629 0.9630
-0.7343 9.0963 -2.3629 0.9630
-1.1000 9.0588 -2.3627 0.9630
-1.4637 9.0065 -2.3625 0.9630
-1.8250 8.9393 -2.3623 0.9630
-2.1832 8.8575 -2.3620 0.9630
-1.6514 4.9466 -1.3502 0.9787
-3.5732 8.3865 -2.3603 0.9630
-2.3447 4.9414 -1.4161 0.9777
-2.8520 4.9398 -1.4769 0.9767
-5.1714 7.4920 -2.3571 0.9631
-6.2971 6.5560 -2.3537 0.9631
-6.7987 6.0231 -2.3517 0.9632
-7.8522 4.5334 -2.3476 0.9632
-8.0283 4.2136 -2.3476 0.9632
-8.1915 3.8869 -2.3476 0.9632
-8.3414 3.5539 -2.3476 0.9632
-9.2684 2.6846 -2.4984 0.9609
-9.4604 1.9313 -2.5000 0.9609
-9.5305 1.5489 -2.5000 0.9609
-9.6242 0.7770 -2.5000 0.9609
-9.6477 0.3888 -2.5000 0.9609
-8.8310 0.0000 -2.5000 0.9640
-8.8238 -0.3556 -2.5000 0.9640
-8.8023 -0.7106 -2.5000 0.9640
-8.7666 -1.0645 -2.5000 0.9640
-8.7166 -1.4166 -2.5000 0.9640
-8.6525 -1.7664 -2.5000 0.9640
-8.5743 -2.1134 -2.5000 0.9640
-8.2571 -3.1315 -2.5000 0.9640
-7.8194 -4.1040 -2.5000 0.9640
-7.6478 -4.4155 -2.5000 0.9640
-6.6101 -5.8560 -2.5000 0.9640
-6.1174 -6.3689 -2.5000 0.9640
-5.8560 -6.6101 -2.5000 0.9640
-5.5851 -6.8405 -2.5000 0.9640
-5.3051 -7.0598 -2.5000 0.9640
-4.7198 -7.4639 -2.5000 0.9640
-4.1039 -7.8195 -2.5000 0.9640
-3.7858 -7.9783 -2.5000 0.9640
-3.1315 -8.2571 -2.5000 0.9640
-2.4569 -8.4823 -2.5000 0.9640
-2.1134 -8.5744 -2.5000 0.9640
-1.4166 -8.7166 -2.5000 0.9640
-0.3556 -8.8238 -2.5000 0.9640
0.3556 -8.8238 -2.5000 0.9640
0.7106 -8.8023 -2.5000 0.9640
2.1134 -8.5744 -2.5000 0.9640
2.4569 -8.4823 -2.5000 0.9640
4.1040 -7.8194 -2.5000 0.9640
4.4155 -7.6479 -2.5000 0.9640
4.7199 -7.4638 -2.5000 0.9640
5.3052 -7.0599 -2.5000 0.9640
5.8560 -6.6101 -2.5000 0.9640
6.1174 -6.3689 -2.5000 0.9640
6.8405 -5.5851 -2.5000 0.9640
7.0599 -5.3051 -2.5000 0.9640
7.4638 -4.7199 -2.5000 0.9640
7.6479 -4.4155 -2.5000 0.9640
7.9783 -3.7858 -2.5000 0.9640
8.1243 -3.4615 -2.5000 0.9640
8.2571 -3.1315 -2.5000 0.9640
8.3765 -2.7965 -2.5000 0.9640
8.6525 -1.7664 -2.5000 0.9640
6.5071 -0.5253 -1.8481 0.9732
6.4871 0.2614 -1.8379 0.9734
6.5077 0.5253 -1.8483 0.9732
6.8423 0.8308 -1.9512 0.9718
8.7166 1.4166 -2.5000 0.9640
8.6525 1.7664 -2.5000 0.9640
8.5743 2.1134 -2.5000 0.9640
8.4823 2.4569 -2.5000 0.9640
8.1148 2.7091 -2.4219 0.9651
7.7537 2.9406 -2.3476 0.9661
7.6291 3.2504 -2.3476 0.9661
7.0088 4.4321 -2.3476 0.9661
6.8247 4.7108 -2.3476 0.9661
6.4271 5.2476 -2.3489 0.9661
4.3965 4.9626 -1.8769 0.9728
4.0509 4.9615 -1.8133 0.9737
3.4152 4.9478 -1.7020 0.9753
3.1282 4.9469 -1.6569 0.9760
3.8686 7.3709 -2.3566 0.9660
2.3517 4.9562 -1.5530 0.9775
1.6539 4.9540 -1.4785 0.9785
1.2207 4.9526 -1.4440 0.9790
1.0109 4.9520 -1.4308 0.9792
1.3371 8.2275 -2.3597 0.9659
0.1994 4.9494 -1.4023 0.9796
-1.0048 8.2753 -2.3599 0.9659
-0.8038 4.9462 -1.4186 0.9794
-1.0096 4.9456 -1.4289 0.9792
-1.9944 8.0916 -2.3592 0.9659
-2.3183 8.0036 -2.3589 0.9660
-1.6504 4.9436 -1.4754 0.9786
-2.8520 4.9398 -1.6148 0.9766
-4.9953 6.6476 -2.3540 0.9660
-4.0302 4.9361 -1.8040 0.9739
-4.3720 4.9350 -1.8665 0.9730
-5.7544 5.9909 -2.3516 0.9661
-5.1354 4.9326 -2.0158 0.9708
-6.5426 4.9165 -2.3168 0.9665
-7.0089 4.4321 -2.3476 0.9661
-7.3427 3.8538 -2.3476 0.9661
-7.6290 3.2504 -2.3476 0.9661
-7.7537 2.9406 -2.3476 0.9661
-8.4823 2.4569 -2.5000 0.9640
-8.5743 2.1134 -2.5000 0.9640
-8.6525 1.7664 -2.5000 0.9640
-8.8238 0.3556 -2.5000 0.9640
-8.1213 -0.3273 -2.5000 0.9666
-8.1016 -0.6540 -2.5000 0.9666
-7.8918 -1.9452 -2.5000 0.9666
-7.8071 -2.2613 -2.5000 0.9666
-7.1969 -3.7773 -2.5000 0.9666
-7.0390 -4.0640 -2.5000 0.9666
-6.8697 -4.3441 -2.5000 0.9666
-6.6892 -4.6172 -2.5000 0.9666
-6.0839 -5.3898 -2.5000 0.9666
-5.3898 -6.0839 -2.5000 0.9666
-3.7773 -7.1969 -2.5000 0.9666
-3.4844 -7.3432 -2.5000 0.9666
-3.1859 -7.4775 -2.5000 0.9666
-2.8822 -7.5998 -2.5000 0.9666
-2.5739 -7.7097 -2.5000 0.9666
-1.9451 -7.8918 -2.5000 0.9666
-1.6258 -7.9637 -2.5000 0.9666
-1.3038 -8.0227 -2.5000 0.9666
-0.9797 -8.0687 -2.5000 0.9666
-0.6540 -8.1016 -2.5000 0.9666
-0.3273 -8.1214 -2.5000 0.9666
0.0000 -8.1280 -2.5000 0.9666
0.3273 -8.1214 -2.5000 0.9666
0.6540 -8.1016 -2.5000 0.9666
0.9797 -8.0687 -2.5000 0.9666
1.3038 -8.0227 -2.5000 0.9666
1.9452 -7.8918 -2.5000 0.9666
2.2613 -7.8070 -2.5000 0.9666
3.1859 -7.4776 -2.5000 0.9666
3.4844 -7.3432 -2.5000 0.9666
3.7773 -7.1969 -2.5000 0.9666
4.3441 -6.8697 -2.5000 0.9666
4.6172 -6.6892 -2.5000 0.9666
5.3898 -6.0839 -2.5000 0.9666
5.6304 -5.8619 -2.5000 0.9666
6.0839 -5.3898 -2.5000 0.9666
6.4978 -4.8828 -2.5000 0.9666
6.6892 -4.6172 -2.5000 0.9666
6.8697 -4.3441 -2.5000 0.9666
7.0390 -4.0640 -2.5000 0.9666
7.1969 -3.7772 -2.5000 0.9666
7.3432 -3.4844 -2.5000 0.9666
7.4775 -3.1859 -2.5000 0.9666
7.5998 -2.8822 -2.5000 0.9666
7.8071 -2.2613 -2.5000 0.9666
7.8918 -1.9452 -2.5000 0.9666
6.7750 -0.8226 -2.0991 0.9718
6.4973 -0.5245 -2.0049 0.9731
6.4748 0.2609 -1.9931 0.9732
6.7785 0.8231 -2.1002 0.9718
7.9637 1.6258 -2.5000 0.9666
7.8918 1.9451 -2.5000 0.9666
7.8071 2.2613 -2.5000 0.9666
7.7097 2.5739 -2.5000 0.9666
7.0217 2.9917 -2.3476 0.9686
6.8956 3.2720 -2.3476 0.9686
6.7582 3.5470 -2.3476 0.9686
6.4509 4.0793 -2.3476 0.9686
6.2814 4.3357 -2.3476 0.9686
5.9122 4.8271 -2.3476 0.9686
3.1432 4.9705 -1.8089 0.9757
2.8624 4.9578 -1.7608 0.9763
3.5574 6.7780 -2.3544 0.9685
2.1063 4.9437 -1.6528 0.9778
1.8791 4.9547 -1.6299 0.9781
1.6539 4.9540 -1.6064 0.9784
1.2207 4.9526 -1.5689 0.9789
0.6168 7.6401 -2.3576 0.9684
0.1994 4.9494 -1.5236 0.9795
-0.0000 4.9488 -1.5221 0.9795
-0.9239 7.6087 -2.3575 0.9684
-0.8038 4.9462 -1.5413 0.9792
-1.6504 4.9436 -1.6030 0.9784
-2.7161 7.1616 -2.3558 0.9685
-2.3392 4.9297 -1.6783 0.9774
-3.1232 4.9389 -1.7974 0.9758
-4.3452 6.2951 -2.3527 0.9685
-4.5939 6.1133 -2.3521 0.9685
-4.0302 4.9361 -1.9600 0.9737
-5.2923 5.5099 -2.3499 0.9685
-5.7146 5.0627 -2.3482 0.9686
-6.1017 4.5851 -2.3476 0.9686
-6.6099 3.8162 -2.3476 0.9686
-7.0217 2.9917 -2.3476 0.9686
-7.1643 2.7171 -2.3567 0.9684
-7.7096 2.5738 -2.5000 0.9666
-8.0227 1.3038 -2.5000 0.9666
-8.0687 0.9797 -2.5000 0.9666
-8.1016 0.6540 -2.5000 0.9666
-8.1214 0.3273 -2.5000 0.9666
-7.4965 -0.6052 -2.5000 0.9688
-7.4660 -0.9065 -2.5000 0.9688
-7.4235 -1.2064 -2.5000 0.9688
-7.3689 -1.5044 -2.5000 0.9688
-7.1338 -2.3816 -2.5000 0.9688
-7.0321 -2.6670 -2.5000 0.9688
-6.9191 -2.9479 -2.5000 0.9688
-6.5133 -3.7604 -2.5000 0.9688
-6.1896 -4.2724 -2.5000 0.9688
-5.8257 -4.7566 -2.5000 0.9688
-5.4241 -5.2099 -2.5000 0.9688
-4.5181 -6.0125 -2.5000 0.9688
-3.4951 -6.6594 -2.5000 0.9688
-2.9479 -6.9191 -2.5000 0.9688
-2.3816 -7.1338 -2.5000 0.9688
-2.0925 -7.2239 -2.5000 0.9688
-1.7999 -7.3023 -2.5000 0.9688
-1.5044 -7.3689 -2.5000 0.9688
-0.6052 -7.4965 -2.5000 0.9688
1.7999 -7.3023 -2.5000 0.9688
2.6669 -7.0322 -2.5000 0.9688
2.9479 -6.9191 -2.5000 0.9688
3.4951 -6.6594 -2.5000 0.9688
4.2723 -6.1896 -2.5000 0.9688
4.9873 -5.6295 -2.5000 0.9688
5.2099 -5.4241 -2.5000 0.9688
5.4241 -5.2099 -2.5000 0.9688
6.0125 -4.5181 -2.5000 0.9688
6.1896 -4.2724 -2.5000 0.9688
6.5133 -3.7604 -2.5000 0.9688
6.6594 -3.4951 -2.5000 0.9688
6.7948 -3.2242 -2.5000 0.9688
6.9191 -2.9479 -2.5000 0.9688
7.0321 -2.6670 -2.5000 0.9688
7.1338 -2.3816 -2.5000 0.9688
7.2240 -2.0925 -2.5000 0.9688
7.4235 -1.2064 -2.5000 0.9688
6.5004 -0.5248 -2.1678 0.9729
6.5007 0.5248 -2.1679 0.9729
7.3023 1.7999 -2.5000 0.9688
7.2240 2.0924 -2.5000 0.9688
7.1338 2.3816 -2.5000 0.9688
6.4973 2.7682 -2.3476 0.9707
6.3805 3.0276 -2.3476 0.9707
6.1162 3.5312 -2.3476 0.9707
5.9691 3.7746 -2.3476 0.9707
5.8123 4.0119 -2.3476 0.9707
5.6460 4.2427 -2.3476 0.9707
5.4706 4.4666 -2.3476 0.9707
4.8939 5.0951 -2.3483 0.9707
4.3965 4.9626 -2.2038 0.9724
3.7275 4.9605 -2.0625 0.9742
4.0177 5.8206 -2.3510 0.9706
2.8624 4.9578 -1.9029 0.9762
3.2891 6.2668 -2.3526 0.9706
1.6539 4.9540 -1.7361 0.9782
1.0085 4.9402 -1.6760 0.9790
0.3987 4.9383 -1.6469 0.9793
0.1990 4.9377 -1.6426 0.9794
-0.1989 4.9364 -1.6422 0.9794
-0.3985 4.9358 -1.6460 0.9793
-0.5993 4.9352 -1.6525 0.9793
-0.8020 4.9346 -1.6618 0.9791
-1.0073 4.9339 -1.6739 0.9790
-1.2159 4.9332 -1.6889 0.9788
-1.9707 6.8037 -2.3545 0.9706
-1.6504 4.9436 -1.7324 0.9783
-2.5111 6.6212 -2.3539 0.9706
-2.3447 4.9414 -1.8181 0.9772
-3.1232 4.9389 -1.9424 0.9757
-4.2477 5.6527 -2.3504 0.9706
-4.3720 4.9350 -2.1916 0.9726
-5.6460 4.2427 -2.3476 0.9707
-5.8123 4.0119 -2.3476 0.9707
-5.9691 3.7746 -2.3476 0.9707
-6.1162 3.5312 -2.3476 0.9707
-6.3805 3.0276 -2.3476 0.9707
-6.4973 2.7682 -2.3476 0.9707
-7.0321 2.6669 -2.5000 0.9688
-7.1338 2.3816 -2.5000 0.9688
-7.2239 2.0924 -2.5000 0.9688
-7.3023 1.7999 -2.5000 0.9688
-7.3689 1.5044 -2.5000 0.9688
-7.4235 1.2064 -2.5000 0.9688
-7.5148 0.3028 -2.5000 0.9688
-6.9909 -0.0000 -2.5000 0.9707
-6.9399 -0.8427 -2.5000 0.9707
-6.9003 -1.1214 -2.5000 0.9707
-6.6311 -2.2138 -2.5000 0.9707
-6.5366 -2.4790 -2.5000 0.9707
-6.3159 -2.9969 -2.5000 0.9707
-6.1901 -3.2488 -2.5000 0.9707
-6.0543 -3.4954 -2.5000 0.9707
-5.4152 -4.4213 -2.5000 0.9707
-4.8427 -5.0418 -2.5000 0.9707
-4.6358 -5.2327 -2.5000 0.9707
-4.4213 -5.4152 -2.5000 0.9707
-4.1997 -5.5888 -2.5000 0.9707
-3.2488 -6.1901 -2.5000 0.9707
-2.9969 -6.3159 -2.5000 0.9707
-2.7402 -6.4315 -2.5000 0.9707
-2.2138 -6.6311 -2.5000 0.9707
-1.6730 -6.7877 -2.5000 0.9707
-1.1214 -6.9003 -2.5000 0.9707
-0.8427 -6.9399 -2.5000 0.9707
-0.2815 -6.9852 -2.5000 0.9707
0.2815 -6.9852 -2.5000 0.9707
1.3984 -6.8496 -2.5000 0.9707
1.6730 -6.7877 -2.5000 0.9707
1.9450 -6.7149 -2.5000 0.9707
2.4790 -6.5366 -2.5000 0.9707
2.9969 -6.3159 -2.5000 0.9707
3.4954 -6.0543 -2.5000 0.9707
4.4213 -5.4152 -2.5000 0.9707
4.8427 -5.0418 -2.5000 0.9707
5.0418 -4.8428 -2.5000 0.9707
5.4152 -4.4213 -2.5000 0.9707
5.5888 -4.1997 -2.5000 0.9707
5.7534 -3.9713 -2.5000 0.9707
5.9086 -3.7364 -2.5000 0.9707
6.0543 -3.4954 -2.5000 0.9707
6.1901 -3.2488 -2.5000 0.9707
6.3159 -2.9969 -2.5000 0.9707
6.6311 -2.2138 -2.5000 0.9707
6.7149 -1.9450 -2.5000 0.9707
6.9003 -1.1214 -2.5000 0.9707
6.9852 -0.2815 -2.5000 0.9707
6.9909 0.0000 -2.5000 0.9707
6.9399 0.8427 -2.5000 0.9707
6.9003 1.1214 -2.5000 0.9707
6.8496 1.3984 -2.5000 0.9707
6.7877 1.6730 -2.5000 0.9707
6.7149 1.9450 -2.5000 0.9707
5.4026 3.7292 -2.3476 0.9725
5.2481 3.9437 -2.3476 0.9725
4.3534 4.9140 -2.3477 0.9725
4.0509 4.9615 -2.2905 0.9732
3.7275 4.9605 -2.2189 0.9740
3.7322 5.4070 -2.3495 0.9725
3.0552 5.8212 -2.3510 0.9725
2.3517 4.9562 -1.9618 0.9770
1.8790 4.9547 -1.8950 0.9777
1.6539 4.9540 -1.8677 0.9781
1.0109 4.9520 -1.8074 0.9788
0.7933 6.5334 -2.3536 0.9724
0.1994 4.9494 -1.7714 0.9792
0.0000 4.9488 -1.7697 0.9792
-0.2650 6.5765 -2.3537 0.9724
-0.5296 6.5604 -2.3537 0.9724
-0.7933 6.5334 -2.3536 0.9724
-1.8305 6.3195 -2.3528 0.9724
-1.6504 4.9436 -1.8638 0.9781
-2.3325 6.1501 -2.3522 0.9724
-2.1087 4.9493 -1.9239 0.9774
-2.8520 4.9398 -2.0398 0.9761
-4.0302 4.9361 -2.2788 0.9733
-4.3534 4.9140 -2.3477 0.9725
-4.5475 4.7345 -2.3476 0.9725
-4.9137 4.3532 -2.3476 0.9725
-5.0850 4.1518 -2.3476 0.9725
-5.2481 3.9437 -2.3476 0.9725
-5.5484 3.5086 -2.3476 0.9725
-5.8128 3.0508 -2.3476 0.9725
-6.3228 2.6939 -2.4578 0.9712
-6.5366 2.4790 -2.5000 0.9707
-6.7877 1.6730 -2.5000 0.9707
-6.9682 0.5625 -2.5000 0.9707
-6.5237 -0.0000 -2.5000 0.9724
-6.5183 -0.2627 -2.5000 0.9724
-6.5025 -0.5250 -2.5000 0.9724
-6.4761 -0.7863 -2.5000 0.9724
-6.4392 -1.0465 -2.5000 0.9724
-6.2661 -1.8150 -2.5000 0.9724
-6.1879 -2.0658 -2.5000 0.9724
-6.0997 -2.3133 -2.5000 0.9724
-6.0016 -2.5570 -2.5000 0.9724
-5.8938 -2.7966 -2.5000 0.9724
-5.7764 -3.0317 -2.5000 0.9724
-5.6496 -3.2618 -2.5000 0.9724
-5.2153 -3.9190 -2.5000 0.9724
-5.0533 -4.1258 -2.5000 0.9724
-4.8830 -4.3260 -2.5000 0.9724
-4.5191 -4.7049 -2.5000 0.9724
-4.3260 -4.8830 -2.5000 0.9724
-3.7059 -5.3689 -2.5000 0.9724
-3.4867 -5.5137 -2.5000 0.9724
-2.3133 -6.0997 -2.5000 0.9724
-2.0658 -6.1879 -2.5000 0.9724
-1.8150 -6.2661 -2.5000 0.9724
-1.5612 -6.3341 -2.5000 0.9724
-1.3049 -6.3918 -2.5000 0.9724
-1.0465 -6.4392 -2.5000 0.9724
-0.7863 -6.4761 -2.5000 0.9724
-0.2627 -6.5184 -2.5000 0.9724
2.3133 -6.0997 -2.5000 0.9724
2.5571 -6.0016 -2.5000 0.9724
2.7966 -5.8938 -2.5000 0.9724
3.0317 -5.7764 -2.5000 0.9724
3.4867 -5.5137 -2.5000 0.9724
4.1259 -5.0533 -2.5000 0.9724
4.3260 -4.8830 -2.5000 0.9724
4.7049 -4.5191 -2.5000 0.9724
5.0533 -4.1259 -2.5000 0.9724
5.2153 -3.9190 -2.5000 0.9724
5.5137 -3.4867 -2.5000 0.9724
5.7764 -3.0317 -2.5000 0.9724
5.8938 -2.7966 -2.5000 0.9724
6.0016 -2.5571 -2.5000 0.9724
6.1879 -2.0658 -2.5000 0.9724
6.4392 -1.0465 -2.5000 0.9724
6.4761 -0.7863 -2.5000 0.9724
6.5025 -0.5249 -2.5000 0.9724
6.5025 0.5249 -2.5000 0.9724
6.4761 0.7863 -2.5000 0.9724
6.2661 1.8150 -2.5000 0.9724
6.1879 2.0658 -2.5000 0.9724
6.0016 2.5571 -2.5000 0.9724
5.7068 2.7079 -2.4207 0.9733
5.4243 2.8469 -2.3476 0.9741
5.0416 3.4800 -2.3476 0.9741
4.7452 3.8743 -2.3476 0.9741
4.5854 4.0623 -2.3476 0.9741
4.4181 4.2436 -2.3476 0.9741
4.0623 4.5854 -2.3476 0.9741
3.8743 4.7452 -2.3476 0.9741
3.6802 4.8975 -2.3476 0.9741
2.8624 4.9578 -2.1938 0.9758
2.3517 4.9562 -2.1023 0.9768
2.4040 5.6424 -2.3503 0.9741
1.8791 4.9547 -2.0307 0.9776
1.6539 4.9540 -2.0014 0.9779
1.2207 4.9526 -1.9547 0.9784
0.7398 6.0927 -2.3520 0.9741
-0.4939 6.1178 -2.3521 0.9741
-0.7398 6.0927 -2.3520 0.9741
-1.0097 4.9456 -1.9343 0.9786
-1.4685 5.9578 -2.3515 0.9741
-1.7070 5.8933 -2.3512 0.9741
-2.1752 5.7354 -2.3507 0.9741
-2.3447 4.9414 -2.0960 0.9768
-2.8520 4.9398 -2.1859 0.9759
-3.1232 4.9389 -2.2394 0.9753
-3.4808 5.0428 -2.3482 0.9741
-3.8743 4.7452 -2.3476 0.9741
-4.0623 4.5854 -2.3476 0.9741
-4.4181 4.2436 -2.3476 0.9741
-4.7452 3.8743 -2.3476 0.9741
-5.0416 3.4800 -2.3476 0.9741
-5.4243 2.8469 -2.3476 0.9741
-5.6946 2.7021 -2.4155 0.9734
-6.0016 2.5571 -2.5000 0.9724
-6.0997 2.3133 -2.5000 0.9724
-6.3341 1.5612 -2.5000 0.9724
-6.3918 1.3049 -2.5000 0.9724
-6.4761 0.7863 -2.5000 0.9724
-6.5184 0.2627 -2.5000 0.9724
-2.6499 -0.2139 -1.0881 0.9886
-2.6602 -0.3230 -1.0968 0.9885
-2.8591 -0.4646 -1.1855 0.9876
-5.9849 -1.2218 -2.5000 0.9739
-5.7940 -1.9343 -2.5000 0.9739
-5.6195 -2.3943 -2.5000 0.9739
-5.4086 -2.8387 -2.5000 0.9739
-5.2900 -3.0542 -2.5000 0.9739
-5.0271 -3.4699 -2.5000 0.9739
-4.7315 -3.8632 -2.5000 0.9739
-4.5721 -4.0506 -2.5000 0.9739
-4.0506 -4.5722 -2.5000 0.9739
-3.8632 -4.7316 -2.5000 0.9739
-3.6695 -4.8833 -2.5000 0.9739
-3.4699 -5.0271 -2.5000 0.9739
-3.0542 -5.2900 -2.5000 0.9739
-1.9343 -5.7940 -2.5000 0.9739
-1.2218 -5.9849 -2.5000 0.9739
-0.9798 -6.0292 -2.5000 0.9739
-0.7363 -6.0638 -2.5000 0.9739
-0.4915 -6.0885 -2.5000 0.9739
-0.2459 -6.1034 -2.5000 0.9739
0.0000 -6.1083 -2.5000 0.9739
0.2460 -6.1034 -2.5000 0.9739
0.4915 -6.0885 -2.5000 0.9739
1.4618 -5.9308 -2.5000 0.9739
1.9343 -5.7940 -2.5000 0.9739
2.1660 -5.7114 -2.5000 0.9739
2.3942 -5.6195 -2.5000 0.9739
2.6186 -5.5186 -2.5000 0.9739
3.0542 -5.2900 -2.5000 0.9739
3.4699 -5.0271 -2.5000 0.9739
3.8632 -4.7315 -2.5000 0.9739
4.0506 -4.5721 -2.5000 0.9739
4.2314 -4.4053 -2.5000 0.9739
4.4053 -4.2314 -2.5000 0.9739
4.5721 -4.0506 -2.5000 0.9739
5.0271 -3.4699 -2.5000 0.9739
5.1627 -3.2647 -2.5000 0.9739
5.2900 -3.0542 -2.5000 0.9739
5.5186 -2.6186 -2.5000 0.9739
5.6195 -2.3943 -2.5000 0.9739
5.7114 -2.1660 -2.5000 0.9739
5.7940 -1.9343 -2.5000 0.9739
5.8672 -1.6994 -2.5000 0.9739
5.9849 -1.2218 -2.5000 0.9739
6.0292 -0.9798 -2.5000 0.9739
6.0638 -0.7363 -2.5000 0.9739
6.0885 -0.4915 -2.5000 0.9739
6.1034 0.2460 -2.5000 0.9739
6.0885 0.4915 -2.5000 0.9739
6.0638 0.7363 -2.5000 0.9739
6.0292 0.9799 -2.5000 0.9739
5.9849 1.2218 -2.5000 0.9739
5.1699 2.7133 -2.3896 0.9751
4.8480 3.0657 -2.3476 0.9755
4.7206 3.2584 -2.3476 0.9755
4.2934 3.8036 -2.3476 0.9755
3.9734 4.1368 -2.3476 0.9755
3.2584 4.7206 -2.3476 0.9755
3.0655 4.8477 -2.3475 0.9755
2.8556 4.9461 -2.3374 0.9756
2.6664 5.0805 -2.3483 0.9755
2.2497 5.2802 -2.3490 0.9755
1.8790 4.9547 -2.1687 0.9774
1.5974 5.5149 -2.3499 0.9755
1.0109 4.9520 -2.0685 0.9784
0.6923 5.7013 -2.3505 0.9755
-0.6923 5.7013 -2.3506 0.9755
-1.6504 4.9436 -2.1330 0.9777
-2.0355 5.3672 -2.3493 0.9755
-2.1089 4.9497 -2.2020 0.9770
-2.3447 4.9414 -2.2385 0.9766
-2.6665 5.0805 -2.3483 0.9755
-3.2584 4.7206 -2.3476 0.9755
-3.6277 4.4431 -2.3476 0.9755
-3.8036 4.2934 -2.3476 0.9755
-4.4431 3.6277 -2.3476 0.9755
-4.5856 3.4458 -2.3476 0.9755
-4.7206 3.2584 -2.3476 0.9755
-4.9789 2.8746 -2.3530 0.9755
-5.5186 2.6186 -2.5000 0.9739
-5.6195 2.3943 -2.5000 0.9739
-5.7114 2.1660 -2.5000 0.9739
-5.8671 1.6994 -2.5000 0.9739
-5.9308 1.4618 -2.5000 0.9739
-5.9849 1.2218 -2.5000 0.9739
-2.8591 0.4646 -1.1855 0.9876
-2.6602 0.3230 -1.0968 0.9885
-2.4020 0.0000 -1.0468 0.9896
-2.4011 -0.0968 -1.0473 0.9896
-5.5696 -1.3728 -2.5000 0.9753
-5.5098 -1.5960 -2.5000 0.9753
-5.4411 -1.8165 -2.5000 0.9753
-5.3636 -2.0341 -2.5000 0.9753
-5.2773 -2.2484 -2.5000 0.9753
-5.1825 -2.4591 -2.5000 0.9753
-4.9678 -2.8682 -2.5000 0.9753
-4.8483 -3.0659 -2.5000 0.9753
-4.7209 -3.2586 -2.5000 0.9753
-4.2937 -3.8039 -2.5000 0.9753
-4.1370 -3.9737 -2.5000 0.9753
-3.9737 -4.1370 -2.5000 0.9753
-3.4461 -4.5858 -2.5000 0.9753
-2.6658 -5.0793 -2.5000 0.9753
-2.4591 -5.1825 -2.5000 0.9753
-2.2484 -5.2773 -2.5000 0.9753
-1.8165 -5.4411 -2.5000 0.9753
-1.5959 -5.5098 -2.5000 0.9753
-1.1474 -5.6204 -2.5000 0.9753
-0.9202 -5.6620 -2.5000 0.9753
-0.0000 -5.7363 -2.5000 0.9753
0.9202 -5.6620 -2.5000 0.9753
1.1474 -5.6204 -2.5000 0.9753
1.3728 -5.5696 -2.5000 0.9753
2.0341 -5.3636 -2.5000 0.9753
2.2484 -5.2773 -2.5000 0.9753
2.6658 -5.0793 -2.5000 0.9753
3.0659 -4.8483 -2.5000 0.9753
3.4460 -4.5859 -2.5000 0.9753
3.8039 -4.2937 -2.5000 0.9753
3.9737 -4.1371 -2.5000 0.9753
4.4434 -3.6279 -2.5000 0.9753
4.7209 -3.2586 -2.5000 0.9753
4.8483 -3.0659 -2.5000 0.9753
4.9678 -2.8682 -2.5000 0.9753
5.0792 -2.6658 -2.5000 0.9753
5.1825 -2.4591 -2.5000 0.9753
5.3635 -2.0341 -2.5000 0.9753
5.4411 -1.8165 -2.5000 0.9753
5.5098 -1.5959 -2.5000 0.9753
5.5696 -1.3728 -2.5000 0.9753
5.6204 -1.1474 -2.5000 0.9753
5.7317 0.2310 -2.5000 0.9753
5.7177 0.4616 -2.5000 0.9753
5.6621 0.9202 -2.5000 0.9753
5.6204 1.1474 -2.5000 0.9753
5.5696 1.3728 -2.5000 0.9753
5.2773 2.2484 -2.5000 0.9753
5.0792 2.6658 -2.5000 0.9753
4.5527 2.8790 -2.3476 0.9768
4.4331 3.0600 -2.3476 0.9768
4.1725 3.4067 -2.3476 0.9768
3.7315 3.8849 -2.3476 0.9768
3.5720 4.0320 -2.3476 0.9768
3.4067 4.1725 -2.3476 0.9768
3.2360 4.3063 -2.3476 0.9768
3.0600 4.4331 -2.3476 0.9768
2.8790 4.5527 -2.3476 0.9768
2.5033 4.7696 -2.3476 0.9768
1.6539 4.9540 -2.2762 0.9775
1.2207 4.9526 -2.2230 0.9780
0.6498 5.3512 -2.3493 0.9768
0.4338 5.3732 -2.3494 0.9768
0.1994 4.9494 -2.1588 0.9786
-0.2171 5.3864 -2.3494 0.9768
-0.4338 5.3732 -2.3494 0.9768
-0.6498 5.3512 -2.3493 0.9768
-0.8038 4.9462 -2.1839 0.9784
-1.0097 4.9456 -2.1998 0.9782
-1.6504 4.9436 -2.2714 0.9775
-2.1007 4.9305 -2.3357 0.9769
-2.3092 4.8664 -2.3475 0.9768
-2.8790 4.5527 -2.3476 0.9768
-3.2360 4.3063 -2.3476 0.9768
-3.4067 4.1725 -2.3476 0.9768
-3.7314 3.8849 -2.3476 0.9768
-3.8849 3.7315 -2.3476 0.9768
-4.1725 3.4067 -2.3476 0.9768
-4.3063 3.2360 -2.3476 0.9768
-4.5527 2.8790 -2.3476 0.9768
-5.1825 2.4591 -2.5000 0.9753
-5.2773 2.2484 -2.5000 0.9753
-5.3636 2.0341 -2.5000 0.9753
-5.4411 1.8165 -2.5000 0.9753
-5.5099 1.5959 -2.5000 0.9753
-5.5696 1.3728 -2.5000 0.9753
-2.4095 0.2926 -1.0578 0.9895
-2.2422 -0.2723 -1.0455 0.9901
-2.2449 -0.3648 -1.0528 0.9900
-2.3009 -0.4697 -1.0870 0.9897
-5.2439 -1.2925 -2.5000 0.9765
-5.1876 -1.5026 -2.5000 0.9765
-5.0499 -1.9152 -2.5000 0.9765
-4.8794 -2.3153 -2.5000 0.9765
-4.7822 -2.5099 -2.5000 0.9765
-4.6773 -2.7004 -2.5000 0.9765
-4.5648 -2.8866 -2.5000 0.9765
-4.0426 -3.5815 -2.5000 0.9765
-3.5814 -4.0426 -2.5000 0.9765
-3.4158 -4.1836 -2.5000 0.9765
-3.0680 -4.4448 -2.5000 0.9765
-2.8866 -4.5648 -2.5000 0.9765
-2.7004 -4.6773 -2.5000 0.9765
-2.3153 -4.8794 -2.5000 0.9765
-1.9152 -5.0499 -2.5000 0.9765
-1.7103 -5.1229 -2.5000 0.9765
-1.2925 -5.2439 -2.5000 0.9765
-1.0803 -5.2917 -2.5000 0.9765
-0.8664 -5.3309 -2.5000 0.9765
-0.6510 -5.3615 -2.5000 0.9765
-0.4346 -5.3834 -2.5000 0.9765
-0.2175 -5.3965 -2.5000 0.9765
0.2175 -5.3965 -2.5000 0.9765
0.4346 -5.3834 -2.5000 0.9765
0.6510 -5.3615 -2.5000 0.9765
0.8664 -5.3309 -2.5000 0.9765
1.2925 -5.2439 -2.5000 0.9765
1.7103 -5.1229 -2.5000 0.9765
1.9152 -5.0499 -2.5000 0.9765
2.1170 -4.9687 -2.5000 0.9765
2.8866 -4.5648 -2.5000 0.9765
3.2445 -4.3177 -2.5000 0.9765
3.7413 -3.8951 -2.5000 0.9765
3.8951 -3.7413 -2.5000 0.9765
4.0426 -3.5815 -2.5000 0.9765
4.1836 -3.4158 -2.5000 0.9765
4.3177 -3.2445 -2.5000 0.9765
4.4448 -3.0681 -2.5000 0.9765
4.5648 -2.8866 -2.5000 0.9765
4.7822 -2.5099 -2.5000 0.9765
4.9687 -2.1170 -2.5000 0.9765
5.0499 -1.9152 -2.5000 0.9765
5.1876 -1.5026 -2.5000 0.9765
5.2439 -1.2925 -2.5000 0.9765
5.3834 -0.4346 -2.5000 0.9765
5.4009 0.0000 -2.5000 0.9765
5.3965 0.2175 -2.5000 0.9765
5.3834 0.4346 -2.5000 0.9765
5.3309 0.8664 -2.5000 0.9765
5.2917 1.0803 -2.5000 0.9765
5.2439 1.2925 -2.5000 0.9765
5.0499 1.9152 -2.5000 0.9765
4.9687 2.1169 -2.5000 0.9765
4.8794 2.3153 -2.5000 0.9765
4.0545 3.0467 -2.3476 0.9779
3.5132 3.6577 -2.3476 0.9779
2.8810 4.1739 -2.3476 0.9779
2.7106 4.2865 -2.3476 0.9779
2.3569 4.4907 -2.3476 0.9779
2.1742 4.5820 -2.3476 0.9779
1.4110 4.8713 -2.3475 0.9779
1.2138 4.9246 -2.3477 0.9779
0.6115 5.0358 -2.3481 0.9779
0.4082 5.0565 -2.3482 0.9779
-0.4082 5.0566 -2.3482 0.9779
-0.8020 4.9346 -2.3141 0.9782
-1.2138 4.9246 -2.3477 0.9779
-1.4110 4.8713 -2.3475 0.9779
-1.6060 4.8106 -2.3476 0.9779
-2.1742 4.5820 -2.3476 0.9779
-2.5358 4.3922 -2.3476 0.9779
-2.7106 4.2865 -2.3476 0.9779
-2.8810 4.1739 -2.3476 0.9779
-3.0467 4.0545 -2.3476 0.9779
-3.2075 3.9285 -2.3476 0.9779
-3.3631 3.7962 -2.3476 0.9779
-3.6577 3.5133 -2.3476 0.9779
-3.9285 3.2075 -2.3476 0.9779
-4.0545 3.0467 -2.3476 0.9779
-4.1739 2.8810 -2.3476 0.9779
-4.3012 2.7199 -2.3556 0.9778
-4.7822 2.5099 -2.5000 0.9765
-4.8794 2.3153 -2.5000 0.9765
-4.9687 2.1170 -2.5000 0.9765
-5.0499 1.9152 -2.5000 0.9765
-5.1876 1.5026 -2.5000 0.9765
-5.2439 1.2925 -2.5000 0.9765
-2.3009 0.4697 -1.0870 0.9897
-2.2422 0.2722 -1.0455 0.9901
-2.2376 0.1806 -1.0391 0.9902
-2.2399 0.0903 -1.0377 0.9902
-2.0990 0.0000 -1.0296 0.9907
-2.0926 -0.1689 -1.0298 0.9907
-2.0953 -0.3405 -1.0413 0.9906
-4.6887 -1.9977 -2.5000 0.9775
-4.6045 -2.1848 -2.5000 0.9775
-4.5128 -2.3685 -2.5000 0.9775
-4.4137 -2.5483 -2.5000 0.9775
-4.0744 -3.0617 -2.5000 0.9775
-3.9478 -3.2233 -2.5000 0.9775
-3.8148 -3.3796 -2.5000 0.9775
-3.3797 -3.8148 -2.5000 0.9775
-3.0617 -4.0744 -2.5000 0.9775
-2.5483 -4.4138 -2.5000 0.9775
-2.3685 -4.5128 -2.5000 0.9775
-2.1849 -4.6045 -2.5000 0.9775
-1.8073 -4.7654 -2.5000 0.9775
-1.6139 -4.8343 -2.5000 0.9775
-1.4180 -4.8953 -2.5000 0.9775
-1.2197 -4.9485 -2.5000 0.9775
-0.8175 -5.0306 -2.5000 0.9775
-0.4101 -5.0800 -2.5000 0.9775
0.4101 -5.0801 -2.5000 0.9775
0.6143 -5.0594 -2.5000 0.9775
1.0194 -4.9936 -2.5000 0.9775
1.2197 -4.9485 -2.5000 0.9775
1.8073 -4.7654 -2.5000 0.9775
1.9977 -4.6887 -2.5000 0.9775
2.1849 -4.6045 -2.5000 0.9775
2.3685 -4.5128 -2.5000 0.9775
2.8952 -4.1944 -2.5000 0.9775
3.2233 -3.9478 -2.5000 0.9775
3.3797 -3.8148 -2.5000 0.9775
3.8149 -3.3796 -2.5000 0.9775
3.9478 -3.2233 -2.5000 0.9775
4.0744 -3.0617 -2.5000 0.9775
4.1944 -2.8952 -2.5000 0.9775
4.3076 -2.7239 -2.5000 0.9775
4.4138 -2.5483 -2.5000 0.9775
4.8343 -1.6139 -2.5000 0.9775
4.8954 -1.4180 -2.5000 0.9775
4.9936 -1.0194 -2.5000 0.9775
5.0800 -0.4101 -2.5000 0.9775
5.0966 -0.0000 -2.5000 0.9775
5.0924 0.2052 -2.5000 0.9775
5.0594 0.6143 -2.5000 0.9775
4.9936 1.0194 -2.5000 0.9775
4.9485 1.2197 -2.5000 0.9775
4.8343 1.6139 -2.5000 0.9775
4.6888 1.9977 -2.5000 0.9775
4.5128 2.3685 -2.5000 0.9775
4.4138 2.5483 -2.5000 0.9775
3.8334 2.8806 -2.3521 0.9789
3.7072 3.0268 -2.3476 0.9789
3.5823 3.1736 -2.3476 0.9789
3.1736 3.5823 -2.3476 0.9789
3.0268 3.7072 -2.3476 0.9789
2.8751 3.8260 -2.3476 0.9789
2.2241 4.2377 -2.3476 0.9789
1.8759 4.4029 -2.3476 0.9789
1.5155 4.5396 -2.3476 0.9789
1.1453 4.6468 -2.3476 0.9789
0.9573 4.6892 -2.3476 0.9789
0.7677 4.7239 -2.3476 0.9789
0.5769 4.7510 -2.3476 0.9789
0.1927 4.7820 -2.3476 0.9789
-0.5769 4.7510 -2.3476 0.9789
-0.7677 4.7239 -2.3476 0.9789
-1.1453 4.6468 -2.3476 0.9789
-1.3315 4.5969 -2.3476 0.9789
-1.6971 4.4749 -2.3476 0.9789
-1.8759 4.4029 -2.3476 0.9789
-2.0517 4.3238 -2.3476 0.9789
-2.8751 3.8260 -2.3476 0.9789
-3.4516 3.3153 -2.3476 0.9789
-3.5823 3.1736 -2.3476 0.9789
-3.7072 3.0268 -2.3476 0.9789
-3.9460 2.7238 -2.3520 0.9789
-4.2581 2.6926 -2.4713 0.9778
-4.6045 2.1849 -2.5000 0.9775
-4.7654 1.8073 -2.5000 0.9775
-4.8343 1.6139 -2.5000 0.9775
-4.8953 1.4180 -2.5000 0.9775
-4.9485 1.2197 -2.5000 0.9775
-2.1259 0.4340 -1.0643 0.9904
-2.0970 0.0845 -1.0295 0.9907
-1.9780 0.0000 -1.0261 0.9911
-1.9769 -0.0797 -1.0264 0.9911
-1.9739 -0.2397 -1.0315 0.9911
-1.9734 -0.3207 -1.0372 0.9910
-2.4132 -0.5948 -1.2894 0.9889
-4.6287 -1.3407 -2.5000 0.9785
-4.4334 -1.8889 -2.5000 0.9785
-4.3537 -2.0659 -2.5000 0.9785
-4.2670 -2.2395 -2.5000 0.9785
-3.8525 -2.8950 -2.5000 0.9785
-3.6070 -3.1956 -2.5000 0.9785
-3.3382 -3.4755 -2.5000 0.9785
-3.1956 -3.6071 -2.5000 0.9785
-2.8950 -3.8525 -2.5000 0.9785
-2.7375 -3.9659 -2.5000 0.9785
-2.5756 -4.0730 -2.5000 0.9785
-2.2395 -4.2670 -2.5000 0.9785
-2.0659 -4.3537 -2.5000 0.9785
-1.8889 -4.4334 -2.5000 0.9785
-1.7088 -4.5058 -2.5000 0.9785
-1.5260 -4.5710 -2.5000 0.9785
-0.7730 -4.7566 -2.5000 0.9785
-0.5809 -4.7838 -2.5000 0.9785
-0.3878 -4.8033 -2.5000 0.9785
-0.1940 -4.8151 -2.5000 0.9785
0.0000 -4.8190 -2.5000 0.9785
0.1940 -4.8151 -2.5000 0.9785
0.3878 -4.8034 -2.5000 0.9785
0.5809 -4.7838 -2.5000 0.9785
0.7730 -4.7566 -2.5000 0.9785
0.9639 -4.7216 -2.5000 0.9785
1.7088 -4.5058 -2.5000 0.9785
2.2395 -4.2670 -2.5000 0.9785
2.5756 -4.0730 -2.5000 0.9785
3.1956 -3.6071 -2.5000 0.9785
3.3382 -3.4754 -2.5000 0.9785
3.6070 -3.1956 -2.5000 0.9785
3.7328 -3.0477 -2.5000 0.9785
3.8525 -2.8950 -2.5000 0.9785
4.1734 -2.4095 -2.5000 0.9785
4.4334 -1.8889 -2.5000 0.9785
4.5058 -1.7088 -2.5000 0.9785
4.5710 -1.5260 -2.5000 0.9785
4.6790 -1.1533 -2.5000 0.9785
4.7216 -0.9639 -2.5000 0.9785
4.7566 -0.7730 -2.5000 0.9785
4.8151 0.1940 -2.5000 0.9785
4.7839 0.5808 -2.5000 0.9785
4.7566 0.7730 -2.5000 0.9785
4.6287 1.3407 -2.5000 0.9785
4.5710 1.5260 -2.5000 0.9785
4.3537 2.0658 -2.5000 0.9785
4.0730 2.5756 -2.5000 0.9785
3.9098 2.6987 -2.4646 0.9788
3.6277 2.7261 -2.3541 0.9798
3.3872 3.0008 -2.3476 0.9798
3.1347 3.2636 -2.3476 0.9798
3.0008 3.3872 -2.3476 0.9798
2.8619 3.5053 -2.3476 0.9798
2.7185 3.6176 -2.3476 0.9798
2.5706 3.7242 -2.3476 0.9798
2.4186 3.8247 -2.3476 0.9798
2.2626 3.9189 -2.3476 0.9798
2.1030 4.0069 -2.3476 0.9798
1.9399 4.0883 -2.3476 0.9798
1.7737 4.1631 -2.3476 0.9798
1.6047 4.2311 -2.3476 0.9798
1.4330 4.2923 -2.3476 0.9798
1.0830 4.3937 -2.3476 0.9798
0.3641 4.5105 -2.3476 0.9798
0.1822 4.5215 -2.3476 0.9798
-0.1822 4.5215 -2.3476 0.9798
-0.7259 4.4666 -2.3476 0.9798
-0.9052 4.4337 -2.3476 0.9798
-1.0829 4.3937 -2.3476 0.9798
-1.2590 4.3465 -2.3476 0.9798
-1.4330 4.2923 -2.3476 0.9798
-2.4186 3.8247 -2.3476 0.9798
