ply
format ascii 1.0
element vertex 1571
property float32 x
property float32 y
property float32 z
property float32 I
end_header
-5.2327 8.2749 -0.0551 0.9616
-5.6883 8.2409 -0.0564 0.9607
-32.5414 26.5692 -0.2366 0.8453
-31.5118 23.6796 -0.2219 0.8541
-12.1740 7.6983 -0.0811 0.9440
-31.1476 9.0220 -0.1826 0.8783
-31.1476 7.6772 -0.1806 0.8796
-31.0658 6.3422 -0.1785 0.8809
-37.0032 6.0136 -0.2111 0.8607
-44.7929 -16.9877 -1.3489 0.8256
-39.5418 -16.8472 -1.2103 0.8420
-31.4720 -16.5178 -1.0008 0.8674
-28.5652 -16.4921 -0.9288 0.8764
-26.1584 -19.6567 -0.9213 0.8773
-21.3147 -17.4029 -0.7748 0.8957
-20.3991 -18.0720 -0.7674 0.8967
-16.8461 -16.1809 -0.6577 0.9108
-21.2609 -22.1350 -0.8642 0.8844
-19.9213 -22.4865 -0.8459 0.8867
-17.9480 -23.8844 -0.8412 0.8873
-11.0879 -16.0636 -0.5496 0.9249
-18.6082 -35.4551 -1.1275 0.8519
-11.5131 -24.2633 -0.7562 0.8981
-9.5809 -22.4872 -0.6883 0.9068
-8.5316 -22.4962 -0.6775 0.9082
-7.5596 -22.6439 -0.6722 0.9089
-6.8101 -23.5112 -0.6892 0.9067
-6.3955 -25.9475 -0.7525 0.8986
-5.5212 -27.0447 -0.7772 0.8954
-4.8735 -29.9877 -0.8555 0.8855
-3.2939 -27.1277 -0.7695 0.8964
-2.0298 -25.1435 -0.7103 0.9040
-1.0170 -25.2372 -0.7112 0.9039
0.0000 -25.0722 -0.7060 0.9045
1.2740 -15.7812 -0.4458 0.9386
7.7228 -23.1324 -0.6867 0.9070
10.0593 -26.5241 -0.7988 0.8927
11.3432 -26.6234 -0.8149 0.8907
7.4166 -15.6303 -0.4871 0.9331
7.9844 -15.2130 -0.4838 0.9336
24.2625 -38.3681 -1.2783 0.8339
24.2020 -25.1970 -0.9838 0.8695
24.2130 -21.4509 -0.9109 0.8786
24.3984 -19.9207 -0.8869 0.8816
17.0444 8.9456 -0.5420 0.9259
13.7620 8.7025 -0.4585 0.9369
11.6649 8.0517 -0.3991 0.9449
10.9365 8.2183 -0.3852 0.9467
10.4948 8.5687 -0.3815 0.9472
9.9643 9.5708 -0.3890 0.9462
7.8811 9.6526 -0.3509 0.9514
7.2534 9.6526 -0.3400 0.9528
5.5729 9.6526 -0.3138 0.9564
5.0661 9.6526 -0.3070 0.9573
3.7313 8.7577 -0.2680 0.9626
3.1576 8.3260 -0.2507 0.9650
2.3969 8.2749 -0.2426 0.9661
1.1012 9.0692 -0.2572 0.9641
0.3879 9.6248 -0.2712 0.9622
-1.9764 9.6811 -0.2782 0.9612
-2.3885 9.6903 -0.2810 0.9608
-3.2132 9.6247 -0.2857 0.9602
-3.6502 9.6247 -0.2898 0.9596
-4.1271 8.6977 -0.2711 0.9622
-4.4142 8.4106 -0.2675 0.9627
-4.7766 8.2733 -0.2690 0.9625
-5.1386 8.1260 -0.2707 0.9623
-5.6160 8.1362 -0.2784 0.9612
-31.7339 35.8202 -1.3475 0.8257
-32.0372 33.3542 -1.3022 0.8310
-31.5569 27.9570 -1.1871 0.8448
-31.5118 23.6796 -1.1099 0.8541
-31.7044 21.8840 -1.0847 0.8571
-12.1201 7.6643 -0.4038 0.9442
-25.5126 14.7297 -0.8295 0.8888
-31.0658 11.7817 -0.9355 0.8755
-31.1476 7.6772 -0.9033 0.8795
-31.0658 6.3422 -0.8928 0.8808
-49.2955 0.0000 -2.5000 0.8208
-49.1356 -3.9667 -2.5000 0.8208
-45.6562 -13.2245 -2.4106 0.8266
-43.3165 -16.4278 -2.3494 0.8307
-35.1510 -16.6794 -1.9732 0.8557
-31.7634 -16.6707 -1.8192 0.8662
-28.5499 -16.4833 -1.6719 0.8763
-26.0446 -16.4696 -1.5628 0.8839
-21.8919 -16.4507 -1.3888 0.8961
-20.0011 -16.3304 -1.3095 0.9018
-18.3913 -16.2933 -1.2461 0.9063
-16.8323 -16.1677 -1.1836 0.9108
-21.2660 -28.3000 -1.7953 0.8678
-23.4032 -37.0092 -2.2207 0.8391
-13.0973 -24.9548 -1.4293 0.8933
-11.2290 -23.6647 -1.3284 0.9004
-6.6552 -22.9762 -1.2131 0.9086
-3.6840 -45.6339 -2.3218 0.8325
1.0736 -26.6394 -1.3521 0.8987
5.5199 -45.4604 -2.3224 0.8324
9.1631 -44.8838 -2.3232 0.8324
7.2765 -29.5219 -1.5420 0.8853
7.9608 -27.4835 -1.4511 0.8917
8.8470 -26.4997 -1.4168 0.8941
10.1421 -26.7424 -1.4505 0.8918
21.3939 -40.7628 -2.3347 0.8316
23.1025 -40.0147 -2.3433 0.8311
10.7304 -15.5456 -0.9580 0.9271
11.6656 -15.5241 -0.9848 0.9252
12.7180 -15.5767 -1.0198 0.9226
13.7781 -15.5523 -1.0537 0.9202
14.9131 -15.5262 -1.0918 0.9174
17.4592 -15.4675 -1.1829 0.9108
39.4092 -29.6141 -2.5000 0.8208
22.8219 -15.7528 -1.4063 0.8949
41.6643 -26.3463 -2.5000 0.8208
42.6553 -24.6271 -2.4979 0.8210
42.6693 -20.2468 -2.3952 0.8277
42.6829 -18.1855 -2.3529 0.8304
48.9361 -5.9419 -2.5000 0.8208
49.2555 -1.9849 -2.5000 0.8208
33.3574 0.0000 -1.6917 0.8749
49.2555 1.9849 -2.5000 0.8208
46.1403 3.7248 -2.3476 0.8308
45.6910 7.4255 -2.3476 0.8308
44.5319 12.8988 -2.3512 0.8305
43.3092 16.4250 -2.3490 0.8307
19.2081 8.1838 -1.0589 0.9198
13.8902 8.0195 -0.8134 0.9378
8.9168 9.2834 -0.6528 0.9498
7.8811 9.6526 -0.6320 0.9513
7.2534 9.6526 -0.6123 0.9528
6.1039 9.6526 -0.5792 0.9553
5.5729 9.6526 -0.5653 0.9563
3.7073 8.7013 -0.4797 0.9628
2.3369 8.0678 -0.4260 0.9669
2.0016 8.1209 -0.4242 0.9671
1.6897 8.2767 -0.4284 0.9667
1.3836 8.5134 -0.4374 0.9660
1.0937 9.0074 -0.4602 0.9643
0.7769 9.6242 -0.4897 0.9621
0.3878 9.6233 -0.4884 0.9622
-0.7816 9.6811 -0.4926 0.9618
-1.9764 9.6811 -0.5011 0.9612
-2.9018 8.6919 -0.4647 0.9640
-3.8903 9.1307 -0.5033 0.9610
-4.7766 8.2733 -0.4845 0.9625
-5.6160 8.1362 -0.5014 0.9612
-6.4538 8.5884 -0.5448 0.9579
-28.8951 35.3900 -2.3170 0.8328
-30.3306 34.2362 -2.3196 0.8326
-30.5489 31.8048 -2.2365 0.8381
-31.5118 23.6796 -1.9990 0.8540
-31.7805 21.9365 -1.9584 0.8567
-25.5060 14.7259 -1.4936 0.8887
-32.7568 17.1921 -1.8761 0.8623
-32.2225 13.7287 -1.7763 0.8691
-31.0658 11.7817 -1.6850 0.8754
-31.1476 9.0220 -1.6446 0.8782
-46.1494 3.7256 -2.3480 0.8307
-34.0682 -1.3729 -2.5000 0.8722
-33.9853 -2.7436 -2.5000 0.8722
-33.6544 -5.4694 -2.5000 0.8722
-33.4069 -6.8201 -2.5000 0.8722
-33.1051 -8.1597 -2.5000 0.8722
-32.7497 -9.4861 -2.5000 0.8722
-32.3412 -10.7971 -2.5000 0.8722
-30.9992 -13.2075 -2.4706 0.8736
-28.9269 -13.7260 -2.3476 0.8795
-27.7391 -16.0152 -2.3485 0.8794
-27.0818 -17.1255 -2.3494 0.8794
-26.3747 -18.2052 -2.3498 0.8794
-21.7865 -16.3715 -1.9982 0.8965
-16.8323 -16.1677 -1.7113 0.9106
-15.5879 -16.2287 -1.6499 0.9137
-14.3522 -16.2003 -1.5869 0.9169
-12.2120 -16.2512 -1.4905 0.9217
-10.1837 -16.1042 -1.3971 0.9264
-8.4309 -16.0639 -1.3302 0.9298
-7.6135 -16.0450 -1.3022 0.9312
-6.8284 -16.0270 -1.2773 0.9325
-5.3391 -15.9927 -1.2362 0.9346
-3.9339 -15.9603 -1.2053 0.9362
-2.5888 -15.9293 -1.1833 0.9373
-1.9323 -15.9142 -1.1754 0.9377
-1.2835 -15.8992 -1.1696 0.9380
0.0000 -15.8697 -1.1636 0.9383
0.6389 -15.8550 -1.1635 0.9383
1.2715 -15.7507 -1.1586 0.9386
2.5695 -15.8105 -1.1745 0.9378
3.8894 -15.7801 -1.1917 0.9369
4.5662 -15.7645 -1.2034 0.9363
5.2576 -15.7486 -1.2174 0.9356
5.9664 -15.7322 -1.2337 0.9347
8.2295 -15.6801 -1.2984 0.9314
15.9688 -27.6588 -2.3417 0.8798
10.7826 -15.6213 -1.3918 0.9267
11.8381 -15.7537 -1.4449 0.9240
12.7180 -15.5767 -1.4745 0.9225
14.9131 -15.5262 -1.5785 0.9173
17.4592 -15.4675 -1.7103 0.9107
18.9035 -15.4342 -1.7894 0.9068
28.8177 -18.2232 -2.5000 0.8722
31.3676 -13.3645 -2.5000 0.8722
32.3413 -10.7971 -2.5000 0.8722
32.7498 -9.4861 -2.5000 0.8722
33.4069 -6.8201 -2.5000 0.8722
33.9854 -2.7436 -2.5000 0.8722
34.0683 -1.3729 -2.5000 0.8722
34.0959 0.0000 -2.5000 0.8722
34.0683 1.3729 -2.5000 0.8722
33.8473 4.1098 -2.5000 0.8722
33.4070 6.8201 -2.5000 0.8722
33.1053 8.1597 -2.5000 0.8722
31.8804 12.0906 -2.5000 0.8722
19.3591 8.2481 -1.5429 0.9191
15.3179 8.0394 -1.2684 0.9330
11.8557 8.1834 -1.0563 0.9439
11.0257 8.2853 -1.0112 0.9462
10.5538 8.6169 -0.9990 0.9468
9.5695 8.4778 -0.9374 0.9500
8.8317 8.4830 -0.8979 0.9521
8.2199 8.5578 -0.8700 0.9535
8.1425 9.1909 -0.9003 0.9519
7.8811 9.6526 -0.9137 0.9512
7.2534 9.6526 -0.8853 0.9527
4.6171 8.7971 -0.7285 0.9609
4.2770 9.0137 -0.7315 0.9608
3.1576 8.3260 -0.6529 0.9649
0.7769 9.6242 -0.7080 0.9620
-0.3901 9.6811 -0.7104 0.9619
-1.1641 9.5870 -0.7081 0.9620
-2.7876 9.6238 -0.7346 0.9606
-2.9018 8.6918 -0.6719 0.9639
-3.1710 8.3612 -0.6557 0.9648
-4.2122 8.8771 -0.7204 0.9614
-5.6883 8.2409 -0.7342 0.9606
-6.6212 8.8112 -0.8081 0.9568
-21.2309 26.0032 -2.4614 0.8740
-24.2104 23.2545 -2.4614 0.8740
-25.9365 17.9027 -2.3108 0.8813
-25.4993 14.7220 -2.1589 0.8886
-29.8554 11.3226 -2.3412 0.8798
-30.3104 10.1191 -2.3430 0.8797
-31.0747 7.6593 -2.3467 0.8795
-31.0658 6.3422 -2.3248 0.8806
-31.7862 3.8595 -2.3477 0.8795
-26.0343 0.0000 -2.4994 0.9007
-25.2835 -6.2318 -2.5000 0.9006
-24.7000 -8.2461 -2.5000 0.9006
-24.3480 -9.2340 -2.5000 0.9006
-23.5260 -11.1632 -2.5000 0.9006
-23.0574 -12.1015 -2.5000 0.9006
-22.5515 -13.0201 -2.5000 0.9006
-19.5487 -14.6899 -2.3476 0.9064
-16.8323 -16.1677 -2.2407 0.9105
-16.9623 -17.6596 -2.3508 0.9063
-14.3522 -16.2003 -2.0779 0.9167
-13.2055 -16.1738 -2.0046 0.9195
-11.0980 -16.0782 -1.8756 0.9245
-12.2250 -21.1742 -2.3473 0.9064
-8.4309 -16.0639 -1.7417 0.9297
-6.8284 -16.0270 -1.6725 0.9324
-7.4919 -22.4409 -2.2713 0.9093
-4.6330 -15.9949 -1.5987 0.9353
-3.9724 -16.1167 -1.5936 0.9355
-4.8852 -23.9294 -2.3447 0.9065
-2.9436 -24.2424 -2.3445 0.9065
-1.9650 -24.3407 -2.3444 0.9065
-0.9833 -24.3999 -2.3444 0.9065
0.9833 -24.4008 -2.3445 0.9065
2.5695 -15.8105 -1.5378 0.9377
4.5662 -15.7645 -1.5757 0.9362
5.9664 -15.7322 -1.6153 0.9346
12.2307 -21.1842 -2.3484 0.9064
9.8913 -15.6418 -1.7768 0.9283
11.7224 -15.5997 -1.8734 0.9246
16.2430 -18.3345 -2.3516 0.9063
16.9719 -17.6696 -2.3521 0.9062
16.9968 -16.3257 -2.2626 0.9096
18.3034 -16.2152 -2.3476 0.9064
19.5486 -14.6898 -2.3476 0.9064
20.1242 -13.8907 -2.3476 0.9064
20.8821 -13.2050 -2.3720 0.9055
23.5260 -11.1632 -2.5000 0.9006
24.3480 -9.2340 -2.5000 0.9006
24.7001 -8.2461 -2.5000 0.9006
25.2835 -6.2318 -2.5000 0.9006
25.5139 -5.2087 -2.5000 0.9006
11.4799 -1.8657 -1.1166 0.9543
26.0402 0.0000 -2.5000 0.9006
26.0190 1.0485 -2.5000 0.9006
25.9557 2.0954 -2.5000 0.9006
25.8503 3.1388 -2.5000 0.9006
24.1361 3.9225 -2.3476 0.9064
22.9448 8.7018 -2.3559 0.9061
17.0417 7.2608 -1.7784 0.9283
15.3165 7.2678 -1.6276 0.9341
13.8013 7.9682 -1.5300 0.9380
11.9589 8.2546 -1.3951 0.9433
11.0257 8.2853 -1.3241 0.9461
10.6292 8.6785 -1.3174 0.9464
8.1425 8.4772 -1.1285 0.9539
7.2534 9.6526 -1.1592 0.9526
4.7598 8.2442 -0.9139 0.9625
4.3308 8.2517 -0.8947 0.9632
3.1576 8.3260 -0.8549 0.9649
2.0210 8.1995 -0.8108 0.9666
1.7105 8.3786 -0.8210 0.9662
1.3931 8.5723 -0.8338 0.9657
1.0937 9.0074 -0.8711 0.9642
0.3311 8.2160 -0.7894 0.9675
-0.0000 9.5853 -0.9202 0.9622
-0.3901 9.6811 -0.9302 0.9618
-0.7816 9.6811 -0.9325 0.9617
-1.1641 9.5870 -0.9272 0.9619
-2.3862 9.6811 -0.9573 0.9607
-3.0362 8.0059 -0.8220 0.9662
-3.9205 9.2019 -0.9603 0.9606
-4.4142 8.4106 -0.9119 0.9626
-5.6567 8.1951 -0.9560 0.9608
-16.2148 19.8595 -2.4614 0.9021
-17.0013 19.1905 -2.4614 0.9021
-19.1905 17.0013 -2.4614 0.9021
-20.4963 15.4019 -2.4614 0.9021
-23.5866 10.0493 -2.4614 0.9021
-25.1937 5.1433 -2.4686 0.9018
-25.8232 3.1355 -2.4974 0.9007
-25.9355 2.0937 -2.4980 0.9007
-26.0059 1.0480 -2.4987 0.9007
-20.9779 -1.6935 -2.5000 0.9187
-20.4346 -5.0367 -2.5000 0.9187
-20.2152 -5.8554 -2.5000 0.9187
-19.9630 -6.6646 -2.5000 0.9187
-19.3620 -8.2494 -2.5000 0.9187
-18.6354 -9.7806 -2.5000 0.9187
-14.9224 -13.2201 -2.3681 0.9228
-13.6904 -14.2532 -2.3476 0.9235
-12.4991 -15.3087 -2.3476 0.9235
-11.8746 -15.8022 -2.3480 0.9235
-11.0681 -16.0349 -2.3144 0.9245
-6.8284 -16.0270 -2.0694 0.9322
-6.0716 -16.0095 -2.0339 0.9334
-5.3391 -15.9927 -2.0028 0.9343
-3.2551 -15.9447 -1.9331 0.9366
-1.9397 -15.9747 -1.9115 0.9372
-0.6450 -16.0057 -1.9028 0.9375
0.6421 -15.9328 -1.8941 0.9378
1.2715 -15.7507 -1.8770 0.9383
3.2247 -15.7954 -1.9150 0.9371
3.8894 -15.7801 -1.9305 0.9366
4.5662 -15.7645 -1.9496 0.9360
5.2576 -15.7486 -1.9722 0.9353
5.9664 -15.7322 -1.9986 0.9345
7.7590 -18.2109 -2.3514 0.9234
9.1950 -17.5195 -2.3503 0.9234
9.8836 -17.1189 -2.3481 0.9235
11.2268 -16.2648 -2.3476 0.9235
13.1054 -14.7929 -2.3476 0.9235
13.6904 -14.2532 -2.3476 0.9235
16.8252 -12.6433 -2.5000 0.9187
18.2265 -10.5231 -2.5000 0.9187
18.6354 -9.7806 -2.5000 0.9187
19.0140 -9.0223 -2.5000 0.9187
20.2152 -5.8554 -2.5000 0.9187
20.4346 -5.0367 -2.5000 0.9187
10.8716 -1.7668 -1.3083 0.9566
10.9197 -1.3259 -1.3066 0.9567
21.0461 0.0000 -2.5000 0.9187
20.9779 1.6935 -2.5000 0.9187
20.8927 2.5368 -2.5000 0.9187
19.5072 3.1702 -2.3476 0.9235
19.1889 4.7296 -2.3476 0.9235
18.7461 6.2584 -2.3476 0.9235
17.0415 7.2607 -2.2004 0.9281
15.3160 7.2675 -2.0138 0.9340
13.8021 7.2439 -1.8516 0.9391
13.8012 7.9681 -1.8930 0.9378
13.8002 8.7267 -1.9395 0.9363
10.6292 8.6785 -1.6300 0.9462
9.5341 8.4464 -1.5130 0.9500
7.5775 7.8890 -1.2994 0.9569
7.8811 9.6526 -1.4802 0.9510
5.1935 8.2128 -1.1543 0.9616
4.3104 8.2128 -1.1018 0.9633
4.2229 8.8995 -1.1701 0.9611
3.1576 8.3260 -1.0577 0.9648
2.7325 8.1848 -1.0250 0.9658
2.0257 8.2186 -1.0055 0.9665
1.7105 8.3786 -1.0158 0.9661
-0.0000 9.5853 -1.1386 0.9621
-1.3042 8.0250 -0.9658 0.9678
-1.6370 8.0184 -0.9721 0.9676
-2.2992 9.3280 -1.1412 0.9620
-2.6745 9.2334 -1.1419 0.9620
-2.9408 8.8087 -1.1031 0.9633
-3.0241 7.9738 -1.0130 0.9662
-3.8903 9.1307 -1.1789 0.9608
-4.4394 8.4586 -1.1347 0.9623
-4.7766 8.2733 -1.1348 0.9622
-5.1428 8.1327 -1.1430 0.9620
-12.3015 15.0666 -2.3105 0.9246
-12.8900 14.5498 -2.3090 0.9247
-16.0508 13.1051 -2.4614 0.9199
-16.5655 12.4481 -2.4614 0.9199
-17.0533 11.7710 -2.4614 0.9199
-12.1201 7.6643 -1.7034 0.9439
-17.9451 10.3606 -2.4614 0.9199
-18.3478 9.6296 -2.4614 0.9199
-20.0106 5.7961 -2.4747 0.9195
-20.7587 3.3736 -2.4982 0.9188
-20.8821 2.5355 -2.4987 0.9188
-20.9719 1.6930 -2.4993 0.9187
-17.6298 -0.7105 -2.5000 0.9312
-17.5869 -1.4198 -2.5000 0.9312
-17.5155 -2.1268 -2.5000 0.9312
-17.4157 -2.8303 -2.5000 0.9312
-17.1314 -4.2225 -2.5000 0.9312
-16.9475 -4.9089 -2.5000 0.9312
-16.2322 -6.9159 -2.5000 0.9312
-15.9406 -7.5639 -2.5000 0.9312
-15.2803 -8.8221 -2.5000 0.9312
-14.5208 -10.0230 -2.5000 0.9312
-13.6672 -11.1589 -2.5000 0.9312
-13.2068 -11.7002 -2.5000 0.9312
-12.2225 -12.7250 -2.5000 0.9312
-8.2843 -14.3488 -2.3476 0.9353
-7.1028 -14.9689 -2.3476 0.9353
-6.4943 -15.2427 -2.3476 0.9353
-5.8753 -15.4919 -2.3476 0.9353
-1.9976 -16.4515 -2.3481 0.9352
-0.6673 -16.5591 -2.3481 0.9352
0.6673 -16.5588 -2.3481 0.9352
1.2715 -15.7507 -2.2390 0.9382
2.6582 -16.3562 -2.3479 0.9352
3.9653 -16.0877 -2.3477 0.9353
5.8753 -15.4918 -2.3476 0.9353
7.1028 -14.9688 -2.3476 0.9353
7.6998 -14.6707 -2.3476 0.9353
9.9534 -13.2456 -2.3476 0.9353
11.6816 -13.1858 -2.4960 0.9313
12.2225 -12.7250 -2.5000 0.9312
12.7250 -12.2225 -2.5000 0.9312
13.2068 -11.7002 -2.5000 0.9312
14.1055 -10.5996 -2.5000 0.9312
15.2803 -8.8221 -2.5000 0.9312
15.6231 -8.1996 -2.5000 0.9312
15.9406 -7.5639 -2.5000 0.9312
16.2322 -6.9159 -2.5000 0.9312
16.4975 -6.2567 -2.5000 0.9312
16.7361 -5.5873 -2.5000 0.9312
16.9475 -4.9089 -2.5000 0.9312
10.3598 -1.6836 -1.4871 0.9585
10.3873 -1.2613 -1.4826 0.9586
17.6298 -0.7105 -2.5000 0.9312
17.6441 0.0000 -2.5000 0.9312
17.6298 0.7105 -2.5000 0.9312
17.5869 1.4198 -2.5000 0.9312
16.2337 3.3141 -2.3476 0.9353
15.9144 4.6096 -2.3476 0.9353
15.7159 5.2467 -2.3476 0.9353
14.9363 7.0874 -2.3425 0.9354
13.8009 7.9680 -2.2580 0.9376
13.8000 8.7266 -2.3135 0.9362
11.0257 8.2853 -1.9541 0.9458
9.5341 8.4464 -1.8048 0.9498
8.7937 8.4465 -1.7276 0.9519
7.5819 7.8936 -1.5508 0.9567
7.3634 8.3115 -1.5733 0.9561
7.5146 9.2037 -1.6835 0.9531
7.2534 9.6526 -1.7108 0.9524
5.1935 8.2128 -1.3768 0.9615
4.3104 8.2128 -1.3142 0.9632
4.2229 8.8995 -1.3957 0.9610
2.7140 8.1294 -1.2143 0.9660
2.0210 8.1995 -1.1965 0.9665
0.7769 9.6242 -1.3681 0.9617
0.0000 8.9265 -1.2648 0.9646
-0.7177 8.8897 -1.2637 0.9646
-1.2758 7.8503 -1.1269 0.9684
-2.5372 8.7593 -1.2921 0.9638
-2.9238 8.7577 -1.3082 0.9634
-4.7766 8.2733 -1.3536 0.9621
-5.6883 8.2409 -1.4188 0.9604
-10.3303 12.6523 -2.3143 0.9361
-10.8302 12.2248 -2.3141 0.9361
-11.3072 11.7720 -2.3128 0.9362
-11.7656 11.3010 -2.3115 0.9362
-12.6237 10.3070 -2.3091 0.9363
-13.8877 10.4359 -2.4614 0.9322
-14.2967 9.8683 -2.4614 0.9322
-12.1203 7.6645 -2.0319 0.9437
-15.3819 8.0731 -2.4614 0.9322
-16.3273 6.1921 -2.4742 0.9319
-16.8416 4.8782 -2.4844 0.9316
-17.5131 2.1265 -2.4996 0.9312
-17.5869 1.4198 -2.5000 0.9312
-15.1631 -0.6111 -2.5000 0.9403
-15.1262 -1.2211 -2.5000 0.9403
-14.8687 -3.0355 -2.5000 0.9403
-14.3944 -4.8056 -2.5000 0.9403
-13.4372 -7.0524 -2.5000 0.9403
-12.8261 -8.1107 -2.5000 0.9403
-12.4891 -8.6206 -2.5000 0.9403
-11.3590 -10.0632 -2.5000 0.9403
-10.5124 -10.9446 -2.5000 0.9403
-10.0632 -11.3590 -2.5000 0.9403
-7.5877 -13.1423 -2.5000 0.9403
-6.9282 -13.2006 -2.4560 0.9414
-6.2678 -13.2091 -2.4086 0.9425
-5.6311 -13.2166 -2.3667 0.9434
-4.5126 -13.5169 -2.3476 0.9439
-3.9647 -13.6877 -2.3476 0.9439
-3.4103 -13.8362 -2.3476 0.9439
-2.2859 -14.0658 -2.3476 0.9439
-1.7177 -14.1464 -2.3476 0.9439
-1.1467 -14.2041 -2.3476 0.9439
0.0000 -14.2503 -2.3476 0.9439
0.5738 -14.2387 -2.3476 0.9439
1.1467 -14.2041 -2.3476 0.9439
1.7177 -14.1464 -2.3476 0.9439
2.8504 -13.9623 -2.3476 0.9439
3.4103 -13.8362 -2.3476 0.9439
5.0532 -13.3243 -2.3476 0.9439
6.2655 -13.2043 -2.4077 0.9425
6.9254 -13.1953 -2.4550 0.9414
7.5877 -13.1423 -2.5000 0.9403
8.1107 -12.8261 -2.5000 0.9403
9.5976 -11.7550 -2.5000 0.9403
10.5124 -10.9446 -2.5000 0.9403
11.3590 -10.0632 -2.5000 0.9403
12.1319 -9.1165 -2.5000 0.9403
12.8261 -8.1107 -2.5000 0.9403
13.4371 -7.0524 -2.5000 0.9403
13.9611 -5.9482 -2.5000 0.9403
14.1892 -5.3813 -2.5000 0.9403
14.3944 -4.8056 -2.5000 0.9403
14.5763 -4.2221 -2.5000 0.9403
14.7344 -3.6317 -2.5000 0.9403
10.2413 -1.6644 -1.7093 0.9588
10.2794 -1.2481 -1.7059 0.9589
10.8752 -0.4383 -1.7930 0.9568
15.1754 0.0000 -2.5000 0.9403
15.0648 1.8292 -2.5000 0.9403
14.9789 2.4343 -2.5000 0.9403
13.6877 3.9647 -2.3476 0.9439
13.5170 4.5126 -2.3476 0.9439
13.1100 5.5856 -2.3476 0.9439
12.6180 6.6224 -2.3476 0.9439
12.2999 7.1013 -2.3397 0.9440
11.9895 7.5817 -2.3369 0.9441
11.6799 8.0621 -2.3380 0.9441
9.5639 8.4729 -2.1049 0.9495
9.6275 9.2473 -2.1991 0.9473
7.5941 7.9062 -1.8060 0.9565
7.1108 8.7091 -1.8522 0.9554
5.6689 8.2128 -1.6440 0.9604
5.1935 8.2128 -1.6008 0.9614
4.3104 8.2128 -1.5280 0.9631
2.7626 8.2749 -1.4372 0.9653
2.3969 8.2749 -1.4192 0.9657
1.7105 8.3786 -1.4088 0.9659
0.7769 9.6242 -1.5906 0.9616
0.3101 7.6956 -1.2688 0.9693
-0.0000 8.5794 -1.4134 0.9658
-0.3458 8.5808 -1.4147 0.9658
-0.6929 8.5822 -1.4184 0.9657
-1.0423 8.5837 -1.4245 0.9656
-1.2484 7.6819 -1.2821 0.9689
-1.5363 7.5255 -1.2653 0.9693
-2.4855 8.5809 -1.4717 0.9644
-3.8903 9.1307 -1.6350 0.9606
-4.2122 8.8771 -1.6187 0.9610
-4.4142 8.4106 -1.5648 0.9622
-5.2327 8.2749 -1.6129 0.9611
-5.6883 8.2409 -1.6496 0.9602
-8.8849 10.8820 -2.3143 0.9446
-9.7317 10.1318 -2.3143 0.9446
-11.2228 8.4334 -2.3126 0.9447
-11.8558 7.4972 -2.3109 0.9447
-12.1410 7.0096 -2.3095 0.9448
-13.8227 5.8893 -2.4752 0.9409
-14.1024 5.3483 -2.4847 0.9407
-14.7304 3.6307 -2.4993 0.9404
-14.8662 3.0349 -2.4996 0.9403
-15.1262 1.2211 -2.5000 0.9403
-15.1631 0.6110 -2.5000 0.9403
-13.3006 0.0000 -2.5000 0.9473
-13.2574 -1.0702 -2.5000 0.9473
-13.2036 -1.6032 -2.5000 0.9473
-12.9141 -3.1830 -2.5000 0.9473
-12.6161 -4.2119 -2.5000 0.9473
-12.0164 -5.7019 -2.5000 0.9473
-11.7771 -6.1811 -2.5000 0.9473
-11.5186 -6.6503 -2.5000 0.9473
-11.2415 -7.1087 -2.5000 0.9473
-10.9462 -7.5556 -2.5000 0.9473
-10.3027 -8.4119 -2.5000 0.9473
-9.5924 -9.2136 -2.5000 0.9473
-9.2136 -9.5924 -2.5000 0.9473
-8.8199 -9.9556 -2.5000 0.9473
-7.5556 -10.9461 -2.5000 0.9473
-7.1087 -11.2415 -2.5000 0.9473
-5.7019 -12.0164 -2.5000 0.9473
-5.2134 -12.2362 -2.5000 0.9473
-2.6605 -13.0318 -2.5000 0.9473
-1.6017 -13.1908 -2.4976 0.9474
-1.0650 -13.1924 -2.4877 0.9476
-0.5317 -13.1933 -2.4818 0.9477
0.0000 -13.1934 -2.4798 0.9477
0.5317 -13.1929 -2.4818 0.9477
1.0649 -13.1916 -2.4876 0.9476
2.1336 -13.1283 -2.5000 0.9473
3.1830 -12.9141 -2.5000 0.9473
3.7004 -12.7754 -2.5000 0.9473
4.7164 -12.4362 -2.5000 0.9473
5.7018 -12.0164 -2.5000 0.9473
6.6503 -11.5186 -2.5000 0.9473
7.1087 -11.2415 -2.5000 0.9473
8.4119 -10.3027 -2.5000 0.9473
8.8201 -9.9556 -2.5000 0.9473
9.2136 -9.5924 -2.5000 0.9473
9.5923 -9.2136 -2.5000 0.9473
9.9557 -8.8199 -2.5000 0.9473
10.3027 -8.4119 -2.5000 0.9473
10.6330 -7.9902 -2.5000 0.9473
10.9462 -7.5556 -2.5000 0.9473
11.2415 -7.1087 -2.5000 0.9473
11.7771 -6.1811 -2.5000 0.9473
12.0164 -5.7018 -2.5000 0.9473
12.2362 -5.2134 -2.5000 0.9473
12.4362 -4.7164 -2.5000 0.9473
12.6161 -4.2119 -2.5000 0.9473
12.7754 -3.7005 -2.5000 0.9473
12.9141 -3.1830 -2.5000 0.9473
10.2204 -2.0865 -1.9607 0.9584
10.1699 -1.6528 -1.9366 0.9589
10.6922 -0.4309 -2.0113 0.9574
13.2898 0.5355 -2.5000 0.9473
13.1283 2.1336 -2.5000 0.9473
13.0318 2.6605 -2.5000 0.9473
12.1268 2.9890 -2.3476 0.9504
11.6781 4.4289 -2.3476 0.9504
11.4903 4.8956 -2.3476 0.9504
10.8164 6.2449 -2.3476 0.9504
10.5562 6.6753 -2.3476 0.9504
10.2514 7.0760 -2.3413 0.9506
9.3016 8.2405 -2.3358 0.9507
7.6068 7.9195 -2.0640 0.9563
6.6440 8.1375 -1.9746 0.9581
5.6689 8.2128 -1.8757 0.9602
5.1935 8.2128 -1.8264 0.9612
4.7417 8.2128 -1.7825 0.9621
4.3104 8.2128 -1.7434 0.9630
3.8651 9.0717 -1.8534 0.9607
2.3969 8.2749 -1.6193 0.9655
2.0210 8.1995 -1.5873 0.9662
1.7105 8.3786 -1.6073 0.9658
1.4262 8.7760 -1.6712 0.9645
0.7769 9.6243 -1.8149 0.9615
-0.0000 8.3955 -1.5780 0.9664
-0.6780 8.3983 -1.5837 0.9663
-1.0199 8.3996 -1.5904 0.9661
-2.4323 8.3972 -1.6432 0.9650
-2.9394 7.7505 -1.5580 0.9668
-3.1613 7.4199 -1.5160 0.9677
-4.7766 8.2733 -1.7956 0.9619
-5.2327 8.2749 -1.8402 0.9609
-5.6883 8.2409 -1.8821 0.9601
-7.4023 9.8507 -2.3160 0.9511
-7.7911 9.5424 -2.3155 0.9511
-8.1671 9.2188 -2.3150 0.9511
-9.5376 7.7872 -2.3143 0.9511
-10.1254 6.9891 -2.3125 0.9512
-10.4444 6.6046 -2.3227 0.9509
-11.4708 4.8873 -2.3436 0.9505
-12.3992 4.7024 -2.4925 0.9475
-12.6006 4.2067 -2.4969 0.9474
-12.7728 3.6997 -2.4995 0.9473
-13.0318 2.6604 -2.5000 0.9473
-13.2036 1.6032 -2.5000 0.9473
-13.2574 1.0702 -2.5000 0.9473
-13.2898 0.5356 -2.5000 0.9473
-11.7886 -0.9517 -2.5000 0.9528
-11.5880 -2.3657 -2.5000 0.9528
-11.4833 -2.8304 -2.5000 0.9528
-11.2183 -3.7452 -2.5000 0.9528
-10.8806 -4.6358 -2.5000 0.9528
-10.4723 -5.4963 -2.5000 0.9528
-10.2425 -5.9135 -2.5000 0.9528
-9.9960 -6.3211 -2.5000 0.9528
-9.4550 -7.1050 -2.5000 0.9528
-8.8526 -7.8427 -2.5000 0.9528
-8.1928 -8.5296 -2.5000 0.9528
-7.4799 -9.1612 -2.5000 0.9528
-7.1050 -9.4550 -2.5000 0.9528
-5.4962 -10.4723 -2.5000 0.9528
-3.2904 -11.3600 -2.5000 0.9528
-2.3657 -11.5880 -2.5000 0.9528
-0.4762 -11.8174 -2.5000 0.9528
0.4762 -11.8174 -2.5000 0.9528
1.8972 -11.6738 -2.5000 0.9528
2.3657 -11.5880 -2.5000 0.9528
2.8304 -11.4833 -2.5000 0.9528
3.2905 -11.3600 -2.5000 0.9528
3.7452 -11.2183 -2.5000 0.9528
5.0703 -10.6851 -2.5000 0.9528
5.4963 -10.4723 -2.5000 0.9528
6.3211 -9.9960 -2.5000 0.9528
7.1050 -9.4550 -2.5000 0.9528
7.4799 -9.1612 -2.5000 0.9528
7.8428 -8.8526 -2.5000 0.9528
8.1928 -8.5296 -2.5000 0.9528
9.4550 -7.1050 -2.5000 0.9528
9.7334 -6.7185 -2.5000 0.9528
9.9960 -6.3211 -2.5000 0.9528
10.2425 -5.9135 -2.5000 0.9528
11.0584 -4.1939 -2.5000 0.9528
10.1692 -2.0761 -2.1939 0.9585
10.1662 -1.6522 -2.1771 0.9588
10.2098 -1.2397 -2.1740 0.9588
10.7464 -0.4331 -2.2734 0.9570
11.8174 0.4762 -2.5000 0.9528
11.5880 2.3657 -2.5000 0.9528
11.0239 2.7171 -2.4000 0.9546
8.8786 6.6718 -2.3476 0.9556
8.5842 7.0088 -2.3425 0.9557
7.9579 7.6437 -2.3324 0.9559
7.3205 8.2632 -2.3335 0.9559
6.1972 8.2470 -2.1806 0.9587
5.6830 8.2332 -2.1147 0.9599
5.7230 9.0501 -2.2634 0.9572
2.7626 8.2749 -1.8440 0.9650
2.0210 8.1995 -1.7851 0.9661
1.4175 8.7221 -1.8679 0.9645
0.7770 9.6245 -2.0410 0.9613
0.2887 7.1652 -1.5158 0.9711
-0.0000 8.2043 -1.7342 0.9670
-0.3307 8.2056 -1.7359 0.9670
-0.6625 8.2070 -1.7404 0.9669
-1.4343 7.0258 -1.5157 0.9711
-2.0230 8.2077 -1.7869 0.9660
-2.7208 8.1498 -1.8162 0.9655
-2.9395 7.7508 -1.7522 0.9667
-3.0091 7.0625 -1.6227 0.9691
-4.2122 8.8771 -2.0770 0.9606
-4.4142 8.4106 -2.0078 0.9619
-5.6883 8.2409 -2.1167 0.9599
-6.5853 8.7634 -2.3171 0.9562
-6.9314 8.4894 -2.3167 0.9562
-7.8992 7.5873 -2.3152 0.9562
-8.1975 7.2624 -2.3150 0.9562
-10.0337 4.7610 -2.3476 0.9556
-10.3843 3.9382 -2.3476 0.9556
-10.5345 3.5169 -2.3476 0.9556
-11.4833 2.8304 -2.5000 0.9528
-11.5880 2.3657 -2.5000 0.9528
-11.6738 1.8972 -2.5000 0.9528
-11.7886 0.9517 -2.5000 0.9528
-11.8174 0.4762 -2.5000 0.9528
-10.6372 0.0000 -2.5000 0.9572
-10.6027 -0.8560 -2.5000 0.9572
-10.4994 -1.7063 -2.5000 0.9572
-10.4222 -2.1277 -2.5000 0.9572
-10.3281 -2.5457 -2.5000 0.9572
-10.2172 -2.9595 -2.5000 0.9572
-9.9459 -3.7720 -2.5000 0.9572
-8.9905 -5.6852 -2.5000 0.9572
-8.2396 -6.7274 -2.5000 0.9572
-7.3687 -7.6716 -2.5000 0.9572
-6.7275 -8.2396 -2.5000 0.9572
-6.3902 -8.5038 -2.5000 0.9572
-5.3186 -9.2121 -2.5000 0.9572
-4.9433 -9.4188 -2.5000 0.9572
-4.5601 -9.6102 -2.5000 0.9572
-4.1694 -9.7860 -2.5000 0.9572
-3.7720 -9.9460 -2.5000 0.9572
-2.9595 -10.2172 -2.5000 0.9572
-2.5457 -10.3281 -2.5000 0.9572
-2.1277 -10.4222 -2.5000 0.9572
-1.7063 -10.4994 -2.5000 0.9572
-1.2822 -10.5596 -2.5000 0.9572
-0.8560 -10.6027 -2.5000 0.9572
-0.4283 -10.6286 -2.5000 0.9572
0.0000 -10.6372 -2.5000 0.9572
0.4283 -10.6286 -2.5000 0.9572
2.1278 -10.4222 -2.5000 0.9572
2.5456 -10.3281 -2.5000 0.9572
2.9595 -10.2172 -2.5000 0.9572
3.3685 -10.0898 -2.5000 0.9572
3.7721 -9.9459 -2.5000 0.9572
4.1694 -9.7860 -2.5000 0.9572
5.3186 -9.2121 -2.5000 0.9572
5.6852 -8.9905 -2.5000 0.9572
6.3902 -8.5038 -2.5000 0.9572
6.7274 -8.2396 -2.5000 0.9572
7.0538 -7.9621 -2.5000 0.9572
7.3686 -7.6716 -2.5000 0.9572
7.9621 -7.0538 -2.5000 0.9572
8.2396 -6.7274 -2.5000 0.9572
8.5038 -6.3902 -2.5000 0.9572
8.7542 -6.0426 -2.5000 0.9572
8.9904 -5.6852 -2.5000 0.9572
9.4188 -4.9433 -2.5000 0.9572
9.7860 -4.1694 -2.5000 0.9572
10.2172 -2.9595 -2.5000 0.9572
10.4222 -2.1277 -2.5000 0.9572
10.4994 -1.7063 -2.5000 0.9572
10.5596 -1.2822 -2.5000 0.9572
10.6027 -0.8559 -2.5000 0.9572
10.6286 0.4283 -2.5000 0.9572
9.5944 2.7790 -2.3476 0.9598
9.4747 3.1631 -2.3476 0.9598
9.3396 3.5421 -2.3476 0.9598
9.1894 3.9153 -2.3476 0.9598
8.8446 4.6420 -2.3476 0.9598
8.6505 4.9944 -2.3476 0.9598
8.4424 5.3386 -2.3476 0.9598
7.4767 6.6238 -2.3476 0.9598
7.2040 6.9194 -2.3476 0.9598
6.2715 7.6812 -2.3306 0.9601
5.9581 7.9288 -2.3309 0.9601
4.3628 8.3126 -2.2064 0.9622
4.2537 8.9646 -2.3320 0.9600
3.7073 8.7013 -2.2229 0.9619
3.1576 8.3260 -2.0928 0.9641
2.7626 8.2749 -2.0503 0.9648
-0.3232 8.0195 -1.8863 0.9676
-0.6475 8.0208 -1.8912 0.9675
-1.2135 7.4667 -1.7779 0.9694
-1.9772 8.0218 -1.9417 0.9666
-2.6275 7.8703 -1.9501 0.9665
-2.9396 7.7512 -1.9483 0.9665
-4.1271 8.6977 -2.2626 0.9612
-4.4142 8.4106 -2.2324 0.9617
-4.7766 8.2733 -2.2452 0.9615
-5.1386 8.1260 -2.2596 0.9613
-5.6028 8.1170 -2.3180 0.9603
-5.9231 7.8822 -2.3172 0.9603
-6.5367 7.3784 -2.3167 0.9603
-7.2039 6.9194 -2.3476 0.9598
-7.4767 6.6237 -2.3476 0.9598
-7.7373 6.3173 -2.3476 0.9598
-7.9854 6.0007 -2.3476 0.9598
-8.6505 4.9944 -2.3476 0.9598
-8.8446 4.6420 -2.3476 0.9598
-9.0243 4.2821 -2.3476 0.9598
-9.1894 3.9152 -2.3476 0.9598
-10.3281 2.5456 -2.5000 0.9572
-10.4994 1.7063 -2.5000 0.9572
-10.5596 1.2822 -2.5000 0.9572
-10.6286 0.4283 -2.5000 0.9572
-9.6477 -0.3888 -2.5000 0.9609
-9.6242 -0.7770 -2.5000 0.9609
-9.5851 -1.1638 -2.5000 0.9609
-9.5305 -1.5489 -2.5000 0.9609
-9.4604 -1.9314 -2.5000 0.9609
-9.3750 -2.3107 -2.5000 0.9609
-8.7233 -4.1393 -2.5000 0.9609
-8.5496 -4.4871 -2.5000 0.9609
-8.3619 -4.8278 -2.5000 0.9609
-8.1607 -5.1606 -2.5000 0.9609
-7.7190 -5.8005 -2.5000 0.9609
-7.4792 -6.1066 -2.5000 0.9609
-7.2273 -6.4028 -2.5000 0.9609
-6.6886 -6.9636 -2.5000 0.9609
-6.4028 -7.2272 -2.5000 0.9609
-6.1066 -7.4792 -2.5000 0.9609
-5.4850 -7.9463 -2.5000 0.9609
-4.8277 -8.3619 -2.5000 0.9609
-4.4872 -8.5495 -2.5000 0.9609
-3.0576 -9.1586 -2.5000 0.9609
-1.9314 -9.4604 -2.5000 0.9609
-1.1638 -9.5851 -2.5000 0.9609
-0.7770 -9.6242 -2.5000 0.9609
0.0000 -9.6555 -2.5000 0.9609
0.7769 -9.6242 -2.5000 0.9609
1.1638 -9.5851 -2.5000 0.9609
1.5489 -9.5305 -2.5000 0.9609
2.3107 -9.3749 -2.5000 0.9609
3.0576 -9.1586 -2.5000 0.9609
3.4239 -9.0280 -2.5000 0.9609
4.1392 -8.7233 -2.5000 0.9609
4.8277 -8.3619 -2.5000 0.9609
6.1066 -7.4792 -2.5000 0.9609
6.4028 -7.2273 -2.5000 0.9609
7.2273 -6.4028 -2.5000 0.9609
7.4792 -6.1066 -2.5000 0.9609
7.7190 -5.8005 -2.5000 0.9609
8.1607 -5.1606 -2.5000 0.9609
8.7233 -4.1392 -2.5000 0.9609
8.8829 -3.7846 -2.5000 0.9609
9.1586 -3.0576 -2.5000 0.9609
9.2743 -2.6863 -2.5000 0.9609
9.3749 -2.3107 -2.5000 0.9609
9.4604 -1.9314 -2.5000 0.9609
9.6242 -0.7770 -2.5000 0.9609
9.6555 -0.0000 -2.5000 0.9609
9.5851 1.1638 -2.5000 0.9609
9.4604 1.9314 -2.5000 0.9609
9.3749 2.3107 -2.5000 0.9609
9.2743 2.6863 -2.5000 0.9609
8.6003 2.8712 -2.3476 0.9632
8.4777 3.2152 -2.3476 0.9632
8.0283 4.2136 -2.3476 0.9632
7.6632 4.8460 -2.3476 0.9632
7.2485 5.4469 -2.3476 0.9632
7.0233 5.7343 -2.3476 0.9632
6.0125 6.7867 -2.3476 0.9632
5.4055 7.1931 -2.3297 0.9635
5.1104 7.4037 -2.3293 0.9635
4.8073 7.6022 -2.3289 0.9635
4.4972 7.7894 -2.3288 0.9635
4.1802 7.9647 -2.3290 0.9635
3.8563 8.1269 -2.3291 0.9635
2.7140 8.1294 -2.2191 0.9652
2.3504 8.1147 -2.1874 0.9657
1.7105 8.3786 -2.2141 0.9653
1.0838 8.9260 -2.3281 0.9635
0.7233 8.9604 -2.3276 0.9635
0.2850 7.0714 -1.8324 0.9712
-0.0000 7.8373 -2.0292 0.9681
-0.3159 7.8386 -2.0312 0.9681
-0.6329 7.8399 -2.0365 0.9680
-1.2135 7.4670 -1.9587 0.9692
-1.4440 7.0731 -1.8691 0.9706
-1.9323 7.8395 -2.0905 0.9672
-2.2463 7.7551 -2.0905 0.9672
-3.8413 8.0953 -2.3200 0.9637
-4.1626 7.9311 -2.3191 0.9637
-4.4779 7.7560 -2.3188 0.9637
-5.0864 7.3689 -2.3183 0.9637
-5.4001 7.1862 -2.3274 0.9635
-5.7344 7.0231 -2.3475 0.9632
-6.5391 6.2809 -2.3476 0.9632
-7.0233 5.7343 -2.3476 0.9632
-7.8522 4.5335 -2.3476 0.9632
-9.2743 2.6863 -2.5000 0.9609
-9.3749 2.3107 -2.5000 0.9609
-9.6242 0.7769 -2.5000 0.9609
-9.6477 0.3888 -2.5000 0.9609
-8.8310 0.0000 -2.5000 0.9640
-8.8023 -0.7106 -2.5000 0.9640
-8.7166 -1.4166 -2.5000 0.9640
-8.5744 -2.1134 -2.5000 0.9640
-8.2571 -3.1315 -2.5000 0.9640
-8.1243 -3.4614 -2.5000 0.9640
-7.0599 -5.3051 -2.5000 0.9640
-6.6101 -5.8560 -2.5000 0.9640
-6.1174 -6.3689 -2.5000 0.9640
-5.8560 -6.6101 -2.5000 0.9640
-5.3051 -7.0599 -2.5000 0.9640
-5.0166 -7.2677 -2.5000 0.9640
-4.7198 -7.4638 -2.5000 0.9640
-4.4155 -7.6478 -2.5000 0.9640
-4.1040 -7.8194 -2.5000 0.9640
-3.4614 -8.1243 -2.5000 0.9640
-3.1315 -8.2571 -2.5000 0.9640
-2.4569 -8.4823 -2.5000 0.9640
-2.1134 -8.5744 -2.5000 0.9640
-1.4166 -8.7166 -2.5000 0.9640
-1.0645 -8.7666 -2.5000 0.9640
-0.3556 -8.8238 -2.5000 0.9640
0.3556 -8.8238 -2.5000 0.9640
0.7106 -8.8023 -2.5000 0.9640
1.7664 -8.6525 -2.5000 0.9640
3.4614 -8.1243 -2.5000 0.9640
3.7858 -7.9783 -2.5000 0.9640
4.1039 -7.8194 -2.5000 0.9640
4.4155 -7.6479 -2.5000 0.9640
4.7198 -7.4639 -2.5000 0.9640
5.0166 -7.2677 -2.5000 0.9640
5.5851 -6.8405 -2.5000 0.9640
6.1174 -6.3689 -2.5000 0.9640
6.6101 -5.8560 -2.5000 0.9640
7.2677 -5.0166 -2.5000 0.9640
7.6478 -4.4155 -2.5000 0.9640
7.8194 -4.1040 -2.5000 0.9640
7.9783 -3.7858 -2.5000 0.9640
8.2571 -3.1315 -2.5000 0.9640
8.6525 -1.7664 -2.5000 0.9640
8.7666 -1.0645 -2.5000 0.9640
8.8238 -0.3556 -2.5000 0.9640
8.8238 0.3556 -2.5000 0.9640
8.8023 0.7106 -2.5000 0.9640
8.6525 1.7664 -2.5000 0.9640
8.5744 2.1134 -2.5000 0.9640
8.4823 2.4569 -2.5000 0.9640
8.1220 2.7115 -2.4240 0.9650
7.7537 2.9406 -2.3476 0.9661
7.6290 3.2504 -2.3476 0.9661
7.4920 3.5550 -2.3476 0.9661
7.3428 3.8538 -2.3476 0.9661
7.1816 4.1463 -2.3476 0.9661
6.8247 4.7107 -2.3476 0.9661
6.4235 5.2446 -2.3476 0.9661
6.2071 5.4990 -2.3476 0.9661
5.7445 5.9807 -2.3476 0.9661
5.2446 6.4235 -2.3476 0.9661
4.9817 6.6295 -2.3476 0.9661
4.7108 6.8247 -2.3476 0.9661
4.4276 7.0017 -2.3452 0.9661
4.1225 7.1404 -2.3341 0.9663
3.5246 7.4280 -2.3276 0.9664
2.9146 7.6851 -2.3268 0.9664
2.6026 7.7956 -2.3266 0.9664
2.2865 7.8938 -2.3265 0.9664
1.6437 8.0513 -2.3263 0.9664
1.3180 8.1102 -2.3261 0.9664
0.6610 8.1881 -2.3255 0.9664
-0.0000 7.6512 -2.1660 0.9687
-0.6179 7.6537 -2.1738 0.9686
-0.9295 7.6550 -2.1830 0.9685
-1.2136 7.4674 -2.1417 0.9690
-1.8847 7.6466 -2.2295 0.9678
-2.4979 7.4821 -2.2331 0.9677
-3.5132 7.4039 -2.3200 0.9665
-4.1231 7.1415 -2.3345 0.9663
-4.7108 6.8247 -2.3476 0.9661
-4.9817 6.6295 -2.3476 0.9661
-5.2446 6.4235 -2.3476 0.9661
-5.9807 5.7445 -2.3476 0.9661
-6.6295 4.9817 -2.3476 0.9661
-7.1816 4.1463 -2.3476 0.9661
-7.4920 3.5550 -2.3476 0.9661
-8.1054 2.7060 -2.4191 0.9651
-8.5743 2.1134 -2.5000 0.9640
-8.6525 1.7664 -2.5000 0.9640
-8.7166 1.4166 -2.5000 0.9640
-8.8023 0.7106 -2.5000 0.9640
-8.8238 0.3556 -2.5000 0.9640
-8.1280 0.0000 -2.5000 0.9666
-8.1214 -0.3273 -2.5000 0.9666
-8.1016 -0.6540 -2.5000 0.9666
-8.0227 -1.3038 -2.5000 0.9666
-7.9637 -1.6258 -2.5000 0.9666
-7.8918 -1.9452 -2.5000 0.9666
-7.3432 -3.4844 -2.5000 0.9666
-7.1970 -3.7773 -2.5000 0.9666
-6.8697 -4.3441 -2.5000 0.9666
-6.6892 -4.6172 -2.5000 0.9666
-6.0839 -5.3898 -2.5000 0.9666
-5.6304 -5.8619 -2.5000 0.9666
-5.3898 -6.0839 -2.5000 0.9666
-4.8828 -6.4978 -2.5000 0.9666
-4.0640 -7.0390 -2.5000 0.9666
-3.4844 -7.3432 -2.5000 0.9666
-2.8822 -7.5998 -2.5000 0.9666
-1.3038 -8.0227 -2.5000 0.9666
-0.9797 -8.0687 -2.5000 0.9666
-0.6540 -8.1016 -2.5000 0.9666
-0.3273 -8.1214 -2.5000 0.9666
0.3273 -8.1214 -2.5000 0.9666
1.3038 -8.0227 -2.5000 0.9666
1.6258 -7.9637 -2.5000 0.9666
2.2613 -7.8071 -2.5000 0.9666
2.8822 -7.5998 -2.5000 0.9666
3.1859 -7.4776 -2.5000 0.9666
3.7772 -7.1969 -2.5000 0.9666
4.0640 -7.0390 -2.5000 0.9666
5.8619 -5.6304 -2.5000 0.9666
6.0839 -5.3898 -2.5000 0.9666
6.2960 -5.1405 -2.5000 0.9666
6.8697 -4.3441 -2.5000 0.9666
7.1970 -3.7772 -2.5000 0.9666
7.4775 -3.1859 -2.5000 0.9666
7.5998 -2.8822 -2.5000 0.9666
7.7096 -2.5739 -2.5000 0.9666
7.8070 -2.2613 -2.5000 0.9666
7.8918 -1.9452 -2.5000 0.9666
7.9637 -1.6258 -2.5000 0.9666
8.0687 -0.9797 -2.5000 0.9666
8.1016 -0.6540 -2.5000 0.9666
8.1214 -0.3273 -2.5000 0.9666
8.0227 1.3038 -2.5000 0.9666
7.9637 1.6258 -2.5000 0.9666
7.8071 2.2613 -2.5000 0.9666
7.7096 2.5739 -2.5000 0.9666
7.0217 2.9917 -2.3476 0.9686
6.8955 3.2720 -2.3476 0.9686
6.4509 4.0793 -2.3476 0.9686
6.2814 4.3357 -2.3476 0.9686
5.5046 5.2872 -2.3476 0.9686
5.2872 5.5046 -2.3476 0.9686
4.5851 6.1017 -2.3476 0.9686
4.3358 6.2814 -2.3476 0.9686
4.0793 6.4509 -2.3476 0.9686
3.5470 6.7582 -2.3476 0.9686
2.9880 7.0130 -2.3447 0.9686
2.1040 7.2640 -2.3261 0.9688
1.5123 7.4075 -2.3254 0.9689
1.2126 7.4613 -2.3251 0.9689
0.2856 7.0873 -2.1817 0.9708
-0.6041 7.4831 -2.3091 0.9691
-0.9088 7.4843 -2.3189 0.9689
-1.4473 7.0893 -2.2255 0.9702
-2.0999 7.2498 -2.3216 0.9689
-2.3956 7.1757 -2.3269 0.9688
-2.9907 7.0193 -2.3468 0.9686
-3.8162 6.6099 -2.3476 0.9686
-4.5852 6.1017 -2.3476 0.9686
-5.0613 5.7130 -2.3476 0.9686
-5.2872 5.5046 -2.3476 0.9686
-6.2814 4.3357 -2.3476 0.9686
-6.6099 3.8162 -2.3476 0.9686
-7.1725 2.7202 -2.3594 0.9684
-7.7097 2.5739 -2.5000 0.9666
-8.1016 0.6540 -2.5000 0.9666
-7.5148 -0.3028 -2.5000 0.9688
-7.4965 -0.6052 -2.5000 0.9688
-7.4661 -0.9066 -2.5000 0.9688
-7.4235 -1.2065 -2.5000 0.9688
-7.3689 -1.5044 -2.5000 0.9688
-7.3023 -1.7999 -2.5000 0.9688
-7.0321 -2.6669 -2.5000 0.9688
-6.6594 -3.4951 -2.5000 0.9688
-6.3566 -4.0197 -2.5000 0.9688
-6.0125 -4.5181 -2.5000 0.9688
-5.6295 -4.9873 -2.5000 0.9688
-5.4241 -5.2099 -2.5000 0.9688
-4.5181 -6.0125 -2.5000 0.9688
-4.2724 -6.1896 -2.5000 0.9688
-2.6670 -7.0322 -2.5000 0.9688
-2.0924 -7.2240 -2.5000 0.9688
-1.2064 -7.4235 -2.5000 0.9688
-0.6052 -7.4965 -2.5000 0.9688
-0.3029 -7.5148 -2.5000 0.9688
0.0000 -7.5209 -2.5000 0.9688
0.6052 -7.4965 -2.5000 0.9688
1.2064 -7.4235 -2.5000 0.9688
1.5044 -7.3689 -2.5000 0.9688
1.7999 -7.3023 -2.5000 0.9688
2.0924 -7.2240 -2.5000 0.9688
2.3816 -7.1338 -2.5000 0.9688
3.2242 -6.7948 -2.5000 0.9688
3.4951 -6.6594 -2.5000 0.9688
3.7604 -6.5133 -2.5000 0.9688
4.2724 -6.1896 -2.5000 0.9688
4.5181 -6.0125 -2.5000 0.9688
4.9873 -5.6295 -2.5000 0.9688
5.2099 -5.4241 -2.5000 0.9688
5.6295 -4.9873 -2.5000 0.9688
6.0125 -4.5181 -2.5000 0.9688
6.5133 -3.7604 -2.5000 0.9688
7.0321 -2.6670 -2.5000 0.9688
7.2239 -2.0925 -2.5000 0.9688
7.3023 -1.7999 -2.5000 0.9688
7.3689 -1.5044 -2.5000 0.9688
7.4235 -1.2064 -2.5000 0.9688
7.4660 -0.9066 -2.5000 0.9688
7.4965 -0.6052 -2.5000 0.9688
7.4660 0.9066 -2.5000 0.9688
7.4235 1.2064 -2.5000 0.9688
7.3023 1.7999 -2.5000 0.9688
7.2240 2.0924 -2.5000 0.9688
6.3805 3.0276 -2.3476 0.9707
5.6460 4.2427 -2.3476 0.9707
5.4706 4.4666 -2.3476 0.9707
5.2863 4.6832 -2.3476 0.9707
5.0934 4.8923 -2.3476 0.9707
4.8923 5.0934 -2.3476 0.9707
4.6832 5.2863 -2.3476 0.9707
4.2427 5.6460 -2.3476 0.9707
3.5312 6.1162 -2.3476 0.9707
3.2821 6.2534 -2.3476 0.9707
3.0276 6.3805 -2.3476 0.9707
2.7682 6.4973 -2.3476 0.9707
2.2364 6.6989 -2.3476 0.9707
1.9649 6.7836 -2.3476 0.9707
1.6901 6.8572 -2.3476 0.9707
0.8508 7.0070 -2.3463 0.9707
0.5674 7.0291 -2.3441 0.9707
0.2838 7.0424 -2.3428 0.9707
0.0000 7.0471 -2.3425 0.9707
-0.2838 7.0430 -2.3430 0.9707
-0.5675 7.0303 -2.3445 0.9707
-0.8510 7.0088 -2.3469 0.9707
-1.4127 6.9197 -2.3476 0.9707
-2.5044 6.6035 -2.3476 0.9707
-2.7682 6.4973 -2.3476 0.9707
-3.0276 6.3805 -2.3476 0.9707
-3.5312 6.1162 -2.3476 0.9707
-4.0119 5.8123 -2.3476 0.9707
-4.2427 5.6460 -2.3476 0.9707
-4.4666 5.4706 -2.3476 0.9707
-4.6832 5.2863 -2.3476 0.9707
-5.4706 4.4666 -2.3476 0.9707
-5.6460 4.2427 -2.3476 0.9707
-5.8122 4.0119 -2.3476 0.9707
-6.1162 3.5312 -2.3476 0.9707
-6.2535 3.2821 -2.3476 0.9707
-6.4973 2.7682 -2.3476 0.9707
-7.0321 2.6669 -2.5000 0.9688
-7.5148 0.3028 -2.5000 0.9688
-6.9909 0.0000 -2.5000 0.9707
-6.9682 -0.5625 -2.5000 0.9707
-6.9399 -0.8427 -2.5000 0.9707
-6.9003 -1.1214 -2.5000 0.9707
-6.8496 -1.3984 -2.5000 0.9707
-6.7878 -1.6730 -2.5000 0.9707
-6.7149 -1.9450 -2.5000 0.9707
-6.4315 -2.7402 -2.5000 0.9707
-6.1901 -3.2488 -2.5000 0.9707
-5.9086 -3.7364 -2.5000 0.9707
-5.7534 -3.9713 -2.5000 0.9707
-5.5888 -4.1997 -2.5000 0.9707
-5.2328 -4.6358 -2.5000 0.9707
-4.6358 -5.2327 -2.5000 0.9707
-4.4213 -5.4152 -2.5000 0.9707
-4.1997 -5.5888 -2.5000 0.9707
-3.4954 -6.0543 -2.5000 0.9707
-2.9969 -6.3159 -2.5000 0.9707
-2.7402 -6.4315 -2.5000 0.9707
-1.3984 -6.8496 -2.5000 0.9707
-1.1214 -6.9003 -2.5000 0.9707
-0.8427 -6.9399 -2.5000 0.9707
-0.2815 -6.9852 -2.5000 0.9707
0.0000 -6.9909 -2.5000 0.9707
0.2815 -6.9852 -2.5000 0.9707
1.3983 -6.8496 -2.5000 0.9707
2.2138 -6.6311 -2.5000 0.9707
2.4790 -6.5366 -2.5000 0.9707
2.9969 -6.3159 -2.5000 0.9707
3.4954 -6.0543 -2.5000 0.9707
3.7364 -5.9086 -2.5000 0.9707
3.9713 -5.7534 -2.5000 0.9707
4.4213 -5.4152 -2.5000 0.9707
4.8427 -5.0418 -2.5000 0.9707
5.4152 -4.4213 -2.5000 0.9707
5.5888 -4.1997 -2.5000 0.9707
5.9086 -3.7364 -2.5000 0.9707
6.0543 -3.4954 -2.5000 0.9707
6.1901 -3.2488 -2.5000 0.9707
6.3159 -2.9969 -2.5000 0.9707
6.5366 -2.4790 -2.5000 0.9707
6.6311 -2.2138 -2.5000 0.9707
6.7877 -1.6730 -2.5000 0.9707
6.8496 -1.3984 -2.5000 0.9707
6.9399 -0.8426 -2.5000 0.9707
6.9682 0.5625 -2.5000 0.9707
6.9003 1.1214 -2.5000 0.9707
6.8496 1.3983 -2.5000 0.9707
6.7877 1.6730 -2.5000 0.9707
6.7149 1.9450 -2.5000 0.9707
6.6311 2.2138 -2.5000 0.9707
6.3443 2.7030 -2.4661 0.9711
5.5484 3.5086 -2.3476 0.9725
5.2481 3.9437 -2.3476 0.9725
5.0850 4.1518 -2.3476 0.9725
4.7345 4.5475 -2.3476 0.9725
4.5475 4.7345 -2.3476 0.9725
4.3532 4.9137 -2.3476 0.9725
4.1518 5.0850 -2.3476 0.9725
3.9437 5.2481 -2.3476 0.9725
3.7292 5.4026 -2.3476 0.9725
3.2823 5.6852 -2.3476 0.9725
2.8143 5.9309 -2.3476 0.9725
2.5731 6.0394 -2.3476 0.9725
2.0788 6.2269 -2.3476 0.9725
1.0531 6.4797 -2.3476 0.9725
0.7913 6.5168 -2.3476 0.9725
0.5282 6.5434 -2.3476 0.9725
0.2643 6.5594 -2.3476 0.9725
-0.2643 6.5594 -2.3476 0.9725
-0.5282 6.5434 -2.3476 0.9725
-0.7913 6.5168 -2.3476 0.9725
-1.3131 6.4320 -2.3476 0.9725
-2.3279 6.1381 -2.3476 0.9725
-3.0508 5.8128 -2.3476 0.9725
-3.2823 5.6852 -2.3476 0.9725
-3.5086 5.5484 -2.3476 0.9725
-3.7292 5.4026 -2.3476 0.9725
-3.9437 5.2481 -2.3476 0.9725
-4.1518 5.0850 -2.3476 0.9725
-4.5475 4.7345 -2.3476 0.9725
-4.7345 4.5475 -2.3476 0.9725
-5.2481 3.9437 -2.3476 0.9725
-5.4026 3.7292 -2.3476 0.9725
-5.5484 3.5086 -2.3476 0.9725
-5.6852 3.2824 -2.3476 0.9725
-6.3341 2.6987 -2.4621 0.9712
-6.6311 2.2138 -2.5000 0.9707
-6.8496 1.3983 -2.5000 0.9707
-6.9004 1.1214 -2.5000 0.9707
-6.9399 0.8427 -2.5000 0.9707
-6.9682 0.5625 -2.5000 0.9707
-6.9852 0.2815 -2.5000 0.9707
-6.4392 -1.0465 -2.5000 0.9724
-6.2661 -1.8150 -2.5000 0.9724
-6.1879 -2.0658 -2.5000 0.9724
-6.0997 -2.3133 -2.5000 0.9724
-6.0017 -2.5571 -2.5000 0.9724
-5.8938 -2.7966 -2.5000 0.9724
-5.3688 -3.7059 -2.5000 0.9724
-5.2153 -3.9190 -2.5000 0.9724
-4.3260 -4.8830 -2.5000 0.9724
-4.1259 -5.0533 -2.5000 0.9724
-3.9191 -5.2153 -2.5000 0.9724
-3.4867 -5.5137 -2.5000 0.9724
-3.2618 -5.6496 -2.5000 0.9724
-3.0317 -5.7764 -2.5000 0.9724
-2.5571 -6.0016 -2.5000 0.9724
-1.3049 -6.3918 -2.5000 0.9724
-0.7863 -6.4761 -2.5000 0.9724
-0.5249 -6.5025 -2.5000 0.9724
0.0000 -6.5237 -2.5000 0.9724
1.0465 -6.4392 -2.5000 0.9724
2.5571 -6.0016 -2.5000 0.9724
2.7966 -5.8938 -2.5000 0.9724
3.0317 -5.7764 -2.5000 0.9724
3.4867 -5.5137 -2.5000 0.9724
3.7059 -5.3689 -2.5000 0.9724
4.1259 -5.0533 -2.5000 0.9724
4.5191 -4.7049 -2.5000 0.9724
5.3689 -3.7059 -2.5000 0.9724
5.6496 -3.2618 -2.5000 0.9724
5.8938 -2.7967 -2.5000 0.9724
6.0016 -2.5571 -2.5000 0.9724
6.0997 -2.3133 -2.5000 0.9724
6.3918 -1.3049 -2.5000 0.9724
6.4392 -1.0465 -2.5000 0.9724
6.4761 -0.7863 -2.5000 0.9724
6.5025 -0.5249 -2.5000 0.9724
6.5183 0.2627 -2.5000 0.9724
6.4761 0.7863 -2.5000 0.9724
6.4392 1.0465 -2.5000 0.9724
6.3918 1.3049 -2.5000 0.9724
6.1879 2.0658 -2.5000 0.9724
6.0997 2.3133 -2.5000 0.9724
6.0016 2.5571 -2.5000 0.9724
5.7127 2.7107 -2.4232 0.9733
5.4244 2.8469 -2.3476 0.9741
5.0416 3.4799 -2.3476 0.9741
4.5854 4.0623 -2.3476 0.9741
3.8743 4.7452 -2.3476 0.9741
3.6801 4.8974 -2.3476 0.9741
3.4800 5.0416 -2.3476 0.9741
2.8469 5.4243 -2.3476 0.9741
2.6261 5.5345 -2.3476 0.9741
2.4012 5.6358 -2.3476 0.9741
0.7384 6.0813 -2.3476 0.9741
0.2467 6.1210 -2.3476 0.9741
0.0000 6.1260 -2.3476 0.9741
-0.2467 6.1210 -2.3476 0.9741
-0.7384 6.0813 -2.3476 0.9741
-0.9827 6.0466 -2.3476 0.9741
-1.7044 5.8841 -2.3476 0.9741
-1.9399 5.8107 -2.3476 0.9741
-2.1723 5.7279 -2.3476 0.9741
-2.4012 5.6358 -2.3476 0.9741
-2.6262 5.5345 -2.3476 0.9741
-3.0630 5.3052 -2.3476 0.9741
-3.2741 5.1776 -2.3476 0.9741
-3.6801 4.8974 -2.3476 0.9741
-4.5854 4.0623 -2.3476 0.9741
-4.7452 3.8743 -2.3476 0.9741
-5.0416 3.4800 -2.3476 0.9741
-5.7045 2.7068 -2.4197 0.9733
-6.1879 2.0658 -2.5000 0.9724
-6.2661 1.8150 -2.5000 0.9724
-6.3341 1.5612 -2.5000 0.9724
-6.4392 1.0465 -2.5000 0.9724
-2.8160 0.0000 -1.1525 0.9879
-2.8096 -0.2268 -1.1536 0.9879
-3.0246 -0.4915 -1.2541 0.9868
-5.7114 -2.1660 -2.5000 0.9739
-5.4087 -2.8387 -2.5000 0.9739
-4.8833 -3.6695 -2.5000 0.9739
-4.4053 -4.2314 -2.5000 0.9739
-4.2314 -4.4054 -2.5000 0.9739
-4.0506 -4.5722 -2.5000 0.9739
-3.8632 -4.7316 -2.5000 0.9739
-3.4699 -5.0271 -2.5000 0.9739
-3.2647 -5.1627 -2.5000 0.9739
-2.3943 -5.6195 -2.5000 0.9739
-2.1660 -5.7114 -2.5000 0.9739
-1.6994 -5.8672 -2.5000 0.9739
-1.2218 -5.9849 -2.5000 0.9739
-0.9799 -6.0292 -2.5000 0.9739
-0.2460 -6.1034 -2.5000 0.9739
0.7363 -6.0638 -2.5000 0.9739
0.9798 -6.0292 -2.5000 0.9739
1.2218 -5.9849 -2.5000 0.9739
1.6994 -5.8672 -2.5000 0.9739
3.0542 -5.2900 -2.5000 0.9739
3.4699 -5.0271 -2.5000 0.9739
4.2314 -4.4054 -2.5000 0.9739
4.4053 -4.2314 -2.5000 0.9739
4.8833 -3.6695 -2.5000 0.9739
5.1627 -3.2647 -2.5000 0.9739
5.2900 -3.0542 -2.5000 0.9739
5.5186 -2.6186 -2.5000 0.9739
5.7114 -2.1660 -2.5000 0.9739
5.9308 -1.4618 -2.5000 0.9739
5.9849 -1.2218 -2.5000 0.9739
6.0638 -0.7363 -2.5000 0.9739
6.1034 -0.2460 -2.5000 0.9739
6.0885 0.4915 -2.5000 0.9739
6.0638 0.7363 -2.5000 0.9739
6.0292 0.9798 -2.5000 0.9739
5.9849 1.2218 -2.5000 0.9739
5.8672 1.6994 -2.5000 0.9739
5.7114 2.1660 -2.5000 0.9739
5.6195 2.3942 -2.5000 0.9739
5.5186 2.6186 -2.5000 0.9739
5.1753 2.7162 -2.3922 0.9751
4.8480 3.0657 -2.3476 0.9755
4.5856 3.4458 -2.3476 0.9755
4.1368 3.9734 -2.3476 0.9755
3.8037 4.2934 -2.3476 0.9755
3.6277 4.4431 -2.3476 0.9755
3.2584 4.7206 -2.3476 0.9755
3.0657 4.8480 -2.3476 0.9755
2.6656 5.0789 -2.3476 0.9755
2.2483 5.2770 -2.3476 0.9755
2.0340 5.3632 -2.3476 0.9755
1.8164 5.4408 -2.3476 0.9755
1.5959 5.5095 -2.3476 0.9755
1.3727 5.5693 -2.3476 0.9755
0.9201 5.6617 -2.3476 0.9755
0.6914 5.6941 -2.3476 0.9755
0.4616 5.7174 -2.3476 0.9755
0.0000 5.7360 -2.3476 0.9755
-0.2310 5.7313 -2.3476 0.9755
-0.4615 5.7174 -2.3476 0.9755
-0.6914 5.6941 -2.3476 0.9755
-0.9201 5.6617 -2.3476 0.9755
-1.1473 5.6200 -2.3476 0.9755
-1.3727 5.5693 -2.3476 0.9755
-1.5958 5.5095 -2.3476 0.9755
-1.8164 5.4408 -2.3476 0.9755
-2.0340 5.3632 -2.3476 0.9755
-2.8680 4.9675 -2.3476 0.9755
-3.0657 4.8480 -2.3476 0.9755
-3.8037 4.2934 -2.3476 0.9755
-3.9734 4.1368 -2.3476 0.9755
-3.6250 3.4818 -2.0571 0.9785
-4.2934 3.8037 -2.3476 0.9755
-4.4431 3.6277 -2.3476 0.9755
-4.5856 3.4458 -2.3476 0.9755
-5.1686 2.7127 -2.3890 0.9751
-5.5186 2.6186 -2.5000 0.9739
-5.6195 2.3942 -2.5000 0.9739
-5.7940 1.9343 -2.5000 0.9739
-3.0070 0.6139 -1.2561 0.9868
-2.8203 0.1137 -1.1552 0.9879
-2.3650 0.0000 -1.0307 0.9897
-2.3670 -0.0954 -1.0324 0.9897
-2.3649 -0.1909 -1.0340 0.9897
-2.3794 -0.2889 -1.0446 0.9896
-2.4021 -0.3904 -1.0606 0.9894
-2.4207 -0.4942 -1.0767 0.9893
-5.5696 -1.3728 -2.5000 0.9753
-5.5099 -1.5960 -2.5000 0.9753
-5.3636 -2.0341 -2.5000 0.9753
-4.8483 -3.0659 -2.5000 0.9753
-4.5859 -3.4460 -2.5000 0.9753
-4.2937 -3.8039 -2.5000 0.9753
-3.9737 -4.1371 -2.5000 0.9753
-3.2586 -4.7209 -2.5000 0.9753
-3.0659 -4.8483 -2.5000 0.9753
-2.8682 -4.9678 -2.5000 0.9753
-2.2484 -5.2773 -2.5000 0.9753
-1.8165 -5.4411 -2.5000 0.9753
-1.5959 -5.5098 -2.5000 0.9753
-0.9202 -5.6620 -2.5000 0.9753
0.4616 -5.7177 -2.5000 0.9753
1.1474 -5.6204 -2.5000 0.9753
1.3728 -5.5696 -2.5000 0.9753
1.8165 -5.4411 -2.5000 0.9753
2.0341 -5.3636 -2.5000 0.9753
2.2484 -5.2773 -2.5000 0.9753
2.6658 -5.0793 -2.5000 0.9753
2.8681 -4.9678 -2.5000 0.9753
3.0659 -4.8483 -2.5000 0.9753
3.2586 -4.7209 -2.5000 0.9753
3.6279 -4.4434 -2.5000 0.9753
3.8039 -4.2937 -2.5000 0.9753
3.9737 -4.1371 -2.5000 0.9753
4.1370 -3.9737 -2.5000 0.9753
4.5858 -3.4461 -2.5000 0.9753
4.8483 -3.0659 -2.5000 0.9753
5.0793 -2.6658 -2.5000 0.9753
5.2773 -2.2484 -2.5000 0.9753
5.5697 -1.3728 -2.5000 0.9753
5.6204 -1.1474 -2.5000 0.9753
5.6945 -0.6914 -2.5000 0.9753
5.7316 -0.2310 -2.5000 0.9753
5.6620 0.9202 -2.5000 0.9753
5.3636 2.0341 -2.5000 0.9753
5.1825 2.4591 -2.5000 0.9753
4.5615 2.8845 -2.3521 0.9767
4.4331 3.0600 -2.3476 0.9768
4.3063 3.2360 -2.3476 0.9768
4.1725 3.4067 -2.3476 0.9768
4.0319 3.5720 -2.3476 0.9768
3.8849 3.7314 -2.3476 0.9768
3.5720 4.0319 -2.3476 0.9768
3.4067 4.1725 -2.3476 0.9768
3.2360 4.3063 -2.3476 0.9768
2.3092 4.8665 -2.3476 0.9768
2.1114 4.9556 -2.3476 0.9768
1.9101 5.0366 -2.3476 0.9768
0.8641 5.3169 -2.3476 0.9768
0.6493 5.3474 -2.3476 0.9768
0.4334 5.3692 -2.3476 0.9768
0.2169 5.3822 -2.3476 0.9768
-0.2169 5.3823 -2.3476 0.9768
-0.6493 5.3473 -2.3476 0.9768
-0.8641 5.3169 -2.3476 0.9768
-1.4987 5.1740 -2.3476 0.9768
-2.1114 4.9556 -2.3476 0.9768
-2.5033 4.7696 -2.3476 0.9768
-2.6933 4.6649 -2.3476 0.9768
-2.8790 4.5527 -2.3476 0.9768
-3.0600 4.4331 -2.3476 0.9768
-3.2360 4.3063 -2.3476 0.9768
-3.4067 4.1725 -2.3476 0.9768
-5.0793 2.6658 -2.5000 0.9753
-5.2773 2.2484 -2.5000 0.9753
-5.4411 1.8165 -2.5000 0.9753
-5.5696 1.3728 -2.5000 0.9753
-2.4021 0.3904 -1.0606 0.9894
-2.3794 0.2889 -1.0446 0.9896
-2.2030 0.0000 -1.0198 0.9903
-2.2037 -0.0888 -1.0209 0.9903
-2.2080 -0.2681 -1.0295 0.9902
-2.2466 -0.4586 -1.0614 0.9899
-2.3851 -0.5879 -1.1371 0.9892
-5.1876 -1.5026 -2.5000 0.9765
-5.1229 -1.7103 -2.5000 0.9765
-5.0499 -1.9152 -2.5000 0.9765
-4.8794 -2.3153 -2.5000 0.9765
-4.7822 -2.5099 -2.5000 0.9765
-4.6773 -2.7004 -2.5000 0.9765
-4.3177 -3.2445 -2.5000 0.9765
-4.1835 -3.4158 -2.5000 0.9765
-3.8951 -3.7413 -2.5000 0.9765
-3.2445 -4.3177 -2.5000 0.9765
-3.0681 -4.4448 -2.5000 0.9765
-2.8866 -4.5648 -2.5000 0.9765
-2.5099 -4.7822 -2.5000 0.9765
-2.3153 -4.8794 -2.5000 0.9765
-1.5026 -5.1876 -2.5000 0.9765
-0.8664 -5.3309 -2.5000 0.9765
0.0000 -5.4009 -2.5000 0.9765
0.8664 -5.3309 -2.5000 0.9765
1.5027 -5.1876 -2.5000 0.9765
2.1169 -4.9687 -2.5000 0.9765
2.3153 -4.8794 -2.5000 0.9765
2.5099 -4.7822 -2.5000 0.9765
3.5815 -4.0426 -2.5000 0.9765
3.8951 -3.7413 -2.5000 0.9765
4.0426 -3.5815 -2.5000 0.9765
4.1836 -3.4158 -2.5000 0.9765
4.3177 -3.2445 -2.5000 0.9765
4.4448 -3.0680 -2.5000 0.9765
4.7822 -2.5099 -2.5000 0.9765
4.8794 -2.3153 -2.5000 0.9765
5.1229 -1.7103 -2.5000 0.9765
5.3965 -0.2175 -2.5000 0.9765
5.4009 -0.0000 -2.5000 0.9765
5.3834 0.4346 -2.5000 0.9765
5.3615 0.6510 -2.5000 0.9765
5.2439 1.2925 -2.5000 0.9765
5.1230 1.7103 -2.5000 0.9765
5.0499 1.9152 -2.5000 0.9765
4.8794 2.3153 -2.5000 0.9765
4.7822 2.5099 -2.5000 0.9765
4.6709 2.6967 -2.4966 0.9765
4.3085 2.7245 -2.3596 0.9778
4.1802 2.8854 -2.3511 0.9779
3.7962 3.3631 -2.3476 0.9779
