ply
format ascii 1.0
element vertex 1519
property float32 x
property float32 y
property float32 z
property float32 I
end_header
10.7526 12.1372 1.0055 0.9371
10.6475 13.0408 1.0440 0.9348
10.6475 14.1692 1.0991 0.9314
6.6322 10.4880 0.7695 0.9515
5.8609 11.1670 0.7820 0.9507
4.3210 9.1063 0.6250 0.9604
3.5102 8.2389 0.5553 0.9647
3.1382 8.2749 0.5488 0.9652
2.7626 8.2749 0.5410 0.9656
2.0741 8.4149 0.5374 0.9659
1.8263 8.9461 0.5662 0.9641
1.1686 9.6247 0.6012 0.9619
0.7770 9.6247 0.5988 0.9620
0.3901 9.6811 0.6008 0.9619
-0.0000 9.6811 0.6003 0.9619
-0.3901 9.6811 0.6008 0.9619
-0.7770 9.6248 0.5988 0.9620
-1.1641 9.5874 0.5989 0.9620
-1.5734 9.6811 0.6082 0.9615
-1.9764 9.6811 0.6127 0.9612
-2.3630 9.5868 0.6123 0.9612
-2.7879 9.6247 0.6214 0.9606
-3.4401 9.0708 0.6016 0.9619
-3.9894 8.4075 0.5771 0.9634
-4.7775 8.2749 0.5925 0.9624
-31.1889 35.2050 2.9166 0.8282
-24.2806 25.2787 2.1735 0.8689
-24.4576 23.4919 2.1029 0.8729
-31.0800 27.5345 2.5748 0.8467
-32.3970 26.4513 2.5935 0.8457
-30.8574 23.1878 2.3935 0.8567
-23.7400 13.7063 1.6999 0.8960
-24.6236 12.9235 1.7244 0.8945
-32.2092 7.9389 2.0571 0.8755
-32.2097 6.5757 2.0385 0.8766
-40.8056 6.6316 2.5636 0.8473
-42.5570 -22.3357 1.8951 0.8250
-21.3336 -17.4183 1.0860 0.8956
-20.7906 -18.4189 1.0952 0.8948
-19.5667 -18.7941 1.0698 0.8971
-19.9784 -20.7998 1.1372 0.8910
-21.7769 -24.5810 1.2949 0.8768
-16.5362 -20.2532 1.0310 0.9006
-15.6424 -20.8162 1.0267 0.9010
-18.1123 -26.2402 1.2572 0.8802
-18.2452 -28.8524 1.3461 0.8723
-13.4871 -28.4234 1.2405 0.8817
-16.3872 -38.4622 1.6485 0.8459
-15.9609 -42.0854 1.7748 0.8351
-12.5848 -37.6961 1.5670 0.8529
-8.2059 -28.3301 1.1630 0.8886
-2.5877 -21.3116 0.8465 0.9177
-1.7131 -21.2207 0.8395 0.9183
-0.8643 -21.4464 0.8463 0.9177
0.0000 -23.3854 0.9221 0.9106
3.7478 -23.0608 0.9212 0.9107
5.4572 -26.7312 1.0758 0.8965
5.9475 -20.5330 0.8429 0.9180
6.9917 -18.4355 0.7775 0.9241
7.0762 -16.6084 0.7118 0.9303
7.8203 -16.4810 0.7193 0.9296
15.2787 -20.3322 1.0028 0.9032
17.1267 -20.9763 1.0678 0.8973
19.4102 8.2699 0.8319 0.9190
18.3384 9.6248 0.8166 0.9204
15.3316 9.6951 0.7153 0.9300
11.9882 8.2749 0.5744 0.9434
11.2028 8.4183 0.5526 0.9454
10.6762 9.4583 0.5624 0.9445
10.6475 10.2270 0.5821 0.9426
10.6475 13.0408 0.6638 0.9348
10.6475 14.1692 0.6989 0.9315
7.4794 10.8358 0.5192 0.9487
6.3593 10.0564 0.4692 0.9535
6.0779 10.5273 0.4793 0.9525
3.5102 8.2389 0.3531 0.9648
2.4021 8.2930 0.3404 0.9660
1.1686 9.6247 0.3823 0.9619
0.3901 9.6811 0.3820 0.9620
-0.0000 9.6811 0.3817 0.9620
-0.7770 9.6248 0.3807 0.9621
-1.5734 9.6811 0.3867 0.9615
-1.9764 9.6811 0.3896 0.9612
-2.3629 9.5868 0.3893 0.9612
-2.7879 9.6247 0.3951 0.9607
-3.2132 9.6247 0.4001 0.9602
-3.4401 9.0708 0.3825 0.9619
-3.7476 8.7959 0.3770 0.9624
-3.9894 8.4075 0.3669 0.9634
-22.7326 25.6598 1.3517 0.8718
-24.3503 25.3514 1.3861 0.8687
-25.2353 24.2388 1.3797 0.8693
-26.1747 23.1887 1.3789 0.8694
-22.7250 17.0767 1.1209 0.8924
-31.9503 13.6127 1.3694 0.8702
-35.6375 13.5155 1.5029 0.8585
-42.9021 14.3229 1.7835 0.8344
-47.1754 13.6645 1.9366 0.8215
-31.5087 7.7662 1.2796 0.8782
-41.8028 5.0757 1.6604 0.8449
-43.6145 -20.6953 0.8155 0.8244
-42.8079 -24.7152 0.8350 0.8206
-41.1443 -26.0181 0.8223 0.8230
-21.6978 -17.7157 0.4732 0.8940
-20.5157 -18.1753 0.4630 0.8961
-19.6027 -18.8286 0.4591 0.8970
-17.2823 -19.5076 0.4402 0.9010
-17.2620 -27.2978 0.5456 0.8788
-22.9119 -39.6845 0.7740 0.8325
-19.3724 -36.9111 0.7041 0.8464
-17.0602 -35.9536 0.6722 0.8528
-12.5472 -29.4494 0.5407 0.8798
-7.3282 -25.2998 0.4449 0.9000
-6.5742 -26.6725 0.4640 0.8959
-5.5011 -26.9463 0.4646 0.8958
-1.6869 -20.8956 0.3541 0.9196
-0.8246 -20.4623 0.3459 0.9213
0.0000 -23.7728 0.4016 0.9093
1.8448 -22.8512 0.3873 0.9124
2.4153 -19.8916 0.3385 0.9230
9.7564 -39.5832 0.6886 0.8495
5.3922 -18.6161 0.3274 0.9254
5.9102 -17.7033 0.3153 0.9281
6.9052 -18.2075 0.3289 0.9251
7.4548 -17.4971 0.3213 0.9267
10.9600 -17.3319 0.3464 0.9212
12.5797 -16.7406 0.3537 0.9196
15.9343 -19.5159 0.4256 0.9041
18.8057 8.9234 0.3516 0.9201
18.3384 9.6247 0.3498 0.9205
10.6475 14.1692 0.2994 0.9315
10.6475 16.8376 0.3365 0.9234
5.3627 10.2178 0.1949 0.9549
3.1382 8.2749 0.1495 0.9652
2.7626 8.2749 0.1474 0.9657
2.4021 8.2930 0.1458 0.9660
1.8263 8.9461 0.1542 0.9641
1.1686 9.6247 0.1638 0.9620
0.7770 9.6247 0.1631 0.9621
0.3901 9.6811 0.1637 0.9620
-0.0000 9.6811 0.1635 0.9620
-0.3901 9.6811 0.1637 0.9620
-0.7770 9.6248 0.1631 0.9621
-1.9764 9.6811 0.1669 0.9612
-3.2132 9.6247 0.1714 0.9602
-3.9894 8.4075 0.1572 0.9635
-4.3233 8.2374 0.1571 0.9635
-4.7775 8.2749 0.1614 0.9625
-22.5579 27.6284 0.6025 0.8670
-31.1967 35.2138 0.7947 0.8284
-25.2372 26.2747 0.6154 0.8644
-32.6166 31.3286 0.7639 0.8345
-30.8838 23.2076 0.6526 0.8568
-11.1530 7.6983 0.2289 0.9472
-32.2449 18.6166 0.6289 0.8616
-32.2337 16.9175 0.6149 0.8645
-42.6792 14.2484 0.7600 0.8353
-32.7341 9.4816 0.5757 0.8725
-32.7012 6.6760 0.5638 0.8750
-41.6818 5.0610 0.7093 0.8454
-39.8304 -16.9701 -0.2438 0.8410
-22.8287 -17.1547 -0.1608 0.8921
-20.2001 -17.8957 -0.1519 0.8977
-19.2564 -18.4961 -0.1503 0.8987
-17.1680 -19.3786 -0.1458 0.9016
-15.8216 -19.3779 -0.1408 0.9048
-17.3219 -27.3923 -0.1825 0.8784
-24.8591 -43.0573 -0.2799 0.8197
-17.2804 -36.4176 -0.2270 0.8511
-8.5688 -22.5941 -0.1361 0.9079
-6.8018 -23.4826 -0.1376 0.9068
-5.1837 -25.3914 -0.1459 0.9015
-4.3709 -26.8953 -0.1534 0.8967
-3.2312 -26.6112 -0.1509 0.8983
-1.8151 -22.4842 -0.1270 0.9137
2.0280 -25.1217 -0.1419 0.9041
9.0244 -36.6135 -0.2123 0.8600
7.2810 -17.0892 -0.1046 0.9284
7.8155 -16.4708 -0.1026 0.9297
8.8382 -16.8397 -0.1071 0.9267
13.4520 -21.2725 -0.1417 0.9042
9.9258 -14.3800 -0.0984 0.9325
16.0078 -21.3025 -0.1500 0.8989
19.4102 8.2699 -0.1188 0.9191
18.8057 8.9234 -0.1172 0.9201
16.7682 9.6811 -0.1090 0.9255
11.9882 8.2749 -0.0820 0.9434
11.2028 8.4183 -0.0789 0.9455
10.9579 8.9468 -0.0796 0.9450
10.6762 9.4583 -0.0803 0.9445
9.2714 9.6526 -0.0754 0.9479
8.5515 9.6526 -0.0726 0.9497
6.6627 9.6526 -0.0660 0.9542
5.5729 9.6526 -0.0628 0.9564
5.0231 9.5708 -0.0609 0.9577
4.3210 9.1063 -0.0567 0.9605
3.1382 8.2749 -0.0498 0.9652
2.7626 8.2749 -0.0491 0.9657
2.0741 8.4149 -0.0488 0.9659
1.5407 9.4802 -0.0541 0.9623
-0.0000 9.6811 -0.0545 0.9620
-0.3901 9.6811 -0.0546 0.9620
-0.7770 9.6248 -0.0544 0.9621
-1.5734 9.6811 -0.0552 0.9615
-2.3629 9.5867 -0.0556 0.9613
-3.4401 9.0708 -0.0546 0.9619
-4.7775 8.2749 -0.0538 0.9625
-25.2290 26.2662 -0.2051 0.8644
-12.1740 7.6984 -0.0811 0.9440
-32.2451 18.6167 -0.2096 0.8616
-32.2336 16.9175 -0.2050 0.8645
-30.7764 14.6036 -0.1918 0.8726
-30.6240 10.2238 -0.1818 0.8788
-30.6240 8.8704 -0.1795 0.8803
-30.6240 7.5482 -0.1776 0.8815
-30.7378 6.2752 -0.1766 0.8821
-35.1778 -16.6920 -1.0964 0.8557
-31.4960 -16.5304 -1.0016 0.8673
-37.1581 -23.4974 -1.2379 0.8387
-22.9233 -17.2258 -0.8074 0.8916
-20.1705 -17.8695 -0.7588 0.8978
-18.8848 -19.6612 -0.7676 0.8966
-19.5816 -22.1030 -0.8315 0.8886
-8.4952 -22.4002 -0.6746 0.9086
-7.5238 -22.5366 -0.6690 0.9093
-5.4549 -26.7197 -0.7679 0.8966
-4.7422 -29.1798 -0.8324 0.8884
-3.2932 -27.1216 -0.7693 0.8964
-1.8146 -22.4771 -0.6350 0.9137
0.0000 -25.2240 -0.7103 0.9040
1.0477 -25.9981 -0.7326 0.9011
2.2305 -27.6292 -0.7805 0.8950
7.5476 -46.4419 -1.3249 0.8284
4.8718 -19.7655 -0.5732 0.9218
8.8463 -26.4979 -0.7866 0.8942
8.2372 -15.6947 -0.4991 0.9315
8.6195 -14.9295 -0.4854 0.9333
24.9447 -39.4468 -1.3142 0.8296
13.9901 -20.2682 -0.6935 0.9062
15.0225 -19.9913 -0.7041 0.9048
15.4703 -18.9476 -0.6888 0.9068
24.7366 -20.1968 -0.8992 0.8800
18.8056 8.9234 -0.5861 0.9201
14.3232 9.0574 -0.4772 0.9344
11.1637 8.3889 -0.3932 0.9457
10.7941 8.8131 -0.3924 0.9458
7.8811 9.6526 -0.3509 0.9514
6.6627 9.6526 -0.3303 0.9542
5.5729 9.6526 -0.3138 0.9564
5.0231 9.5708 -0.3044 0.9577
2.0741 8.4149 -0.2440 0.9659
1.1686 9.6247 -0.2730 0.9619
0.6948 8.6073 -0.2431 0.9660
-0.0000 9.6811 -0.2726 0.9620
-0.3901 9.6811 -0.2728 0.9620
-1.5747 9.6891 -0.2764 0.9615
-1.9783 9.6902 -0.2785 0.9612
-2.3629 9.5867 -0.2780 0.9613
-2.7879 9.6247 -0.2822 0.9607
-3.2132 9.6247 -0.2857 0.9602
-3.9894 8.4075 -0.2620 0.9634
-4.3233 8.2374 -0.2620 0.9635
-4.7598 8.2441 -0.2680 0.9626
-5.9237 8.5819 -0.2936 0.9591
-31.1967 35.2138 -1.3247 0.8284
-31.0897 27.5431 -1.1695 0.8469
-11.1530 7.6983 -0.3816 0.9472
-12.1740 7.6984 -0.4056 0.9440
-30.8252 14.6267 -0.9607 0.8724
-30.7378 6.2752 -0.8834 0.8820
-37.0032 6.0136 -1.0556 0.8607
-49.2555 -1.9849 -2.5000 0.8208
-48.6571 -7.9076 -2.5000 0.8208
-47.8630 -11.7972 -2.5000 0.8208
-43.9220 -14.6633 -2.3483 0.8307
-43.3171 -16.4280 -2.3495 0.8306
-28.7088 -16.5750 -1.6812 0.8757
-21.8031 -16.3840 -1.3831 0.8965
-20.1029 -16.4135 -1.3162 0.9013
-29.0748 -35.6103 -2.3314 0.8318
-26.0895 -37.7971 -2.3291 0.8320
-11.4001 -24.0252 -1.3486 0.8990
-9.5171 -22.3375 -1.2314 0.9073
-7.4214 -22.2298 -1.1885 0.9104
-6.5424 -22.5868 -1.1926 0.9101
-9.1598 -44.8675 -2.3224 0.8324
-7.3449 -45.1949 -2.3221 0.8324
-1.8434 -45.7441 -2.3218 0.8325
0.0000 -26.5605 -1.3470 0.8991
2.4135 -19.8770 -1.0155 0.9229
7.3470 -45.2076 -2.3228 0.8324
10.9652 -44.4876 -2.3237 0.8323
19.6725 -41.4592 -2.3273 0.8321
23.0755 -39.9679 -2.3405 0.8312
10.7386 -15.5575 -0.9587 0.9271
11.6745 -15.5360 -0.9856 0.9251
12.7276 -15.5886 -1.0206 0.9226
14.9244 -15.5380 -1.0926 0.9173
17.4725 -15.4793 -1.1838 0.9107
19.1327 -15.6214 -1.2526 0.9058
42.6914 -24.6479 -2.5000 0.8208
43.1813 -22.6633 -2.4732 0.8226
43.1935 -18.4030 -2.3811 0.8286
43.3996 -16.4593 -2.3539 0.8304
44.3511 -14.8065 -2.3713 0.8292
47.8630 -11.7972 -2.5000 0.8208
31.6652 0.0000 -1.6059 0.8809
49.2555 1.9849 -2.5000 0.8208
46.1403 3.7249 -2.3476 0.8308
45.9529 5.5797 -2.3476 0.8308
45.3552 9.2593 -2.3476 0.8308
45.0151 11.0952 -2.3512 0.8305
17.5673 8.3358 -0.9861 0.9251
15.8418 8.3144 -0.9073 0.9309
11.9882 8.2749 -0.7387 0.9433
10.6763 9.4583 -0.7234 0.9445
8.9169 9.2834 -0.6528 0.9498
7.2534 9.6526 -0.6123 0.9528
6.6627 9.6526 -0.5948 0.9541
4.0366 8.5070 -0.4775 0.9630
3.0534 8.0512 -0.4367 0.9661
2.7018 8.0929 -0.4327 0.9664
2.0605 8.3600 -0.4367 0.9661
1.7783 8.7107 -0.4509 0.9650
1.5407 9.4802 -0.4871 0.9623
1.1685 9.6239 -0.4917 0.9619
0.6948 8.6073 -0.4379 0.9660
-0.0000 9.6811 -0.4910 0.9620
-0.7016 8.6906 -0.4422 0.9657
-1.9764 9.6811 -0.5011 0.9612
-2.5171 8.6901 -0.4588 0.9644
-3.4218 9.0225 -0.4894 0.9621
-3.6752 8.6260 -0.4755 0.9631
-4.3233 8.2374 -0.4718 0.9634
-4.6851 8.1149 -0.4752 0.9632
-5.1509 8.1454 -0.4888 0.9621
-5.9237 8.5819 -0.5288 0.9591
-27.4192 36.4883 -2.3147 0.8329
-28.9118 35.4106 -2.3184 0.8327
-31.3485 30.1107 -2.2044 0.8402
-31.0897 27.5431 -2.1064 0.8467
-32.4083 26.4606 -2.1218 0.8457
-30.8838 23.2076 -1.9592 0.8567
-29.8893 17.2566 -1.7503 0.8709
-30.7764 14.6036 -1.7276 0.8725
-31.9724 13.6221 -1.7625 0.8701
-30.6240 11.6142 -1.6610 0.8771
-30.6240 10.2238 -1.6373 0.8787
-30.6240 8.8704 -1.6169 0.8801
-30.6240 7.5482 -1.5996 0.8813
-30.7378 6.2752 -1.5910 0.8819
-45.9888 5.5840 -2.3494 0.8307
-46.1504 3.7256 -2.3481 0.8307
-49.2555 1.9849 -2.5000 0.8208
-34.0683 -1.3729 -2.5000 0.8722
-33.9853 -2.7436 -2.5000 0.8722
-33.8473 -4.1098 -2.5000 0.8722
-33.6544 -5.4694 -2.5000 0.8722
-33.1051 -8.1597 -2.5000 0.8722
-32.7497 -9.4861 -2.5000 0.8722
-32.3412 -10.7971 -2.5000 0.8722
-30.9997 -13.2077 -2.4707 0.8736
-28.3540 -14.8813 -2.3479 0.8795
-27.7392 -16.0152 -2.3485 0.8794
-27.0820 -17.1256 -2.3494 0.8794
-21.8031 -16.3839 -1.9997 0.8964
-16.9427 -16.2736 -1.7225 0.9101
-15.5997 -16.2411 -1.6512 0.9136
-14.3631 -16.2126 -1.5881 0.9168
-11.1395 -16.1383 -1.4378 0.9244
-10.2243 -16.1684 -1.4026 0.9261
-15.9589 -27.6415 -2.3403 0.8798
-8.4373 -16.0761 -1.3312 0.9298
-6.8336 -16.0392 -1.2783 0.9325
-5.3432 -16.0048 -1.2372 0.9346
-3.2576 -15.9568 -1.1941 0.9368
-2.5907 -15.9414 -1.1842 0.9373
-1.9338 -15.9263 -1.1763 0.9377
-1.2845 -15.9113 -1.1704 0.9380
0.0000 -15.8817 -1.1645 0.9383
0.6394 -15.8670 -1.1643 0.9383
3.2271 -15.8074 -1.1829 0.9373
5.2616 -15.7605 -1.2183 0.9355
10.1547 -26.7756 -2.0997 0.8915
11.2410 -26.3837 -2.1028 0.8913
12.5179 -26.3807 -2.1410 0.8895
9.0702 -15.7102 -1.3301 0.9298
11.7313 -15.6115 -1.4318 0.9247
20.2266 -24.7731 -2.3450 0.8796
13.7107 -15.4762 -1.5160 0.9204
16.1474 -15.5098 -1.6416 0.9141
26.3699 -18.2018 -2.3494 0.8794
29.5281 -17.0481 -2.5000 0.8722
30.8041 -14.6167 -2.5000 0.8722
31.3676 -13.3645 -2.5000 0.8722
33.4069 -6.8201 -2.5000 0.8722
33.6544 -5.4694 -2.5000 0.8722
33.8474 -4.1098 -2.5000 0.8722
34.0683 -1.3729 -2.5000 0.8722
34.0959 0.0000 -2.5000 0.8722
34.0683 1.3729 -2.5000 0.8722
33.4070 6.8201 -2.5000 0.8722
32.7499 9.4861 -2.5000 0.8722
32.3414 10.7971 -2.5000 0.8722
31.8804 12.0906 -2.5000 0.8722
17.7014 7.5418 -1.4108 0.9257
14.3244 8.2702 -1.2128 0.9358
14.3235 9.0576 -1.2426 0.9343
11.8646 8.1896 -1.0571 0.9438
11.2446 8.4497 -1.0313 0.9451
8.5514 9.6526 -0.9455 0.9496
7.8811 9.6526 -0.9137 0.9512
7.2534 9.6526 -0.8853 0.9527
5.0544 8.7545 -0.7412 0.9603
4.3209 9.1062 -0.7390 0.9604
3.1382 8.2749 -0.6489 0.9651
2.7626 8.2749 -0.6397 0.9656
1.8263 8.9460 -0.6695 0.9640
0.3901 9.6811 -0.7104 0.9619
-0.0000 9.6811 -0.7098 0.9619
-0.3901 9.6811 -0.7104 0.9619
-0.7016 8.6903 -0.6393 0.9656
-2.3629 9.5867 -0.7240 0.9612
-2.4737 8.5401 -0.6519 0.9650
-3.2131 9.6245 -0.7440 0.9601
-3.9894 8.4075 -0.6823 0.9634
-5.1741 8.1821 -0.7098 0.9619
-27.3553 15.7936 -2.3160 0.8810
-27.9908 14.6907 -2.3178 0.8809
-29.3538 12.5065 -2.3395 0.8799
-30.6240 7.5482 -2.3126 0.8812
-31.7862 3.8595 -2.3477 0.8795
-33.3189 2.6898 -2.4510 0.8745
-34.0682 1.3729 -2.5000 0.8722
-26.0332 0.0000 -2.4993 0.9007
-26.0190 -1.0485 -2.5000 0.9006
-25.8503 -3.1388 -2.5000 0.9006
-25.7030 -4.1771 -2.5000 0.9006
-25.2835 -6.2318 -2.5000 0.9006
-24.3480 -9.2340 -2.5000 0.9006
-23.5260 -11.1632 -2.5000 0.9006
-14.3631 -16.2126 -2.0795 0.9166
-14.6979 -19.5594 -2.3489 0.9064
-10.2214 -16.1639 -1.8361 0.9260
-12.2248 -21.1740 -2.3473 0.9064
-7.4364 -22.2747 -2.2545 0.9100
-3.9368 -15.9724 -1.5793 0.9360
-4.8852 -23.9292 -2.3447 0.9065
-0.9833 -24.3996 -2.3444 0.9065
0.0000 -24.4197 -2.3444 0.9065
1.9230 -15.8374 -1.5316 0.9379
3.2271 -15.8074 -1.5489 0.9372
5.2616 -15.7605 -1.5952 0.9354
8.6669 -22.8528 -2.3465 0.9065
10.4817 -22.0897 -2.3474 0.9064
9.0731 -15.7152 -1.7421 0.9297
9.8988 -15.6537 -1.7781 0.9283
11.7313 -15.6115 -1.8748 0.9245
13.7107 -15.4762 -1.9850 0.9203
16.9727 -17.6705 -2.3523 0.9062
18.3034 -16.2152 -2.3476 0.9064
18.9412 -15.4650 -2.3476 0.9064
19.5486 -14.6898 -2.3476 0.9064
23.0574 -12.1015 -2.5000 0.9006
23.5260 -11.1632 -2.5000 0.9006
24.3480 -9.2339 -2.5000 0.9006
24.7000 -8.2461 -2.5000 0.9006
25.0121 -7.2448 -2.5000 0.9006
25.5139 -5.2087 -2.5000 0.9006
10.8490 -1.7631 -1.0552 0.9568
11.0735 -0.8939 -1.0666 0.9563
26.0190 -1.0485 -2.5000 0.9006
25.9557 2.0954 -2.5000 0.9006
25.8503 3.1389 -2.5000 0.9006
24.1361 3.9225 -2.3476 0.9064
23.9585 4.8912 -2.3476 0.9064
23.4874 6.8032 -2.3476 0.9064
22.9579 8.7068 -2.3573 0.9060
17.5660 7.4842 -1.8331 0.9261
14.2871 7.4984 -1.5491 0.9372
14.3245 8.2702 -1.5880 0.9357
14.3233 9.0575 -1.6270 0.9342
11.2028 8.4183 -1.3453 0.9452
10.3450 8.4464 -1.2822 0.9477
8.7937 8.4465 -1.1706 0.9522
8.5514 9.6526 -1.2381 0.9495
6.1720 8.2135 -0.9864 0.9596
5.6905 8.2442 -0.9617 0.9605
3.5102 8.2389 -0.8598 0.9647
3.0732 8.1034 -0.8320 0.9658
2.7174 8.1395 -0.8238 0.9661
2.4021 8.2930 -0.8289 0.9659
2.0741 8.4149 -0.8321 0.9658
1.1685 9.6239 -0.9307 0.9618
0.6631 8.2146 -0.7912 0.9674
0.3901 9.6811 -0.9302 0.9618
-0.0000 9.6811 -0.9294 0.9618
-0.9970 8.2112 -0.7941 0.9673
-3.2131 9.6245 -0.9741 0.9600
-3.4466 9.0879 -0.9331 0.9617
-4.3233 8.2374 -0.8931 0.9633
-5.1877 8.2037 -0.9319 0.9617
-15.4019 20.4963 -2.4614 0.9021
-16.2147 19.8595 -2.4614 0.9021
-17.0013 19.1904 -2.4614 0.9021
-18.4903 17.7602 -2.4614 0.9021
-20.4963 15.4019 -2.4614 0.9021
-22.2033 12.8191 -2.4614 0.9021
-23.5866 10.0493 -2.4614 0.9021
-24.1461 8.0612 -2.4439 0.9028
-24.3166 5.9935 -2.4044 0.9043
-24.7311 5.0489 -2.4233 0.9035
-25.8454 3.1382 -2.4995 0.9007
-25.9345 2.0936 -2.4979 0.9007
-26.0048 1.0480 -2.4986 0.9007
-21.0461 -0.0000 -2.5000 0.9187
-21.0290 -0.8474 -2.5000 0.9187
-20.8927 -2.5368 -2.5000 0.9187
-20.7736 -3.3761 -2.5000 0.9187
-19.6785 -7.4631 -2.5000 0.9187
-19.0141 -9.0223 -2.5000 0.9187
-18.6354 -9.7806 -2.5000 0.9187
-17.7880 -11.2485 -2.5000 0.9187
-17.3206 -11.9556 -2.5000 0.9187
-14.9226 -13.2203 -2.3682 0.9228
-14.2532 -13.6904 -2.3476 0.9235
-11.8747 -15.8023 -2.3480 0.9235
-10.3565 -16.3776 -2.3018 0.9249
-6.8336 -16.0391 -2.0709 0.9322
-6.0762 -16.0217 -2.0354 0.9333
-5.3432 -16.0048 -2.0043 0.9343
-3.9368 -15.9724 -1.9541 0.9359
-3.2576 -15.9568 -1.9345 0.9365
-2.5920 -15.9493 -1.9194 0.9370
-1.2943 -16.0330 -1.9107 0.9373
-0.6462 -16.0355 -1.9063 0.9374
0.6433 -15.9624 -1.8976 0.9377
1.2826 -15.8874 -1.8933 0.9378
1.9230 -15.8374 -1.8951 0.9378
2.5714 -15.8225 -1.9041 0.9375
3.8924 -15.7921 -1.9320 0.9366
4.5697 -15.7765 -1.9511 0.9360
5.2616 -15.7605 -1.9737 0.9353
7.7589 -18.2107 -2.3513 0.9234
8.4872 -17.8864 -2.3517 0.9233
9.1954 -17.5204 -2.3504 0.9234
10.5642 -16.7059 -2.3479 0.9235
11.2267 -16.2648 -2.3476 0.9235
13.1054 -14.7929 -2.3476 0.9235
14.2532 -13.6904 -2.3476 0.9235
17.3206 -11.9556 -2.5000 0.9187
17.7880 -11.2484 -2.5000 0.9187
18.2265 -10.5231 -2.5000 0.9187
18.6354 -9.7806 -2.5000 0.9187
19.0140 -9.0223 -2.5000 0.9187
19.3620 -8.2494 -2.5000 0.9187
19.6785 -7.4630 -2.5000 0.9187
20.2152 -5.8554 -2.5000 0.9187
12.0661 -2.4633 -1.4628 0.9516
10.3404 -0.8348 -1.2323 0.9591
21.0461 0.0000 -2.5000 0.9187
20.9779 1.6935 -2.5000 0.9187
18.9829 5.4985 -2.3476 0.9235
17.5570 7.4803 -2.2669 0.9260
15.8409 7.5166 -2.0828 0.9318
14.3253 7.5185 -1.9218 0.9369
11.9882 8.2749 -1.7303 0.9430
11.2028 8.4183 -1.6646 0.9451
8.1800 7.8570 -1.3473 0.9553
7.8239 8.1455 -1.3416 0.9555
5.1935 8.2128 -1.1543 0.9616
4.7477 8.2232 -1.1279 0.9625
3.5102 8.2389 -1.0638 0.9646
3.0944 8.1592 -1.0366 0.9655
2.4021 8.2930 -1.0256 0.9658
1.7921 8.7784 -1.0643 0.9646
1.5407 9.4802 -1.1409 0.9621
0.6486 8.0342 -0.9575 0.9681
-0.0000 9.6077 -1.1413 0.9620
-0.3866 9.5940 -1.1406 0.9621
-0.6522 8.0790 -0.9628 0.9679
-1.5405 9.4792 -1.1408 0.9621
-1.9221 9.4152 -1.1415 0.9620
-2.3011 9.3358 -1.1422 0.9620
-2.6665 7.9871 -1.0002 0.9667
-3.4218 9.0225 -1.1462 0.9619
-5.9237 8.5819 -1.2387 0.9589
-14.9442 14.3541 -2.4614 0.9199
-16.0508 13.1051 -2.4614 0.9199
-17.0533 11.7710 -2.4614 0.9199
-17.5134 11.0748 -2.4614 0.9199
-19.0632 8.1220 -2.4614 0.9199
-19.3771 7.3488 -2.4617 0.9199
-19.7203 6.5836 -2.4696 0.9197
-20.0053 5.7946 -2.4740 0.9195
-20.5395 4.1931 -2.4901 0.9190
-20.8813 2.5354 -2.4986 0.9188
-21.0269 0.8474 -2.4997 0.9187
-17.6442 -0.0000 -2.5000 0.9312
-17.6298 -0.7105 -2.5000 0.9312
-17.5155 -2.1268 -2.5000 0.9312
-17.4156 -2.8303 -2.5000 0.9312
-17.2875 -3.5293 -2.5000 0.9312
-17.1314 -4.2225 -2.5000 0.9312
-16.9475 -4.9089 -2.5000 0.9312
-16.4975 -6.2567 -2.5000 0.9312
-16.2322 -6.9159 -2.5000 0.9312
-13.6672 -11.1589 -2.5000 0.9312
-12.7250 -12.2225 -2.5000 0.9312
-11.6897 -13.1950 -2.4977 0.9313
-9.9534 -13.2456 -2.3476 0.9353
-8.8553 -14.0036 -2.3476 0.9353
-8.2843 -14.3488 -2.3476 0.9353
-7.1028 -14.9688 -2.3476 0.9353
-5.8753 -15.4920 -2.3476 0.9353
0.0000 -16.5725 -2.3482 0.9352
0.6673 -16.5589 -2.3481 0.9352
1.3335 -16.5183 -2.3481 0.9352
2.6582 -16.3563 -2.3479 0.9352
3.9653 -16.0878 -2.3477 0.9353
4.6099 -15.9144 -2.3476 0.9353
5.8753 -15.4918 -2.3476 0.9353
7.1028 -14.9689 -2.3476 0.9353
7.6998 -14.6707 -2.3476 0.9353
9.4120 -13.6356 -2.3476 0.9353
10.7786 -13.2014 -2.4148 0.9335
12.2225 -12.7250 -2.5000 0.9312
13.2068 -11.7002 -2.5000 0.9312
13.6672 -11.1589 -2.5000 0.9312
14.1055 -10.5996 -2.5000 0.9312
14.9128 -9.4302 -2.5000 0.9312
15.2802 -8.8221 -2.5000 0.9312
16.4975 -6.2567 -2.5000 0.9312
16.7361 -5.5873 -2.5000 0.9312
16.9475 -4.9089 -2.5000 0.9312
17.1314 -4.2225 -2.5000 0.9312
9.6089 -1.1667 -1.3715 0.9617
9.7274 -0.7853 -1.3827 0.9613
17.6298 0.7104 -2.5000 0.9312
17.5155 2.1268 -2.5000 0.9312
16.7302 2.7189 -2.4016 0.9338
16.2337 3.3141 -2.3476 0.9353
16.0871 3.9651 -2.3476 0.9353
15.2427 6.4943 -2.3476 0.9353
13.9725 8.8357 -2.3424 0.9354
11.2028 8.4183 -1.9855 0.9450
10.3450 8.4464 -1.8923 0.9475
9.5341 8.4464 -1.8048 0.9498
7.8721 8.1957 -1.6101 0.9551
7.9232 8.9435 -1.6930 0.9529
6.1715 8.2128 -1.4556 0.9593
4.7465 9.0437 -1.4472 0.9596
3.5102 8.2389 -1.2689 0.9645
0.6346 7.8607 -1.1174 0.9686
0.3594 8.9174 -1.2645 0.9646
-0.9539 7.8559 -1.1213 0.9685
-1.7884 8.7602 -1.850 0.9343
5-2.6064 7.8071 -1.1662 0.9673
-3.7476 8.7959 -1.3547 0.9621
-4.3233 8.2374 -1.3181 0.9631
-4.7775 8.2749 -1.3538 0.9621
-5.1741 8.1821 -1.3717 0.9616
-9.8124 13.0579 -2.3143 0.9361
-10.3291 12.6508 -2.3141 0.9361
-10.8237 12.2175 -2.3127 0.9362
-11.3005 11.7650 -2.3114 0.9362
-12.1979 10.8064 -2.3090 0.9363
-13.8877 10.4359 -2.4614 0.9322
-15.0444 8.6859 -2.4614 0.9322
-15.6968 7.4482 -2.4618 0.9322
-16.0010 6.8174 -2.4644 0.9321
-16.6020 5.5425 -2.4799 0.9317
-16.8371 4.8769 -2.4837 0.9316
-17.4095 2.8293 -2.4991 0.9312
-17.5124 2.1264 -2.4995 0.9312
-17.6298 0.7105 -2.5000 0.9312
-15.1631 -0.6110 -2.5000 0.9403
-15.1262 -1.2211 -2.5000 0.9403
-15.0648 -1.8292 -2.5000 0.9403
-14.9789 -2.4343 -2.5000 0.9403
-14.8687 -3.0355 -2.5000 0.9403
-14.7345 -3.6317 -2.5000 0.9403
-14.5763 -4.2221 -2.5000 0.9403
-14.1892 -5.3813 -2.5000 0.9403
-13.7103 -6.5056 -2.5000 0.9403
-13.4372 -7.0524 -2.5000 0.9403
-12.4891 -8.6206 -2.5000 0.9403
-9.5976 -11.7550 -2.5000 0.9403
-7.5877 -13.1423 -2.5000 0.9403
-6.9283 -13.2008 -2.4560 0.9414
-5.0532 -13.3243 -2.3476 0.9439
-4.5126 -13.5169 -2.3476 0.9439
-2.8504 -13.9623 -2.3476 0.9439
-2.2859 -14.0658 -2.3476 0.9439
-1.7177 -14.1464 -2.3476 0.9439
-0.5738 -14.2388 -2.3476 0.9439
1.1467 -14.2041 -2.3476 0.9439
2.8504 -13.9623 -2.3476 0.9439
3.4103 -13.8362 -2.3476 0.9439
3.9647 -13.6877 -2.3476 0.9439
5.0532 -13.3243 -2.3476 0.9439
5.6293 -13.2125 -2.3659 0.9434
6.9255 -13.1955 -2.4550 0.9414
8.1107 -12.8261 -2.5000 0.9403
9.1165 -12.1319 -2.5000 0.9403
9.5976 -11.7550 -2.5000 0.9403
10.0632 -11.3589 -2.5000 0.9403
10.5124 -10.9446 -2.5000 0.9403
10.9446 -10.5124 -2.5000 0.9403
11.3590 -10.0632 -2.5000 0.9403
11.7548 -9.5976 -2.5000 0.9403
12.1318 -9.1165 -2.5000 0.9403
12.8261 -8.1107 -2.5000 0.9403
13.1423 -7.5877 -2.5000 0.9403
13.7102 -6.5056 -2.5000 0.9403
14.1893 -5.3813 -2.5000 0.9403
14.3944 -4.8056 -2.5000 0.9403
14.5763 -4.2221 -2.5000 0.9403
14.7344 -3.6317 -2.5000 0.9403
9.4796 -0.7653 -1.5667 0.9622
15.1754 0.0000 -2.5000 0.9403
15.0648 1.8292 -2.5000 0.9403
14.9789 2.4343 -2.5000 0.9403
13.9624 2.8504 -2.3476 0.9439
13.5169 4.5126 -2.3476 0.9439
13.3243 5.0532 -2.3476 0.9439
12.8744 6.1090 -2.3476 0.9439
12.6180 6.6224 -2.3476 0.9439
11.9864 7.5797 -2.3363 0.9441
10.6331 9.4201 -2.3402 0.9440
7.8843 8.2084 -1.8750 0.9549
7.8692 8.8825 -1.9549 0.9530
5.1935 8.2128 -1.6008 0.9614
4.7477 8.2232 -1.5643 0.9622
4.7465 9.0437 -1.6826 0.9594
4.3209 9.1062 -1.6605 0.9600
3.5102 8.2389 -1.4753 0.9643
2.7626 8.2749 -1.4372 0.9653
2.4021 8.2930 -1.4223 0.9656
1.5407 9.4802 -1.5823 0.9618
0.6211 7.6935 -1.2715 0.9692
-0.6915 8.5660 -1.4157 0.9658
-1.7520 8.5818 -1.4429 0.9651
-2.4167 8.3433 -1.4310 0.9654
-3.7476 8.7959 -1.5751 0.9620
-3.9894 8.4075 -1.5331 0.9630
-4.3233 8.2374 -1.5326 0.9630
-4.7775 8.2749 -1.5741 0.9620
-5.1741 8.1821 -1.5948 0.9615
-7.9814 11.5631 -2.3146 0.9446
-8.4395 11.2309 -2.3143 0.9446
-8.8849 10.8820 -2.3143 0.9446
-10.1316 9.7315 -2.3143 0.9446
-10.5105 9.3114 -2.3132 0.9447
-10.8721 8.8768 -2.3122 0.9447
-11.2161 8.4283 -2.3113 0.9447
-13.2355 6.9465 -2.4625 0.9412
-13.5288 6.4195 -2.4669 0.9411
-13.8272 5.8912 -2.4760 0.9409
-14.1006 5.3476 -2.4844 0.9407
-14.5463 4.2134 -2.4949 0.9405
-14.8655 3.0348 -2.4995 0.9403
-15.0648 1.8292 -2.5000 0.9403
-15.1262 1.2211 -2.5000 0.9403
-13.3006 0.0000 -2.5000 0.9473
-13.2898 -0.5356 -2.5000 0.9473
-13.1283 -2.1336 -2.5000 0.9473
-12.9141 -3.1830 -2.5000 0.9473
-12.7754 -3.7004 -2.5000 0.9473
-12.0164 -5.7019 -2.5000 0.9473
-11.7771 -6.1811 -2.5000 0.9473
-11.5186 -6.6503 -2.5000 0.9473
-10.9461 -7.5556 -2.5000 0.9473
-10.6330 -7.9902 -2.5000 0.9473
-10.3027 -8.4119 -2.5000 0.9473
-9.9556 -8.8199 -2.5000 0.9473
-9.5924 -9.2136 -2.5000 0.9473
-9.2136 -9.5924 -2.5000 0.9473
-8.8199 -9.9556 -2.5000 0.9473
-7.9902 -10.6330 -2.5000 0.9473
-6.6503 -11.5186 -2.5000 0.9473
-5.2128 -12.2362 -2.5000 0.9473
-4.7164 -12.4362 -2.5000 0.9473
-4.2119 -12.6161 -2.5000 0.9473
-3.7005 -12.7754 -2.5000 0.9473
-3.1830 -12.9141 -2.5000 0.9473
-1.6017 -13.1910 -2.4976 0.9474
-1.0650 -13.1926 -2.4878 0.9476
0.0000 -13.1936 -2.4713.0318 -2.505317 -13.1931 -2.4818 0.9477
1.0649 -13.1918 -2.4876 0.9476
1.6015 -13.1897 -2.4974 0.9474
2.1335 -13.1283 -2.5000 0.9473
2.6604 -13.0318 -2.5000 0.9473
3.7005 -12.7754 -2.5000 0.9473
4.2119 -12.6161 -2.5000 0.9473
4.7164 -12.4362 -2.5000 0.9473
5.2149 -12.2362 -2.5000 0.9473
5.7018 -12.0164 -2.5000 0.9473
6.1811 -11.7771 -2.5000 0.9473
7.1087 -11.2415 -2.5000 0.9473
9.2135 -9.5924 -2.5000 0.9473
9.5924 -9.2136 -2.5000 0.9473
9.9556 -8.8199 -2.5000 0.9473
10.3027 -8.4119 -2.5000 0.9473
10.9461 -7.5556 -2.5000 0.9473
11.7771 -6.1811 -2.5000 0.9473
12.2362 -5.2134 -2.5000 0.9473
12.4362 -4.7164 -2.5000 0.9473
12.7754 -3.7005 -2.5000 0.9473
12.9141 -3.1830 -2.5000 0.9473
9.3274 -1.9042 -1.7893 0.9620
9.2640 -1.5056 -1.7641 0.9625
9.2876 -1.1277 -1.7585 0.9626
9.5663 -0.3855 -1.7996 0.9618
13.2898 0.5356 -2.5000 0.9473
13.2574 1.0702 -2.5000 0.9473
13.2036 1.6032 -2.5000 0.9473
11.8470 3.9551 -2.3476 0.9504
11.6781 4.4289 -2.3476 0.9504
11.4903 4.8956 -2.3476 0.9504
11.2839 5.3543 -2.3476 0.9504
11.0591 5.8043 -2.3476 0.9504
10.8164 6.2449 -2.3476 0.9504
10.5562 6.6753 -2.3476 0.9504
9.9265 7.4593 -2.3339 0.9507
9.2992 8.2383 -2.3351 0.9507
8.2523 7.9265 -2.1507 0.9545
7.8993 8.2241 -2.1434 0.9546
7.1851 8.1103 -2.0366 0.9569
6.1715 8.2128 -1.9310 0.9590
5.6689 8.2128 -1.8757 0.9602
4.7465 9.0437 -1.9198 0.9593
3.1382 8.2749 -1.6635 0.9646
2.7626 8.2749 -1.6397 0.9651
2.4021 8.2930 -1.6228 0.9655
2.0741 8.4149 -1.6290 0.9653
1.8263 8.9460 -1.7162 0.9635
1.1686 9.6243 -1.8223 0.9613
0.6080 7.5320 -1.4203 0.9697
-0.3385 8.3990 -1.5800 0.9664
-0.6782 8.4004 -1.5841 0.9663
-0.9138 7.5261 -1.4250 0.9696
-2.4167 8.3434 -1.6327 0.9653
-3.4401 9.0707 -1.8234 0.9613
-4.3233 8.2374 -1.7486 0.9628
-4.7775 8.2749 -1.7960 0.9619
-5.1741 8.1821 -1.8196 0.9614
-6.9992 10.1401 -2.3159 0.9511
-8.1649 9.2163 -2.3143 0.9511
-8.8800 8.5294 -2.3143 0.9511
-9.5376 7.7872 -2.3143 0.9511
-9.8434 7.3968 -2.3143 0.9511
-10.4267 6.5934 -2.3188 0.9510
-11.4572 4.8815 -2.3408 0.9506
-12.5984 4.2060 -2.4965 0.9474
-12.7719 3.6994 -2.4993 0.9473
-12.9128 3.1827 -2.4997 0.9473
-13.2036 1.6032 -2.5000 0.9473
-13.2575 1.0702 -2.5000 0.9473
-13.2898 0.5356 -2.5000 0.9473
-11.7886 -0.9517 -2.5000 0.9528
-11.7407 -1.4256 -2.5000 0.9528
-11.6738 -1.8972 -2.5000 0.9528
-11.5880 -2.3657 -2.5000 0.9528
-11.4833 -2.8304 -2.5000 0.9528
-11.3600 -3.2905 -2.5000 0.9528
-11.0584 -4.1939 -2.5000 0.9528
-10.8806 -4.6358 -2.5000 0.9528
-10.6851 -5.0701 -2.5000 0.9528
-10.2425 -5.9135 -2.5000 0.9528
-9.9960 -6.3211 -2.5000 0.9528
-9.4550 -7.1050 -2.5000 0.9528
-9.1613 -7.4799 -2.5000 0.9528
-8.8526 -7.8427 -2.5000 0.9528
-8.5296 -8.1928 -2.5000 0.9528
-8.1928 -8.5296 -2.5000 0.9528
-7.1050 -9.4550 -2.5000 0.9528
-5.9135 -10.2425 -2.5000 0.9528
-5.0702 -10.6851 -2.5000 0.9528
-2.3656 -11.5879 -2.5000 0.9528
-1.8972 -11.6738 -2.5000 0.9528
-1.4256 -11.7407 -2.5000 0.9528
-0.4762 -11.8174 -2.5000 0.9528
0.0000 -11.8270 -2.5000 0.9528
0.9517 -11.7886 -2.5000 0.9528
2.3657 -11.5880 -2.5000 0.9528
3.2905 -11.3600 -2.5000 0.9528
4.6358 -10.8806 -2.5000 0.9528
5.0702 -10.6851 -2.5000 0.9528
5.4964 -10.4723 -2.5000 0.9528
6.3211 -9.9961 -2.5000 0.9528
6.7183 -9.7334 -2.5000 0.9528
7.1051 -9.4550 -2.5000 0.9528
7.4798 -9.1613 -2.5000 0.9528
7.8428 -8.8526 -2.5000 0.9528
8.1928 -8.5296 -2.5000 0.9528
8.5296 -8.1928 -2.5000 0.9528
9.1612 -7.4799 -2.5000 0.9528
9.4550 -7.1050 -2.5000 0.9528
10.2425 -5.9135 -2.5000 0.9528
10.4723 -5.4963 -2.5000 0.9528
10.8806 -4.6358 -2.5000 0.9528
11.2183 -3.7452 -2.5000 0.9528
11.4833 -2.8304 -2.5000 0.9528
9.2678 -1.8921 -1.9994 0.9621
9.2460 -1.1227 -1.9688 0.9626
11.7407 1.4256 -2.5000 0.9528
11.6738 1.8972 -2.5000 0.9528
11.5879 2.3657 -2.5000 0.9528
11.0232 2.7170 -2.3998 0.9546
10.5344 3.5169 -2.3476 0.9556
10.3843 3.9382 -2.3476 0.9556
10.2173 4.3532 -2.3476 0.9556
10.0337 4.7611 -2.3476 0.9556
9.8339 5.1612 -2.3476 0.9556
9.3867 5.9358 -2.3476 0.9556
9.1400 6.3089 -2.3476 0.9556
6.7518 8.2694 -2.2566 0.9573
6.1644 8.2034 -2.1690 0.9589
6.2468 9.0501 -2.3245 0.9560
5.9019 9.3331 -2.3342 0.9559
5.5200 9.5609 -2.3336 0.9559
5.0231 9..9024 11.17750.9568
3.1282 8.2483 -1.8647 0.9646
2.7626 8.2749 -1.8440 0.9650
2.4021 8.2930 -1.8250 0.9653
1.8263 8.9460 -1.9300 0.9634
1.5407 9.4802 -2.0302 0.9615
1.1686 9.6245 -2.0494 0.9611
-0.3308 8.2077 -1.7364 0.9670
-1.1504 7.0786 -1.5159 0.9711
-3.7476 8.7959 -2.0210 0.9617
-5.1741 8.1821 -2.0463 0.9612
-6.9292 8.4867 -2.3159 0.9562
-8.8344 6.6386 -2.3359 0.9558
-9.3797 5.9314 -2.3458 0.9556
-10.0334 4.7609 -2.3475 0.9556
-11.2173 3.7449 -2.4998 0.9528
-11.3599 3.2904 -2.5000 0.9528
-11.6738 1.8972 -2.5000 0.9528
-11.7408 1.4256 -2.5000 0.9528
-11.7886 0.9517 -2.5000 0.9528
-11.8174 0.4762 -2.5000 0.9528
-10.6372 -0.0000 -2.5000 0.9572
-10.5596 -1.2822 -2.5000 0.9572
-10.4994 -1.7063 -2.5000 0.9572
-10.3281 -2.5457 -2.5000 0.9572
-10.2172 -2.9595 -2.5000 0.9572
-9.2121 -5.3186 -2.5000 0.9572
-8.9905 -5.6852 -2.5000 0.9572
-8.2396 -6.7274 -2.5000 0.9572
-7.6716 -7.3686 -2.5000 0.9572
-6.7274 -8.2396 -2.5000 0.9572
-6.3902 -8.5038 -2.5000 0.9572
-5.6852 -8.9904 -2.5000 0.9572
-5.3186 -9.2121 -2.5000 0.9572
-4.9434 -9.4188 -2.5000 0.9572
-4.1694 -9.7860 -2.5000 0.9572
-2.9595 -10.2172 -2.5000 0.9572
-1.7063 -10.4994 -2.5000 0.9572
-1.2822 -10.5596 -2.5000 0.9572
-0.8559 -10.6027 -2.5000 0.9572
-0.4284 -10.6286 -2.5000 0.9572
-0.0000 -10.6372 -2.5000 0.9572
0.4284 -10.6286 -2.5000 0.9572
1.2822 -10.5596 -2.5000 0.9572
2.1277 -10.4222 -2.5000 0.9572
2.9595 -10.2172 -2.5000 0.9572
3.3685 -10.0898 -2.5000 0.9572
4.1694 -9.7860 -2.5000 0.9572
4.5600 -9.6102 -2.5000 0.9572
4.9433 -9.4188 -2.5000 0.9572
5.3186 -9.2121 -2.5000 0.9572
5.6852 -8.9904 -2.5000 0.9572
6.0426 -8.7542 -2.5000 0.9572
7.3686 -7.6716 -2.5000 0.9572
7.6716 -7.3687 -2.5000 0.9572
8.2396 -6.7274 -2.5000 0.9572
8.5038 -6.3902 -2.5000 0.9572
8.7542 -6.0426 -2.5000 0.9572
8.9904 -5.6852 -2.5000 0.9572
9.2121 -5.3186 -2.5000 0.9572
9.7860 -4.1694 -2.5000 0.9572
10.3281 -2.5457 -2.5000 0.9572
9.2180 -1.8819 -2.2111 0.9621
9.2105 -1.4969 -2.1931 0.9624
9.3143 -0.7519 -2.1962 0.9623
9.4424 -0.3805 -2.2210 0.9619
10.6286 0.4283 -2.5000 0.9572
10.6027 0.8559 -2.5000 0.9572
10.4222 2.1277 -2.5000 0.9572
9.4747 3.1631 -2.3476 0.9598
9.3396 3.5421 -2.3476 0.9598
9.0243 4.2821 -2.3476 0.9598
8.6505 4.9944 -2.3476 0.9598
8.4424 5.3386 -2.3476 0.9598
8.2206 5.6742 -2.3476 0.9598
7.9854 6.0006 -2.3476 0.9598
7.7373 6.3173 -2.3476 0.9598
6.8695 7.1521 -2.3307 0.9601
6.2699 7.6792 -2.3299 0.9601
5.3007 8.3824 -2.3309 0.9601
4.9594 8.5899 -2.3311 0.9601
3.5102 8.2389 -2.1047 0.9639
3.1382 8.2749 -2.0800 0.9643
2.4021 8.2930 -2.0292 0.9651
0.6031 7.4709 -1.7616 0.9697
-0.0000 8.0203 -1.8850 0.9676
-0.3233 8.0216 -1.8868 0.9676
-1.3038 8.0224 -1.9102 0.9672
-1.9767 8.0196 -1.9412 0.9666
-2.3085 7.9698 -1.9501 0.9665
-2.4146 7.2326 -1.7920 0.9692
-3.6752 8.6260 -2.2036 0.9622
-4.3233 8.2374 -2.1864 0.9625
-5.1509 8.1454 -2.2650 0.9612
-5.6013 8.1149 -2.3174 0.9603
-6.2335 7.6346 -2.3164 0.9603
-6.5352 7.3767 -2.3162 0.9603
-6.8790 7.1618 -2.3339 0.9600
-7.2039 6.9194 -2.3476 0.9598
-7.4767 6.6238 -2.3476 0.9598
-7.9854 6.0006 -2.3476 0.9598
-8.8446 4.6420 -2.3476 0.9598
-9.0243 4.2821 -2.3476 0.9598
-9.1894 3.9153 -2.3476 0.9598
-9.3396 3.5421 -2.3476 0.9598
-10.2172 2.9595 -2.5000 0.9572
-10.3281 2.5457 -2.5000 0.9572
-10.5596 1.2822 -2.5000 0.9572
-10.6027 0.8559 -2.5000 0.9572
-9.6242 -0.7769 -2.5000 0.9609
-9.5305 -1.5489 -2.5000 0.9609
-9.3749 -2.3107 -2.5000 0.9609
-9.0281 -3.4239 -2.5000 0.9609
-8.7233 -4.1392 -2.5000 0.9609
-8.5495 -4.4871 -2.5000 0.9609
-8.3619 -4.8278 -2.5000 0.9609
-7.7190 -5.8005 -2.5000 0.9609
-7.4792 -6.1066 -2.5000 0.9609
-7.2272 -6.4028 -2.5000 0.9609
-6.6886 -6.9636 -2.5000 0.9609
-6.1066 -7.4792 -2.5000 0.9609
-5.8005 -7.7190 -2.5000 0.9609
-4.8278 -8.3619 -2.5000 0.9609
-4.4871 -8.5495 -2.5000 0.9609
-4.1393 -8.7233 -2.5000 0.9609
-3.0576 -9.1586 -2.5000 0.9609
-2.3107 -9.3749 -2.5000 0.9609
-1.5489 -9.5305 -2.5000 0.9609
-0.7770 -9.6242 -2.5000 0.9609
-0.3888 -9.6477 -2.5000 0.9609
0.3888 -9.6477 -2.5000 0.9609
0.7770 -9.6242 -2.5000 0.9609
1.1638 -9.5851 -2.5000 0.9609
1.5489 -9.5305 -2.5000 0.9609
1.9314 -9.4604 -2.5000 0.9609
2.6863 38 -9.5851 -2.0 0.9609
3.4239 -9.0280 -2.5000 0.9609
3.7846 -8.8829 -2.5000 0.9609
4.1392 -8.7233 -2.5000 0.9609
4.4871 -8.5496 -2.5000 0.9609
4.8278 -8.3619 -2.5000 0.9609
5.8005 -7.7190 -2.5000 0.9609
6.6886 -6.9636 -2.5000 0.9609
6.9636 -6.6886 -2.5000 0.9609
7.2273 -6.4028 -2.5000 0.9609
7.9463 -5.4850 -2.5000 0.9609
8.1607 -5.1605 -2.5000 0.9609
9.0281 -3.4239 -2.5000 0.9609
9.6242 -0.7770 -2.5000 0.9609
9.6476 -0.3888 -2.5000 0.9609
9.6555 -0.0000 -2.5000 0.9609
9.3749 2.3107 -2.5000 0.9609
9.2743 2.6863 -2.5000 0.9609
8.6004 2.8712 -2.3476 0.9632
8.4777 3.2152 -2.3476 0.9632
8.1915 3.8869 -2.3476 0.9632
7.8522 4.5335 -2.3476 0.9632
7.4619 5.1506 -2.3476 0.9632
7.2485 5.4469 -2.3476 0.9632
6.7867 6.0125 -2.3476 0.9632
6.5391 6.2809 -2.3476 0.9632
6.2809 6.5391 -2.3476 0.9632
5.7250 7.0118 -2.3438 0.9633
5.4039 7.1914 -2.3291 0.9635
4.4960 7.7873 -2.3282 0.9635
3.8552 8.1247 -2.3285 0.9635
3.5102 8.2389 -2.3187 0.9637
3.0732 8.1034 -2.2439 0.9648
2.4021 8.2930 -2.2355 0.9650
1.7921 8.7784 -2.3198 0.9637
1.0835 8.9232 -2.3273 0.9635
-0.0000 7.8394 -2.0298 0.9681
-0.3160 7.8407 -2.0317 0.9681
-1.6006 7.8403 -2.0719 0.9675
-1.9321 7.8389 -2.0904 0.9672
-2.2462 7.7547 -2.0904 0.9672
-3.5125 8.2442 -2.3202 0.9637
-3.8402 8.0931 -2.3194 0.9637
-4.1614 7.9290 -2.3185 0.9637
-4.7849 7.5667 -2.3180 0.9637
-5.0851 7.3671 -2.3177 0.9637
-5.4011 7.1875 -2.3278 0.9635
-6.2809 6.5391 -2.3476 0.9632
-6.5391 6.2809 -2.3476 0.9632
-6.7867 6.0125 -2.3476 0.9632
-7.0233 5.7343 -2.3476 0.9632
-7.2485 5.4469 -2.3476 0.9632
-7.4619 5.1506 -2.3476 0.9632
-7.6633 4.8459 -2.3476 0.9632
-7.8522 4.5335 -2.3476 0.9632
-8.1915 3.8869 -2.3476 0.9632
-8.3414 3.5539 -2.3476 0.9632
-8.6003 2.8712 -2.3476 0.9632
-9.3749 2.3107 -2.5000 0.9609
-9.4604 1.9313 -2.5000 0.9609
-8.8023 -0.7106 -2.5000 0.9640
-8.7666 -1.0645 -2.5000 0.9640
-8.7166 -1.4166 -2.5000 0.9640
-7.9783 -3.7858 -2.5000 0.9640
-7.8194 -4.1040 -2.5000 0.9640
-7.4639 -4.7199 -2.5000 0.9640
-7.0598 -5.3051 -2.5000 0.9640
-6.6101 -5.8560 -2.5000 0.9640
-6.3689 -6.1174 -2.5000 0.9640
-5.5851 -6.8405 -2.5000 0.9640
-5.0166 -7.2678 -2.5000 0.9640
-4.7199 -7.4639 -2.5000 0.9640
-3.7858 -7.9783 -2.5000 0.9640
-3.1315 -8.2571 -2.5000 0.9640
-1.7664 -8.6525 -2.5000 0.9640
-1.4166 -8.7166 -2.5000 0.9640
-0.7106 -8.8023 -2.5000 0.9640
0.3556 -8.8238 -2.5000 0.9640
2.1134 -8.5743 -2.5000 0.9640
3.4614 -8.1243 -2.5000 0.9640
4.1040 -7.8195 -2.5000 0.9640
4.7199 -7.4638 -2.5000 0.9640
5.0166 -7.2677 -2.5000 0.9640
5.3051 -7.0599 -2.5000 0.9640
5.5851 -6.8405 -2.5000 0.9640
5.8560 -6.6101 -2.5000 0.9640
6.3689 -6.1174 -2.5000 0.9640
6.8405 -5.5851 -2.5000 0.9640
7.0599 -5.3051 -2.5000 0.9640
7.2677 -5.0166 -2.5000 0.9640
7.4638 -4.7199 -2.5000 0.9640
7.6479 -4.4155 -2.5000 0.9640
7.8194 -4.1040 -2.5000 0.9640
7.9783 -3.7858 -2.5000 0.9640
8.2571 -3.1315 -2.5000 0.9640
8.3765 -2.7965 -2.5000 0.9640
8.4823 -2.4569 -2.5000 0.9640
8.5744 -2.1134 -2.5000 0.9640
8.6525 -1.7664 -2.5000 0.9640
8.7166 -1.4166 -2.5000 0.9640
8.8023 -0.7106 -2.5000 0.9640
8.8023 0.7106 -2.5000 0.9640
8.7666 1.0645 -2.5000 0.9640
8.7166 1.4166 -2.5000 0.9640
8.5744 2.1134 -2.5000 0.9640
8.4823 2.4569 -2.5000 0.9640
7.7537 2.9406 -2.3476 0.9661
7.6290 3.2504 -2.3476 0.9661
7.4920 3.5550 -2.3476 0.9661
7.3428 3.8538 -2.3476 0.9661
5.7445 5.9807 -2.3476 0.9661
4.9817 6.6295 -2.3476 0.9661
3.8206 7.2795 -2.3274 0.9664
3.2214 7.5609 -2.3266 0.9664
2.9139 7.6833 -2.3262 0.9664
2.2859 7.8917 -2.3259 0.9664
1.9662 7.9770 -2.3258 0.9664
0.6032 7.4724 -2.1223 0.9693
-0.0000 7.6533 -2.1666 0.9687
-0.3085 7.6546 -2.1687 0.9687
-1.2442 7.6556 -2.1957 0.9683
-1.5627 7.6543 -2.2116 0.9680
-2.1907 7.5630 -2.2290 0.9678
-2.4142 7.2315 -2.1583 0.9688
-2.9060 7.6626 -2.3200 0.9665
-3.2118 7.5384 -2.3197 0.9665
-3.5124 7.4021 -2.3194 0.9665
-3.8071 7.2538 -2.3192 0.9665
-4.1235 7.1421 -2.3346 0.9663
-4.4321 7.0087 -2.3475 0.9661
-4.7108 6.8247 -2.3476 0.9661
-6.4235 5.2446 -2.3476 0.9661
-6.8247 4.7107 -2.3476 0.9661
-7.1816 4.1463 -2.3476 0.9661
-7.6291 3.2504 -2.3476 0.9661
-7.7537 2.9406 -2.3476 0.9661
-8.2082 2.7403 -2.4498 0.9647
-8.4823 2.456.3601 0.9659
-0.3998 4.9524 -1.4066 0.9796
-1.0048 8.2753 -2.3599 0.9659
-1.3371 8.2275 -2.3597 0.9659
-1.2202 4.9507 -1.4434 0.9790
-2.6383 7.9025 -2.3585 0.9660
-2.3514 4.9554 -1.5528 0.9775
-4.1612 7.2074 -2.3560 0.9660
-3.4059 4.9343 -1.6973 0.9754
-3.7162 4.9453 -1.7512 0.9746
-4.0372 4.9446 -1.8071 0.9738
-5.9887 5.7522 -2.3507 0.9661
-6.5573 4.9276 -2.3220 0.9665
-7.1816 4.1463 -2.3476 0.9661
-7.4920 3.5550 -2.3476 0.9661
-8.1123 2.7083 -2.4211 0.9651
-8.5743 2.1134 -2.5000 0.9640
-8.6525 1.7664 -2.5000 0.9640
-8.7166 1.4166 -2.5000 0.9640
-8.8023 0.7106 -2.5000 0.9640
-8.8238 0.3556 -2.5000 0.9640
-8.1280 0.0000 -2.5000 0.9666
-8.1214 -0.3273 -2.5000 0.9666
-8.1016 -0.6540 -2.5000 0.9666
-8.0227 -1.3038 -2.5000 0.9666
-7.9637 -1.6258 -2.5000 0.9666
-7.8918 -1.9452 -2.5000 0.9666
-7.3432 -3.4844 -2.5000 0.9666
-7.1969 -3.7773 -2.5000 0.9666
-6.8697 -4.3441 -2.5000 0.9666
-6.6892 -4.6172 -2.5000 0.9666
-6.0839 -5.3898 -2.5000 0.9666
-5.6304 -5.8619 -2.5000 0.9666
-5.3898 -6.0839 -2.5000 0.9666
-4.8828 -6.4978 -2.5000 0.9666
-4.0640 -7.0390 -2.5000 0.9666
-3.4844 -7.3432 -2.5000 0.9666
-2.8822 -7.5998 -2.5000 0.9666
-1.3038 -8.0227 -2.5000 0.9666
-0.9797 -8.0687 -2.5000 0.9666
-0.6540 -8.1016 -2.5000 0.9666
-0.3273 -8.1214 -2.5000 0.9666
0.3273 -8.1214 -2.5000 0.9666
1.3038 -8.0227 -2.5000 0.9666
1.6258 -7.9637 -2.5000 0.9666
2.2613 -7.8071 -2.5000 0.9666
2.8822 -7.5998 -2.5000 0.9666
3.1859 -7.4775 -2.5000 0.9666
3.7772 -7.1970 -2.5000 0.9666
4.0640 -7.0390 -2.5000 0.9666
5.8619 -5.6304 -2.5000 0.9666
6.0839 -5.3898 -2.5000 0.9666
6.2960 -5.1405 -2.5000 0.9666
6.8697 -4.3441 -2.5000 0.9666
7.1970 -3.7773 -2.5000 0.9666
7.4775 -3.1859 -2.5000 0.9666
7.5998 -2.8822 -2.5000 0.9666
7.7097 -2.5739 -2.5000 0.9666
7.8071 -2.2613 -2.5000 0.9666
7.8918 -1.9451 -2.5000 0.9666
7.9637 -1.6258 -2.5000 0.9666
8.0687 -0.9797 -2.5000 0.9666
8.1016 -0.6540 -2.5000 0.9666
8.1214 -0.3273 -2.5000 0.9666
8.0227 1.3038 -2.5000 0.9666
7.9637 1.6258 -2.5000 0.9666
7.8071 2.2613 -2.5000 0.9666
7.7097 2.5739 -2.5000 0.9666
7.0217 2.9917 -2.3476 0.9686
6.8956 3.2720 -2.3476 0.9686
6.4509 4.0793 -2.3476 0.9686
6.2814 4.3357 -2.3476 0.9686
5.5080 5.2905 -2.3491 0.9685
4.7674 4.9635 -2.1168 0.9716
3.7281 4.9613 -1.9088 0.9744
3.4240 4.9606 -1.8539 0.9751
3.1365 4.9600 -1.8050 0.9757
2.6026 4.9588 -1.7225 0.9768
2.1073 4.9461 -1.6536 0.9778
1.4356 4.9563 -1.5871 0.9786
1.5329 7.5085 -2.3571 0.9684
0.8052 4.9550 -1.5440 0.9792
0.3086 7.6590 -2.3576 0.9684
-0.3998 4.9524 -1.5282 0.9794
-0.6013 4.9520 -1.5343 0.9793
-1.5329 7.5085 -2.3571 0.9684
-1.4339 4.9502 -1.5852 0.9787
-2.4259 7.2663 -2.3562 0.9684
-2.1035 4.9371 -1.6506 0.9778
-3.8265 6.6277 -2.3539 0.9685
-3.7162 4.9453 -1.9027 0.9744
-4.3799 4.9439 -2.0315 0.9727
-4.7479 4.9431 -2.1081 0.9717
-6.2814 4.3357 -2.3476 0.9686
-6.6099 3.8162 -2.3476 0.9686
-7.1752 2.7212 -2.3603 0.9684
-7.7097 2.5739 -2.5000 0.9666
-8.1016 0.6540 -2.5000 0.9666
-7.5148 -0.3029 -2.5000 0.9688
-7.4965 -0.6052 -2.5000 0.9688
-7.4660 -0.9066 -2.5000 0.9688
-7.4235 -1.2064 -2.5000 0.9688
-7.3689 -1.5044 -2.5000 0.9688
-7.3023 -1.7999 -2.5000 0.9688
-7.0322 -2.6670 -2.5000 0.9688
-6.6594 -3.4951 -2.5000 0.9688
-6.3566 -4.0197 -2.5000 0.9688
-6.0125 -4.5181 -2.5000 0.9688
-5.6295 -4.9873 -2.5000 0.9688
-5.4241 -5.2099 -2.5000 0.9688
-4.5181 -6.0125 -2.5000 0.9688
-4.2724 -6.1896 -2.5000 0.9688
-2.6670 -7.0321 -2.5000 0.9688
-2.0925 -7.2240 -2.5000 0.9688
-1.2064 -7.4235 -2.5000 0.9688
-0.6052 -7.4965 -2.5000 0.9688
-0.3028 -7.5148 -2.5000 0.9688
-0.0000 -7.5209 -2.5000 0.9688
0.6052 -7.4965 -2.5000 0.9688
1.2064 -7.4235 -2.5000 0.9688
1.5044 -7.3689 -2.5000 0.9688
1.7999 -7.3023 -2.5000 0.9688
2.0924 -7.2239 -2.5000 0.9688
2.3816 -7.1338 -2.5000 0.9688
3.2241 -6.7947 -2.5000 0.9688
3.4951 -6.6594 -2.5000 0.9688
3.7604 -6.5133 -2.5000 0.9688
4.2724 -6.1896 -2.5000 0.9688
4.5181 -6.0125 -2.5000 0.9688
4.9873 -5.6295 -2.5000 0.9688
5.2099 -5.4241 -2.5000 0.9688
5.6295 -4.9873 -2.5000 0.9688
6.0125 -4.5181 -2.5000 0.9688
6.5133 -3.7604 -2.5000 0.9688
7.0322 -2.6669 -2.5000 0.9688
7.2239 -2.0925 -2.5000 0.9688
7.3023 -1.7999 -2.5000 0.9688
7.3689 -1.5044 -2.5000 0.9688
7.4235 -1.2064 -2.5000 0.9688
7.4661 -0.9066 -2.5000 0.9688
7.4965 -0.6052 -2.5000 0.9688
7.4660 0.9065 -2.5000 0.9688
7.4235 1.2064 -2.5000 0.9688
7.3024 1.7999 -2.5000 0.9688
7.2240 2.0924 -2.5000 0.9688
6.3805 3.0276 -2.3476 0.9707
5.6460 4.2427 -2.3476 0.9707
5.4706 4.4666 -2.3476 0.9707
5.2863 4.6832 -2.3476 0.9707
5.0935 4.8924 -2.3476 0.9707
4.7674 4.9635 -2.2877 0.9714
4.3983 4.9647 -2.2047 0.9724
3.7281 4.9613 -2.0629 0.9742
3.5380 6.1280 -2.3521 0.9706
2.6026 4.9588 -1.8616 0.9767
3.0347 6.3954 -2.3531 0.9706
2.1123 4.9578 -1.7913 0.9775
2.2428 6.7179 -2.3542 0.9706
1.4356 4.9563 -1.7152 0.9785
1.2186 4.9442 -1.6926 0.9788
0.6002 4.9429 -1.6551 0.9792
0.3990 4.9424 -1.6482 0.9793
0.1991 4.9420 -1.6441 0.9794
-0.0000 4.9416 -1.6426 0.9794
-0.1991 4.9412 -1.6438 0.9794
-0.3989 4.9407 -1.6477 0.9793
-0.5999 4.9403 -1.6542 0.9792
-1.0084 4.9394 -1.6757 0.9790
-1.8770 4.9493 -1.7595 0.9779
-2.1085 4.9488 -1.7881 0.9776
-2.3515 4.9558 -1.8234 0.9771
-3.5380 6.1280 -2.3521 0.9706
-3.4139 4.9460 -1.9977 0.9750
-3.7162 4.9453 -2.0562 0.9743
-4.0372 4.9446 -2.1219 0.9735
-4.3799 4.9439 -2.1955 0.9725
-5.4706 4.4666 -2.3476 0.9707
-5.6460 4.2427 -2.3476 0.9707
-5.8122 4.0119 -2.3476 0.9707
-6.1162 3.5312 -2.3476 0.9707
-6.2535 3.2821 -2.3476 0.9707
-6.4973 2.7682 -2.3476 0.9707
-7.0321 2.6669 -2.5000 0.9688
-7.5148 0.3029 -2.5000 0.9688
-6.9909 -0.0000 -2.5000 0.9707
-6.9682 -0.5625 -2.5000 0.9707
-6.9399 -0.8427 -2.5000 0.9707
-6.9003 -1.1214 -2.5000 0.9707
-6.8496 -1.3984 -2.5000 0.9707
-6.7877 -1.6730 -2.5000 0.9707
-6.7149 -1.9450 -2.5000 0.9707
-6.4315 -2.7402 -2.5000 0.9707
-6.1901 -3.2488 -2.5000 0.9707
-5.9086 -3.7364 -2.5000 0.9707
-5.7534 -3.9713 -2.5000 0.9707
-5.5888 -4.1997 -2.5000 0.9707
-5.2327 -4.6358 -2.5000 0.9707
-4.6358 -5.2328 -2.5000 0.9707
-4.4213 -5.4152 -2.5000 0.9707
-4.1997 -5.5888 -2.5000 0.9707
-3.4954 -6.0543 -2.5000 0.9707
-2.9969 -6.3159 -2.5000 0.9707
-2.7402 -6.4315 -2.5000 0.9707
-1.3984 -6.8496 -2.5000 0.9707
-1.1214 -6.9003 -2.5000 0.9707
-0.8427 -6.9399 -2.5000 0.9707
-0.2815 -6.9852 -2.5000 0.9707
-0.0000 -6.9909 -2.5000 0.9707
0.2815 -6.9852 -2.5000 0.9707
1.3984 -6.8496 -2.5000 0.9707
2.2138 -6.6311 -2.5000 0.9707
2.4790 -6.5366 -2.5000 0.9707
2.9969 -6.3159 -2.5000 0.9707
3.4954 -6.0543 -2.5000 0.9707
3.7364 -5.9086 -2.5000 0.9707
3.9712 -5.7534 -2.5000 0.9707
4.4213 -5.4152 -2.5000 0.9707
4.8427 -5.0418 -2.5000 0.9707
5.4152 -4.4213 -2.5000 0.9707
5.5888 -4.1997 -2.5000 0.9707
5.9086 -3.7364 -2.5000 0.9707
6.0543 -3.4954 -2.5000 0.9707
6.1901 -3.2488 -2.5000 0.9707
6.3159 -2.9969 -2.5000 0.9707
6.5366 -2.4790 -2.5000 0.9707
6.6311 -2.2138 -2.5000 0.9707
6.7877 -1.6730 -2.5000 0.9707
6.8496 -1.3984 -2.5000 0.9707
6.9399 -0.8427 -2.5000 0.9707
6.9682 0.5625 -2.5000 0.9707
6.9003 1.1214 -2.5000 0.9707
6.8496 1.3984 -2.5000 0.9707
6.7877 1.6730 -2.5000 0.9707
6.7149 1.9450 -2.5000 0.9707
6.6311 2.2138 -2.5000 0.9707
6.3260 2.6953 -2.4590 0.9712
5.5484 3.5086 -2.3476 0.9725
5.2481 3.9437 -2.3476 0.9725
5.0850 4.1518 -2.3476 0.9725
4.7345 4.5475 -2.3476 0.9725
4.5475 4.7345 -2.3476 0.9725
4.3534 4.9140 -2.3477 0.9725
4.0685 4.9831 -2.3005 0.9730
3.7281 4.9613 -2.2193 0.9740
3.4240 4.9606 -2.1555 0.9747
3.2865 5.6923 -2.3505 0.9725
2.8188 5.9406 -2.3514 0.9725
2.1123 4.9578 -1.9271 0.9774
2.0832 6.2399 -2.3525 0.9724
0.8052 4.9550 -1.7952 0.9789
0.6016 4.9546 -1.7848 0.9790
0.3999 4.9541 -1.7774 0.9791
0.2650 6.5765 -2.3537 0.9724
-0.1996 4.9529 -1.7726 0.9792
-0.3998 4.9524 -1.7768 0.9791
-0.6013 4.9520 -1.7839 0.9790
-1.3163 6.4475 -2.3533 0.9724
-1.8770 4.9493 -1.8929 0.9778
-2.5968 4.9477 -1.9982 0.9765
-3.2865 5.6923 -2.3505 0.9725
-3.1280 4.9466 -2.0929 0.9754
-3.4139 4.9460 -2.1491 0.9748
-3.7162 4.9453 -2.2121 0.9741
-4.0372 4.9446 -2.2827 0.9732
-4.5475 4.7345 -2.3476 0.9725
-4.7345 4.5475 -2.3476 0.9725
-5.2481 3.9437 -2.3476 0.9725
-5.4026 3.7292 -2.3476 0.9725
-5.5484 3.5086 -2.3476 0.9725
-5.6852 3.2823 -2.3476 0.9725
-6.3366 2.6997 -2.4631 0.9712
-6.6311 2.2138 -2.5000 0.9707
-6.8496 1.3983 -2.5000 0.9707
-6.9004 1.1214 -2.5000 0.9707
-6.9399 0.8426 -2.5000 0.9707
-6.9682 0.5625 -2.5000 0.9707
-6.9852 0.2815 -2.5000 0.9707
-6.4392 -1.0465 -2.5000 0.9724
-6.2661 -1.8150 -2.5000 0.9724
-6.1879 -2.0658 -2.5000 0.9724
-6.0997 -2.3133 -2.5000 0.9724
-6.0016 -2.5571 -2.5000 0.9724
-5.8938 -2.7966 -2.5000 0.9724
-5.3689 -3.7059 -2.5000 0.9724
-5.2153 -3.9190 -2.5000 0.9724
-4.3260 -4.8830 -2.5000 0.9724
-4.1259 -5.0533 -2.5000 0.9724
-3.9190 -5.2153 -2.5000 0.9724
-3.4867 -5.5137 -2.5000 0.9724
-3.2618 -5.6496 -2.5000 0.9724
-3.0317 -5.7764 -2.5000 0.9724
-2.5571 -6.0016 -2.5000 0.9724
-1.3049 -6.3918 -2.5000 0.9724
-0.7863 -6.4761 -2.5000 0.9724
-0.5249 -6.5025 -2.5000 0.9724
-0.0000 -6.5237 -2.5000 0.9724
1.0465 -6.4392 -2.5000 0.9724
2.5571 -6.0016 -2.5000 0.9724
2.7966 -5.8938 -2.5000 0.9724
3.0317 -5.7764 -2.5000 0.9724
3.4867 -5.5137 -2.5000 0.9724
3.7058 -5.3689 -2.5000 0.9724
4.1258 -5.0533 -2.5000 0.9724
4.5191 -4.7049 -2.5000 0.9724
5.3689 -3.7059 -2.5000 0.9724
5.6497 -3.2618 -2.5000 0.9724
5.8938 -2.7966 -2.5000 0.9724
6.0016 -2.5571 -2.5000 0.9724
6.0997 -2.3133 -2.5000 0.9724
6.3918 -1.3049 -2.5000 0.9724
6.4392 -1.0465 -2.5000 0.9724
6.4761 -0.7863 -2.5000 0.9724
6.5025 -0.5249 -2.5000 0.9724
6.5184 0.2627 -2.5000 0.9724
6.4761 0.7863 -2.5000 0.9724
6.4392 1.0465 -2.5000 0.9724
6.3918 1.3049 -2.5000 0.9724
6.1879 2.0658 -2.5000 0.9724
6.0997 2.3133 -2.5000 0.9724
6.0016 2.5571 -2.5000 0.9724
5.6972 2.7034 -2.4166 0.9733
5.4243 2.8469 -2.3476 0.9741
5.0416 3.4799 -2.3476 0.9741
4.5853 4.0623 -2.3476 0.9741
3.8743 4.7452 -2.3476 0.9741
