ply
format ascii 1.0
element vertex 1576
property float32 x
property float32 y
property float32 z
property float32 I
end_header
2.3364 8.0664 -0.4259 0.9669
1.9907 8.0769 -0.4219 0.9672
1.6625 8.1433 -0.4215 0.9673
1.3493 8.3029 -0.4266 0.9669
0.7377 9.1388 -0.4650 0.9639
-0.7819 9.6852 -0.4928 0.9618
-1.1755 9.6811 -0.4946 0.9617
-1.7741 8.6898 -0.4498 0.9651
-2.3862 9.6811 -0.5057 0.9609
-3.2958 8.6902 -0.4714 0.9635
-4.1007 9.6246 -0.5306 0.9590
-4.5137 8.6001 -0.4926 0.9618
-4.8423 8.3871 -0.4911 0.9620
-5.1649 8.1676 -0.4901 0.9620
-28.8858 35.3787 -2.3163 0.8328
-30.3268 34.2318 -2.3193 0.8326
-31.3495 30.1116 -2.2045 0.8402
-31.8932 28.2548 -2.1609 0.8431
-32.7273 26.7210 -2.1427 0.8443
-35.1086 26.3823 -2.2272 0.8387
-31.8321 21.9721 -1.9616 0.8565
-25.7020 14.8391 -1.5051 0.8879
-31.6964 15.0401 -1.7792 0.8689
-32.4533 13.8270 -1.7890 0.8682
-31.3549 11.8913 -1.7007 0.8743
-31.4366 10.4951 -1.6808 0.8757
-31.4366 9.1058 -1.6598 0.8771
-31.4366 7.7485 -1.6420 0.8784
-31.3549 6.4012 -1.6229 0.8797
-45.9873 5.5839 -2.3493 0.8307
-34.0959 0.0000 -2.5000 0.8722
-34.0682 -1.3729 -2.5000 0.8722
-33.6544 -5.4694 -2.5000 0.8722
-33.1051 -8.1597 -2.5000 0.8722
-28.3533 -14.8810 -2.3479 0.8795
-27.7392 -16.0152 -2.3485 0.8794
-21.7774 -16.3646 -1.9974 0.8965
-14.4010 -16.2554 -1.5923 0.9166
-13.2000 -16.1671 -1.5303 0.9197
-12.1302 -16.1424 -1.4805 0.9222
-11.1263 -16.1193 -1.4361 0.9245
-17.0639 -26.9844 -2.3410 0.8798
-9.2820 -16.0768 -1.3611 0.9282
-8.4274 -16.0571 -1.3296 0.9299
-10.4874 -22.1016 -1.7937 0.9065
-6.0691 -16.0028 -1.2549 0.9337
-5.3211 -15.9385 -1.2320 0.9348
-4.6256 -15.9696 -1.2191 0.9355
-3.9322 -15.9536 -1.2048 0.9362
-3.2538 -15.9380 -1.1927 0.9368
-2.5877 -15.9226 -1.1828 0.9373
-1.2830 -15.8926 -1.1691 0.9381
3.2233 -15.7888 -1.1815 0.9374
7.9083 -27.3026 -2.0842 0.8923
6.7478 -15.8376 -1.2623 0.9333
7.4457 -15.6915 -1.2735 0.9327
8.2580 -15.7343 -1.3029 0.9312
9.8871 -15.6353 -1.3564 0.9285
10.8916 -15.7793 -1.4058 0.9260
12.8650 -15.7568 -1.4915 0.9217
15.0333 -15.6514 -1.5912 0.9166
23.0938 -22.1819 -2.3479 0.8795
17.6662 -15.6509 -1.7305 0.9097
18.8956 -15.4278 -1.7886 0.9068
25.6131 -19.2470 -2.3491 0.8794
26.3500 -18.1881 -2.3476 0.8795
28.8177 -18.2232 -2.5000 0.8722
30.1905 -15.8452 -2.5000 0.8722
30.8041 -14.6167 -2.5000 0.8722
31.8803 -12.0906 -2.5000 0.8722
32.3413 -10.7971 -2.5000 0.8722
32.7498 -9.4861 -2.5000 0.8722
33.1052 -8.1597 -2.5000 0.8722
33.4069 -6.8201 -2.5000 0.8722
33.9854 -2.7436 -2.5000 0.8722
34.0683 1.3729 -2.5000 0.8722
33.8473 4.1098 -2.5000 0.8722
33.6545 5.4694 -2.5000 0.8722
33.1053 8.1597 -2.5000 0.8722
32.7499 9.4861 -2.5000 0.8722
32.3414 10.7971 -2.5000 0.8722
31.8804 12.0906 -2.5000 0.8722
16.7541 7.9499 -1.3597 0.9283
13.5102 9.3254 -1.2037 0.9363
10.3947 8.4870 -0.9839 0.9476
8.8317 8.4830 -0.8979 0.9521
8.2198 8.5578 -0.8700 0.9535
7.8811 9.6526 -0.9137 0.9512
6.6627 9.6526 -0.8600 0.9540
4.1923 8.8352 -0.7170 0.9615
4.0777 9.5708 -0.7628 0.9591
2.7614 8.2714 -0.6394 0.9656
2.0396 8.2749 -0.6249 0.9664
1.6833 8.2452 -0.6170 0.9668
0.3878 9.6240 -0.7062 0.9621
-1.1755 9.6811 -0.7151 0.9616
-1.7740 8.6895 -0.6503 0.9651
-3.2010 9.5880 -0.7412 0.9603
-4.1007 9.6246 -0.7671 0.9589
-4.5929 8.7509 -0.7246 0.9611
-4.8423 8.3871 -0.7101 0.9619
-5.1649 8.1676 -0.7086 0.9620
-6.2259 8.2851 -0.7599 0.9593
-21.2310 26.0032 -2.4614 0.8740
-22.2608 25.1272 -2.4614 0.8740
-23.2545 24.2105 -2.4614 0.8740
-25.1272 22.2609 -2.4614 0.8740
-25.4602 20.7876 -2.4100 0.8765
-26.6502 16.8526 -2.3120 0.8812
-25.6953 14.8352 -2.1755 0.8878
-29.0954 12.3964 -2.3189 0.8809
-29.8551 11.3225 -2.3412 0.8798
-31.0743 7.6592 -2.3466 0.8795
-31.6094 5.1370 -2.3481 0.8795
-31.7862 3.8595 -2.3477 0.8795
-34.0683 1.3729 -2.5000 0.8722
-26.0349 0.0000 -2.4995 0.9007
-25.7030 -4.1771 -2.5000 0.9006
-25.5139 -5.2087 -2.5000 0.9006
-25.2835 -6.2318 -2.5000 0.9006
-25.0121 -7.2448 -2.5000 0.9006
-24.7000 -8.2461 -2.5000 0.9006
-24.3480 -9.2340 -2.5000 0.9006
-23.0575 -12.1015 -2.5000 0.9006
-22.5515 -13.0201 -2.5000 0.9006
-20.9075 -13.2211 -2.3749 0.9054
-20.1243 -13.8908 -2.3476 0.9064
-19.5486 -14.6899 -2.3476 0.9064
-16.9624 -17.6597 -2.3508 0.9063
-14.3462 -16.1935 -2.0770 0.9167
-13.2000 -16.1671 -2.0038 0.9196
-12.1303 -16.1424 -1.9385 0.9221
-13.0705 -20.6693 -2.3478 0.9064
-10.4776 -22.0811 -2.3464 0.9065
-9.3434 -21.9298 -2.2885 0.9087
-6.0691 -16.0028 -1.6431 0.9335
-5.3211 -15.9385 -1.6132 0.9347
-3.9322 -15.9536 -1.5775 0.9361
-1.9315 -15.9075 -1.5384 0.9376
-1.2830 -15.8926 -1.5307 0.9379
-0.6399 -15.8778 -1.5256 0.9381
1.6036 -19.8649 -1.9133 0.9230
2.9439 -24.2453 -2.3448 0.9065
3.9181 -24.1090 -2.3450 0.9065
4.8862 -23.9341 -2.3452 0.9065
6.7979 -23.4691 -2.3458 0.9065
7.7385 -23.1798 -2.3461 0.9065
8.6670 -22.8531 -2.3465 0.9065
6.7505 -15.8442 -1.6534 0.9331
10.7918 -15.6346 -1.8238 0.9265
11.7174 -15.5931 -1.8726 0.9246
12.7126 -15.5702 -1.9298 0.9224
16.9714 -17.6691 -2.3521 0.9062
16.9701 -16.3000 -2.2590 0.9098
19.5486 -14.6898 -2.3476 0.9064
20.1242 -13.8907 -2.3476 0.9064
20.8819 -13.2049 -2.3720 0.9055
23.0574 -12.1015 -2.5000 0.9006
23.9564 -10.2069 -2.5000 0.9006
24.3480 -9.2341 -2.5000 0.9006
25.0121 -7.2449 -2.5000 0.9006
25.9557 -2.0954 -2.5000 0.9006
26.0190 -1.0485 -2.5000 0.9006
26.0402 0.0000 -2.5000 0.9006
26.0190 1.0485 -2.5000 0.9006
25.9557 2.0954 -2.5000 0.9006
24.1360 3.9225 -2.3476 0.9064
14.9888 7.1123 -1.5928 0.9355
15.0287 7.8877 -1.6295 0.9341
13.5125 7.8014 -1.4980 0.9392
13.5114 8.5441 -1.5348 0.9378
10.8674 8.1663 -1.3051 0.9468
10.3544 8.4541 -1.2833 0.9477
8.7937 8.4464 -1.1706 0.9522
6.6627 9.6526 -1.1260 0.9540
5.2133 8.2442 -0.9365 0.9616
4.3308 8.2517 -0.8947 0.9632
3.9880 8.4045 -0.8931 0.9633
4.0777 9.5708 -0.9988 0.9591
3.2277 8.5108 -0.8739 0.9641
2.7614 8.2714 -0.8372 0.9656
2.3513 8.1178 -0.8114 0.9666
2.0145 8.1730 -0.8081 0.9667
1.6833 8.2452 -0.8079 0.9667
1.3662 8.4067 -0.8177 0.9664
1.0477 8.6287 -0.8345 0.9657
0.7377 9.1387 -0.8802 0.9638
-0.0000 8.2167 -0.7888 0.9675
-1.6742 8.2008 -0.8036 0.9669
-2.3862 9.6811 -0.9573 0.9607
-2.8042 9.6811 -0.9676 0.9603
-3.2294 8.5153 -0.8743 0.9641
-4.2867 9.0340 -0.9600 0.9606
-5.1950 8.2153 -0.9332 0.9617
-5.6120 8.1304 -0.9485 0.9611
-6.2259 8.2851 -0.9950 0.9592
-17.7602 18.4903 -2.4614 0.9021
-18.4903 17.7602 -2.4614 0.9021
-19.8595 16.2147 -2.4614 0.9021
-20.4963 15.4019 -2.4614 0.9021
-22.7015 11.9147 -2.4614 0.9021
-23.1629 10.9909 -2.4614 0.9021
-23.5866 10.0493 -2.4614 0.9021
-23.9721 9.0914 -2.4614 0.9021
-24.6260 7.1330 -2.4614 0.9021
-24.8992 6.1371 -2.4620 0.9021
-25.2139 5.1474 -2.4706 0.9018
-25.8238 3.1356 -2.4974 0.9007
-25.9361 2.0938 -2.4981 0.9007
-26.0065 1.0480 -2.4988 0.9007
-21.0289 -0.8474 -2.5000 0.9187
-20.7736 -3.3760 -2.5000 0.9187
-19.3620 -8.2494 -2.5000 0.9187
-19.0142 -9.0223 -2.5000 0.9187
-17.3206 -11.9556 -2.5000 0.9187
-16.1670 -13.1999 -2.4792 0.9194
-14.9223 -13.2200 -2.3681 0.9228
-13.6904 -14.2532 -2.3476 0.9235
-13.1054 -14.7929 -2.3476 0.9235
-10.5671 -16.7105 -2.3486 0.9234
-9.1990 -17.5273 -2.3513 0.9234
-6.0691 -16.0028 -2.0330 0.9334
-3.9322 -15.9536 -1.9518 0.9360
-3.2538 -15.9380 -1.9323 0.9366
-1.9315 -15.9075 -1.9035 0.9375
0.0000 -15.8630 -1.8843 0.9381
1.9208 -15.8188 -1.8928 0.9378
2.5684 -15.8039 -1.9019 0.9375
4.5643 -15.7579 -1.9488 0.9361
5.9639 -15.7256 -1.9978 0.9345
6.7879 -15.9318 -2.0571 0.9326
8.4873 -17.8867 -2.3517 0.9233
9.1947 -17.5190 -2.3502 0.9234
10.5641 -16.7057 -2.3479 0.9235
13.1054 -14.7929 -2.3476 0.9235
14.2532 -13.6904 -2.3476 0.9235
14.9092 -13.2084 -2.3660 0.9229
16.1516 -13.1874 -2.4769 0.9194
17.3206 -11.9556 -2.5000 0.9187
17.7880 -11.2484 -2.5000 0.9187
19.0138 -9.0223 -2.5000 0.9187
19.3620 -8.2494 -2.5000 0.9187
19.9630 -6.6646 -2.5000 0.9187
20.2152 -5.8554 -2.5000 0.9187
20.4346 -5.0367 -2.5000 0.9187
11.5288 -2.3536 -1.3977 0.9537
11.1363 -1.8098 -1.3402 0.9556
11.1923 -1.3590 -1.3393 0.9556
11.3085 -0.9129 -1.3477 0.9553
21.0291 -0.8474 -2.5000 0.9187
21.0291 0.8474 -2.5000 0.9187
20.8927 2.5368 -2.5000 0.9187
19.1888 4.7296 -2.3476 0.9235
18.9829 5.4984 -2.3476 0.9235
18.4656 7.0031 -2.3459 0.9235
13.5137 7.0925 -1.8129 0.9404
13.5115 8.5441 -1.8989 0.9376
12.2099 8.4279 -1.7623 0.9420
10.8674 8.1663 -1.6148 0.9467
10.3544 8.4541 -1.5878 0.9476
9.5341 8.4465 -1.5130 0.9500
8.7937 8.4464 -1.4484 0.9521
8.1129 8.4465 -1.3912 0.9539
7.8811 9.6526 -1.4802 0.9510
3.8671 9.0765 -1.1719 0.9610
2.7614 8.2714 -1.0358 0.9655
1.3662 8.4067 -1.0117 0.9663
1.0556 8.6940 -1.0403 0.9653
-0.0000 8.0367 -0.9546 0.9681
-0.3871 9.6065 -1.1420 0.9620
-0.7732 9.5772 -1.1413 0.9620
-1.1575 9.5324 -1.1406 0.9621
-1.5050 9.2603 -1.1144 0.9629
-1.6054 7.8635 -0.9533 0.9682
-2.2981 9.3237 -1.1407 0.9621
-2.6733 9.2291 -1.1414 0.9620
-3.0445 9.1194 -1.1420 0.9620
-3.3253 7.8046 -1.0077 0.9664
-4.5137 8.6001 -1.1537 0.9616
-5.1649 8.1676 -1.1479 0.9618
-12.8934 14.5536 -2.3096 0.9247
-14.3541 14.9442 -2.4614 0.9199
-14.9442 14.3541 -2.4614 0.9199
-16.5655 12.4481 -2.4614 0.9199
-17.0533 11.7710 -2.4614 0.9199
-17.5134 11.0748 -2.4614 0.9199
-18.3478 9.6296 -2.4614 0.9199
-18.7207 8.8830 -2.4614 0.9199
-19.0632 8.1220 -2.4614 0.9199
-19.3774 7.3489 -2.4617 0.9199
-19.7284 6.5863 -2.4706 0.9196
-20.0135 5.7970 -2.4750 0.9195
-20.2680 4.9956 -2.4796 0.9194
-20.5448 4.1942 -2.4908 0.9190
-20.8826 2.5356 -2.4988 0.9188
-17.6298 -0.7104 -2.5000 0.9312
-17.1314 -4.2225 -2.5000 0.9312
-16.9475 -4.9089 -2.5000 0.9312
-16.7361 -5.5873 -2.5000 0.9312
-16.4976 -6.2567 -2.5000 0.9312
-15.6231 -8.1996 -2.5000 0.9312
-15.2803 -8.8221 -2.5000 0.9312
-14.9126 -9.4302 -2.5000 0.9312
-13.6673 -11.1589 -2.5000 0.9312
-13.2068 -11.7002 -2.5000 0.9312
-11.6895 -13.1947 -2.4977 0.9313
-10.7852 -13.2094 -2.4162 0.9334
-9.9534 -13.2456 -2.3476 0.9353
-9.4120 -13.6356 -2.3476 0.9353
-8.2843 -14.3488 -2.3476 0.9353
-5.8753 -15.4919 -2.3476 0.9353
-5.2470 -15.7167 -2.3477 0.9353
-3.9657 -16.0894 -2.3479 0.9352
-2.6583 -16.3573 -2.3481 0.9352
-1.3335 -16.5187 -2.3481 0.9352
0.6673 -16.5587 -2.3481 0.9352
2.6581 -16.3561 -2.3479 0.9352
3.3145 -16.2351 -2.3478 0.9352
3.9653 -16.0877 -2.3477 0.9353
5.2467 -15.7159 -2.3476 0.9353
7.1028 -14.9689 -2.3476 0.9353
8.8553 -14.0036 -2.3476 0.9353
9.4120 -13.6356 -2.3476 0.9353
11.6815 -13.1857 -2.4960 0.9313
12.2225 -12.7250 -2.5000 0.9312
12.7250 -12.2225 -2.5000 0.9312
13.2068 -11.7002 -2.5000 0.9312
15.2804 -8.8221 -2.5000 0.9312
15.9406 -7.5639 -2.5000 0.9312
16.7361 -5.5873 -2.5000 0.9312
16.9475 -4.9089 -2.5000 0.9312
10.8016 -2.2052 -1.5620 0.9564
10.7126 -1.7410 -1.5378 0.9571
10.9132 -0.8810 -1.5513 0.9567
17.6298 -0.7104 -2.5000 0.9312
17.5869 1.4198 -2.5000 0.9312
16.0871 3.9651 -2.3476 0.9353
15.7158 5.2467 -2.3476 0.9353
15.2427 6.4943 -2.3476 0.9353
13.5142 7.0928 -2.1625 0.9402
13.5112 8.5440 -2.2651 0.9375
10.8674 8.1663 -1.9261 0.9466
10.3544 8.4541 -1.8940 0.9474
8.7937 8.4464 -1.7276 0.9519
7.0662 7.9762 -1.5099 0.9579
7.3922 9.0538 -1.6561 0.9539
4.7417 8.2128 -1.3437 0.9624
4.3104 8.2128 -1.3142 0.9632
4.0777 9.5708 -1.4740 0.9588
3.4071 8.9839 -1.3614 0.9619
2.7614 8.2714 -1.2356 0.9654
2.3513 8.1178 -1.1975 0.9664
2.0024 8.1240 -1.1855 0.9668
0.7377 9.1387 -1.2991 0.9636
0.3878 9.6240 -1.3647 0.9618
-0.3594 8.9184 -1.2647 0.9646
-1.0750 8.8528 -1.2636 0.9646
-1.6010 7.8423 -1.1341 0.9682
-1.9307 7.8329 -1.1431 0.9679
-2.5375 8.7605 -1.2923 0.9638
-4.3205 9.1052 -1.4280 0.9601
-4.5929 8.7509 -1.4003 0.9609
-5.1649 8.1676 -1.3692 0.9617
-10.3303 12.6522 -2.3143 0.9361
-11.3109 11.7759 -2.3135 0.9362
-11.7695 11.3047 -2.3123 0.9362
-12.2087 10.8159 -2.3110 0.9362
-12.6279 10.3103 -2.3099 0.9363
-13.0279 9.7898 -2.3090 0.9363
-14.6825 9.2846 -2.4614 0.9322
-15.0444 8.6859 -2.4614 0.9322
-16.3241 6.1909 -2.4737 0.9319
-16.6088 5.5448 -2.4810 0.9317
-16.8441 4.8790 -2.4847 0.9316
-17.2799 3.5277 -2.4989 0.9312
-17.4105 2.8295 -2.4993 0.9312
-17.5135 2.1265 -2.4997 0.9312
-17.5869 1.4197 -2.5000 0.9312
-14.8687 -3.0355 -2.5000 0.9403
-14.5763 -4.2221 -2.5000 0.9403
-14.3945 -4.8056 -2.5000 0.9403
-12.1319 -9.1165 -2.5000 0.9403
-10.5124 -10.9445 -2.5000 0.9403
-10.0632 -11.3590 -2.5000 0.9403
-9.1165 -12.1319 -2.5000 0.9403
-8.6206 -12.4891 -2.5000 0.9403
-8.1108 -12.8261 -2.5000 0.9403
-7.5877 -13.1423 -2.5000 0.9403
-6.9282 -13.2005 -2.4560 0.9414
-5.0532 -13.3243 -2.3476 0.9439
-4.5126 -13.5169 -2.3476 0.9439
-3.9647 -13.6877 -2.3476 0.9439
-1.7177 -14.1464 -2.3476 0.9439
-1.1467 -14.2041 -2.3476 0.9439
1.1467 -14.2041 -2.3476 0.9439
1.7177 -14.1464 -2.3476 0.9439
2.2859 -14.0658 -2.3476 0.9439
2.8504 -13.9623 -2.3476 0.9439
3.9647 -13.6877 -2.3476 0.9439
5.0532 -13.3243 -2.3476 0.9439
6.2654 -13.2042 -2.4077 0.9425
6.9253 -13.1951 -2.4550 0.9414
7.5876 -13.1423 -2.5000 0.9403
8.6206 -12.4891 -2.5000 0.9403
9.5976 -11.7550 -2.5000 0.9403
10.9446 -10.5124 -2.5000 0.9403
12.8261 -8.1107 -2.5000 0.9403
13.1423 -7.5877 -2.5000 0.9403
13.4371 -7.0524 -2.5000 0.9403
13.9611 -5.9483 -2.5000 0.9403
14.1892 -5.3813 -2.5000 0.9403
14.5762 -4.2221 -2.5000 0.9403
10.6491 -2.1740 -1.7905 0.9569
15.1631 -0.6110 -2.5000 0.9403
15.1754 0.0000 -2.5000 0.9403
14.9789 2.4343 -2.5000 0.9403
13.9624 2.8504 -2.3476 0.9439
13.3243 5.0532 -2.3476 0.9439
13.1100 5.5856 -2.3476 0.9439
12.6180 6.6224 -2.3476 0.9439
12.2986 7.1006 -2.3395 0.9441
11.6816 8.0632 -2.3383 0.9441
10.3544 8.4541 -2.2021 0.9473
10.0084 8.8667 -2.2028 0.9472
8.1129 8.4465 -1.9294 0.9536
7.0733 7.9841 -1.7572 0.9577
5.8024 8.4063 -1.6827 0.9594
4.7417 8.2128 -1.5623 0.9623
4.0777 9.5708 -1.7138 0.9587
3.3511 8.8363 -1.5569 0.9624
2.7614 8.2714 -1.4365 0.9653
2.3968 8.2749 -1.4192 0.9657
2.0396 8.2749 -1.4040 0.9660
0.7377 9.1388 -1.5104 0.9635
0.3878 9.6241 -1.5867 0.9617
-1.3951 8.5839 -1.4327 0.9654
-1.8886 7.6624 -1.3001 0.9685
-3.2295 8.5156 -1.5003 0.9638
-5.1649 8.1676 -1.5920 0.9616
-9.3159 10.5154 -2.3143 0.9446
-9.7317 10.1318 -2.3143 0.9446
-10.1318 9.7317 -2.3143 0.9446
-11.8597 7.4996 -2.3116 0.9447
-12.4383 6.5281 -2.3141 0.9446
-12.7322 6.0415 -2.3216 0.9445
-14.3319 4.7847 -2.4891 0.9406
-14.5501 4.2145 -2.4955 0.9404
-14.7308 3.6308 -2.4994 0.9403
-14.9789 2.4343 -2.5000 0.9403
-15.0648 1.8292 -2.5000 0.9403
-15.1631 0.6110 -2.5000 0.9403
-13.2036 -1.6032 -2.5000 0.9473
-13.1283 -2.1336 -2.5000 0.9473
-13.0318 -2.6605 -2.5000 0.9473
-12.9141 -3.1830 -2.5000 0.9473
-12.0164 -5.7019 -2.5000 0.9473
-11.7771 -6.1811 -2.5000 0.9473
-11.2415 -7.1087 -2.5000 0.9473
-10.9462 -7.5556 -2.5000 0.9473
-9.9556 -8.8199 -2.5000 0.9473
-8.4119 -10.3027 -2.5000 0.9473
-6.6503 -11.5186 -2.5000 0.9473
-5.7019 -12.0164 -2.5000 0.9473
-4.7165 -12.4362 -2.5000 0.9473
-3.1831 -12.9141 -2.5000 0.9473
-2.6605 -13.0318 -2.5000 0.9473
-2.1336 -13.1283 -2.5000 0.9473
-1.6017 -13.1907 -2.4975 0.9474
-1.0650 -13.1923 -2.4877 0.9476
0.5316 -13.1928 -2.4817 0.9477
2.1334 -13.1283 -2.5000 0.9473
2.6603 -13.0318 -2.5000 0.9473
5.7018 -12.0164 -2.5000 0.9473
6.1811 -11.7771 -2.5000 0.9473
6.6503 -11.5186 -2.5000 0.9473
7.1087 -11.2415 -2.5000 0.9473
7.5556 -10.9461 -2.5000 0.9473
8.8199 -9.9556 -2.5000 0.9473
9.5924 -9.2136 -2.5000 0.9473
11.5186 -6.6503 -2.5000 0.9473
11.7771 -6.1811 -2.5000 0.9473
12.0164 -5.7018 -2.5000 0.9473
12.2362 -5.2134 -2.5000 0.9473
10.5854 -2.1610 -2.0307 0.9570
10.7270 -0.8660 -2.0228 0.9571
13.2897 -0.5356 -2.5000 0.9473
13.2898 0.5356 -2.5000 0.9473
13.2574 1.0702 -2.5000 0.9473
13.2036 1.6032 -2.5000 0.9473
11.4903 4.8956 -2.3476 0.9504
11.2839 5.3542 -2.3476 0.9504
11.0591 5.8043 -2.3476 0.9504
9.9302 7.4621 -2.3347 0.9507
8.9663 8.6123 -2.3368 0.9507
6.1331 8.1618 -1.9190 0.9593
3.9338 8.2904 -1.7248 0.9633
3.4071 8.9839 -1.8060 0.9616
2.0396 8.2749 -1.6019 0.9659
1.3662 8.4067 -1.6009 0.9659
1.0688 8.8027 -1.6667 0.9646
0.3878 9.6243 -1.8105 0.9616
-0.0000 7.5354 -1.4164 0.9698
-1.5332 7.5099 -1.4407 0.9693
-1.8481 7.4979 -1.4515 0.9691
-2.4327 8.3984 -1.6435 0.9650
-2.8033 8.3969 -1.6639 0.9646
-3.1619 8.3372 -1.6760 0.9644
-4.5728 8.7127 -1.8495 0.9607
-4.8423 8.3871 -1.8203 0.9614
-5.1649 8.1676 -1.8164 0.9614
-5.6934 8.2483 -1.8838 0.9600
-6.2259 8.2851 -1.9480 0.9587
-7.7925 9.5440 -2.3159 0.9511
-9.5376 7.7872 -2.3143 0.9511
-10.1312 6.9930 -2.3138 0.9511
-10.4604 6.6147 -2.3263 0.9509
-11.4786 4.8906 -2.3452 0.9505
-12.6018 4.2071 -2.4971 0.9474
-13.0318 2.6604 -2.5000 0.9473
-13.2036 1.6032 -2.5000 0.9473
-13.2898 0.5356 -2.5000 0.9473
-11.8174 -0.4762 -2.5000 0.9528
-11.7886 -0.9517 -2.5000 0.9528
-11.7408 -1.4256 -2.5000 0.9528
-11.6738 -1.8972 -2.5000 0.9528
-11.5880 -2.3657 -2.5000 0.9528
-11.3600 -3.2905 -2.5000 0.9528
-11.2183 -3.7452 -2.5000 0.9528
-11.0584 -4.1939 -2.5000 0.9528
-10.6851 -5.0701 -2.5000 0.9528
-9.9961 -6.3211 -2.5000 0.9528
-9.7334 -6.7185 -2.5000 0.9528
-9.1613 -7.4799 -2.5000 0.9528
-8.8526 -7.8427 -2.5000 0.9528
-8.5297 -8.1928 -2.5000 0.9528
-7.8428 -8.8526 -2.5000 0.9528
-6.7185 -9.7334 -2.5000 0.9528
-6.3211 -9.9960 -2.5000 0.9528
-5.4963 -10.4723 -2.5000 0.9528
-5.0702 -10.6851 -2.5000 0.9528
-3.7453 -11.2183 -2.5000 0.9528
-3.2905 -11.3600 -2.5000 0.9528
-1.8972 -11.6738 -2.5000 0.9528
-1.4256 -11.7408 -2.5000 0.9528
-0.4762 -11.8174 -2.5000 0.9528
0.0000 -11.8270 -2.5000 0.9528
0.4762 -11.8174 -2.5000 0.9528
1.4256 -11.7408 -2.5000 0.9528
3.2905 -11.3600 -2.5000 0.9528
4.1939 -11.0584 -2.5000 0.9528
5.4965 -10.4722 -2.5000 0.9528
5.9135 -10.2425 -2.5000 0.9528
6.3211 -9.9960 -2.5000 0.9528
6.7183 -9.7334 -2.5000 0.9528
7.1050 -9.4550 -2.5000 0.9528
7.4800 -9.1612 -2.5000 0.9528
7.8427 -8.8526 -2.5000 0.9528
8.8526 -7.8427 -2.5000 0.9528
9.1612 -7.4799 -2.5000 0.9528
10.2424 -5.9135 -2.5000 0.9528
10.6851 -5.0701 -2.5000 0.9528
11.2183 -3.7452 -2.5000 0.9528
11.3600 -3.2905 -2.5000 0.9528
11.6738 -1.8972 -2.5000 0.9528
11.7407 -1.4256 -2.5000 0.9528
11.8174 0.4762 -2.5000 0.9528
11.7407 1.4256 -2.5000 0.9528
11.6738 1.8972 -2.5000 0.9528
11.0244 2.7172 -2.4001 0.9546
10.3843 3.9382 -2.3476 0.9556
10.2173 4.3532 -2.3476 0.9556
10.0337 4.7610 -2.3476 0.9556
9.8339 5.1612 -2.3476 0.9556
9.6180 5.5530 -2.3476 0.9556
9.3867 5.9358 -2.3476 0.9556
8.8786 6.6718 -2.3476 0.9556
7.9591 7.6448 -2.3328 0.9559
7.6467 7.9610 -2.3333 0.9559
7.0921 8.0053 -2.2607 0.9572
5.6877 8.2400 -2.1164 0.9599
5.9049 9.3378 -2.3354 0.9558
4.3104 8.2128 -1.9606 0.9628
2.3968 8.2749 -1.8210 0.9654
2.0396 8.2749 -1.8015 0.9658
1.3662 8.4067 -1.8003 0.9658
1.0688 8.8025 -1.8743 0.9644
0.3878 9.6245 -2.0361 0.9614
-0.3307 8.2044 -1.7357 0.9670
-0.9966 8.2071 -1.7476 0.9668
-2.3773 8.2074 -1.8062 0.9657
-3.3517 7.0636 -1.6527 0.9685
-5.1649 8.1676 -2.0427 0.9613
-7.5891 7.9010 -2.3157 0.9562
-8.1987 7.2634 -2.3153 0.9562
-8.6025 7.0237 -2.3475 0.9556
-9.1401 6.3089 -2.3476 0.9556
-10.0337 4.7610 -2.3476 0.9556
-10.2173 4.3532 -2.3476 0.9556
-11.3600 3.2905 -2.5000 0.9528
-11.4833 2.8304 -2.5000 0.9528
-11.5880 2.3657 -2.5000 0.9528
-11.7408 1.4256 -2.5000 0.9528
-10.6372 -0.0000 -2.5000 0.9572
-10.6286 -0.4283 -2.5000 0.9572
-10.4222 -2.1277 -2.5000 0.9572
-10.3281 -2.5457 -2.5000 0.9572
-10.2172 -2.9595 -2.5000 0.9572
-9.9460 -3.7720 -2.5000 0.9572
-9.6102 -4.5601 -2.5000 0.9572
-9.2121 -5.3186 -2.5000 0.9572
-8.7543 -6.0426 -2.5000 0.9572
-8.5039 -6.3902 -2.5000 0.9572
-8.2396 -6.7274 -2.5000 0.9572
-7.9621 -7.0538 -2.5000 0.9572
-7.3687 -7.6716 -2.5000 0.9572
-7.0538 -7.9621 -2.5000 0.9572
-6.7275 -8.2396 -2.5000 0.9572
-6.0426 -8.7542 -2.5000 0.9572
-5.3186 -9.2121 -2.5000 0.9572
-4.9434 -9.4188 -2.5000 0.9572
-4.1694 -9.7860 -2.5000 0.9572
-3.7720 -9.9459 -2.5000 0.9572
-2.1277 -10.4222 -2.5000 0.9572
-0.8560 -10.6027 -2.5000 0.9572
-0.0000 -10.6372 -2.5000 0.9572
0.4283 -10.6286 -2.5000 0.9572
1.7063 -10.4995 -2.5000 0.9572
2.5455 -10.3281 -2.5000 0.9572
3.3685 -10.0898 -2.5000 0.9572
3.7720 -9.9459 -2.5000 0.9572
4.1694 -9.7860 -2.5000 0.9572
4.5600 -9.6102 -2.5000 0.9572
5.3186 -9.2121 -2.5000 0.9572
6.0426 -8.7542 -2.5000 0.9572
6.3902 -8.5038 -2.5000 0.9572
7.6716 -7.3686 -2.5000 0.9572
8.5038 -6.3902 -2.5000 0.9572
8.7542 -6.0426 -2.5000 0.9572
8.9904 -5.6852 -2.5000 0.9572
9.6102 -4.5601 -2.5000 0.9572
9.9459 -3.7720 -2.5000 0.9572
10.2172 -2.9595 -2.5000 0.9572
10.3281 -2.5456 -2.5000 0.9572
10.4222 -2.1277 -2.5000 0.9572
10.4994 -1.7063 -2.5000 0.9572
10.5596 -1.2822 -2.5000 0.9572
10.6285 -0.4283 -2.5000 0.9572
10.6285 0.4283 -2.5000 0.9572
10.6027 0.8559 -2.5000 0.9572
10.4995 1.7063 -2.5000 0.9572
10.3281 2.5457 -2.5000 0.9572
9.1894 3.9152 -2.3476 0.9598
9.0243 4.2821 -2.3476 0.9598
8.4424 5.3386 -2.3476 0.9598
8.2206 5.6742 -2.3476 0.9598
7.7373 6.3173 -2.3476 0.9598
7.4767 6.6237 -2.3476 0.9598
5.9590 7.9300 -2.3313 0.9601
5.6356 8.1646 -2.3316 0.9601
5.3029 8.3859 -2.3319 0.9601
4.9614 8.5934 -2.3321 0.9600
4.6117 8.7869 -2.3323 0.9600
4.2544 8.9659 -2.3324 0.9600
3.8900 9.1302 -2.3324 0.9600
2.7614 8.2714 -2.0494 0.9648
1.6833 8.2452 -1.9778 0.9660
0.3879 9.6247 -2.2639 0.9612
-0.3232 8.0183 -1.8860 0.9676
-0.9739 8.0210 -1.8990 0.9673
-1.7416 7.0659 -1.7103 0.9705
-2.3084 7.9696 -1.9500 0.9665
-2.6275 7.8702 -1.9500 0.9665
-2.9726 7.8380 -1.9701 0.9661
-3.2283 7.5771 -1.9357 0.9667
-4.8423 8.3871 -2.2761 0.9610
-5.1950 8.2153 -2.2844 0.9608
-6.5376 7.3794 -2.3171 0.9603
-6.8782 7.1609 -2.3336 0.9600
-7.4767 6.6237 -2.3476 0.9598
-7.7374 6.3173 -2.3476 0.9598
-7.9854 6.0007 -2.3476 0.9598
-8.2206 5.6743 -2.3476 0.9598
-9.0243 4.2821 -2.3476 0.9598
-9.1895 3.9152 -2.3476 0.9598
-9.3396 3.5421 -2.3476 0.9598
-10.3281 2.5456 -2.5000 0.9572
-10.4222 2.1277 -2.5000 0.9572
-10.4995 1.7063 -2.5000 0.9572
-10.5596 1.2822 -2.5000 0.9572
-9.6555 0.0000 -2.5000 0.9609
-9.6477 -0.3888 -2.5000 0.9609
-9.6242 -0.7770 -2.5000 0.9609
-9.5851 -1.1638 -2.5000 0.9609
-9.2743 -2.6863 -2.5000 0.9609
-9.1586 -3.0576 -2.5000 0.9609
-8.8829 -3.7846 -2.5000 0.9609
-8.5496 -4.4871 -2.5000 0.9609
-7.7191 -5.8005 -2.5000 0.9609
-7.4792 -6.1066 -2.5000 0.9609
-7.2273 -6.4028 -2.5000 0.9609
-6.9636 -6.6886 -2.5000 0.9609
-6.6886 -6.9636 -2.5000 0.9609
-6.1066 -7.4792 -2.5000 0.9609
-5.8005 -7.7190 -2.5000 0.9609
-5.4850 -7.9463 -2.5000 0.9609
-5.1606 -8.1608 -2.5000 0.9609
-4.8278 -8.3619 -2.5000 0.9609
-3.0576 -9.1586 -2.5000 0.9609
-2.6864 -9.2743 -2.5000 0.9609
-2.3107 -9.3749 -2.5000 0.9609
-1.9314 -9.4604 -2.5000 0.9609
-1.5489 -9.5305 -2.5000 0.9609
-1.1638 -9.5851 -2.5000 0.9609
0.3888 -9.6477 -2.5000 0.9609
1.1639 -9.5851 -2.5000 0.9609
2.3108 -9.3749 -2.5000 0.9609
3.0576 -9.1586 -2.5000 0.9609
3.7847 -8.8829 -2.5000 0.9609
4.1392 -8.7233 -2.5000 0.9609
5.1605 -8.1608 -2.5000 0.9609
5.8005 -7.7190 -2.5000 0.9609
6.6886 -6.9636 -2.5000 0.9609
6.9636 -6.6886 -2.5000 0.9609
7.4792 -6.1066 -2.5000 0.9609
7.7190 -5.8005 -2.5000 0.9609
7.9463 -5.4850 -2.5000 0.9609
8.1607 -5.1605 -2.5000 0.9609
8.3619 -4.8278 -2.5000 0.9609
8.5495 -4.4871 -2.5000 0.9609
8.7233 -4.1392 -2.5000 0.9609
8.8829 -3.7846 -2.5000 0.9609
9.1586 -3.0576 -2.5000 0.9609
9.3749 -2.3107 -2.5000 0.9609
9.4604 -1.9314 -2.5000 0.9609
9.5851 -1.1638 -2.5000 0.9609
9.6242 -0.7769 -2.5000 0.9609
9.6477 -0.3888 -2.5000 0.9609
9.6242 0.7769 -2.5000 0.9609
9.3749 2.3107 -2.5000 0.9609
7.8521 4.5334 -2.3476 0.9632
7.6632 4.8459 -2.3476 0.9632
7.2485 5.4469 -2.3476 0.9632
6.7867 6.0125 -2.3476 0.9632
5.7243 7.0110 -2.3435 0.9633
5.4064 7.1941 -2.3300 0.9635
5.1111 7.4047 -2.3296 0.9635
4.4979 7.7905 -2.3292 0.9635
4.1808 7.9658 -2.3293 0.9635
3.8568 8.1281 -2.3294 0.9635
3.5265 8.2770 -2.3295 0.9635
3.1904 8.4124 -2.3295 0.9635
2.7614 8.2714 -2.2578 0.9646
2.3513 8.1178 -2.1882 0.9657
1.3662 8.4067 -2.2052 0.9654
0.3619 8.9819 -2.3275 0.9635
-0.0000 7.0713 -1.8309 0.9712
-0.3158 7.8374 -2.0309 0.9681
-0.6328 7.8387 -2.0362 0.9680
-0.9520 7.8400 -2.0448 0.9679
-1.2744 7.8413 -2.0569 0.9677
-1.5020 7.3573 -1.9442 0.9694
-2.5568 7.6583 -2.0905 0.9672
-4.1632 7.9322 -2.3195 0.9637
-4.7867 7.5695 -2.3189 0.9637
-5.7344 7.0231 -2.3475 0.9632
-6.0125 6.7867 -2.3476 0.9632
-6.2809 6.5391 -2.3476 0.9632
-6.5391 6.2809 -2.3476 0.9632
-6.7867 6.0125 -2.3476 0.9632
-7.0233 5.7343 -2.3476 0.9632
-7.2485 5.4469 -2.3476 0.9632
-7.4619 5.1506 -2.3476 0.9632
-7.8522 4.5334 -2.3476 0.9632
-8.0284 4.2136 -2.3476 0.9632
-8.4777 3.2152 -2.3476 0.9632
-8.6003 2.8712 -2.3476 0.9632
-9.2743 2.6863 -2.5000 0.9609
-9.3749 2.3107 -2.5000 0.9609
-9.4604 1.9313 -2.5000 0.9609
-9.5305 1.5488 -2.5000 0.9609
-9.5851 1.1638 -2.5000 0.9609
-9.6242 0.7770 -2.5000 0.9609
-8.8310 0.0000 -2.5000 0.9640
-8.8238 -0.3556 -2.5000 0.9640
-8.7666 -1.0645 -2.5000 0.9640
-8.4823 -2.4569 -2.5000 0.9640
-8.3765 -2.7965 -2.5000 0.9640
-8.2571 -3.1315 -2.5000 0.9640
-8.1243 -3.4615 -2.5000 0.9640
-7.8194 -4.1040 -2.5000 0.9640
-7.2678 -5.0166 -2.5000 0.9640
-7.0599 -5.3051 -2.5000 0.9640
-6.1174 -6.3689 -2.5000 0.9640
-5.8560 -6.6101 -2.5000 0.9640
-5.0166 -7.2677 -2.5000 0.9640
-4.7199 -7.4638 -2.5000 0.9640
-4.4155 -7.6479 -2.5000 0.9640
-3.4615 -8.1243 -2.5000 0.9640
-3.1315 -8.2571 -2.5000 0.9640
-2.7965 -8.3765 -2.5000 0.9640
-2.1134 -8.5744 -2.5000 0.9640
-1.7664 -8.6525 -2.5000 0.9640
-1.4166 -8.7166 -2.5000 0.9640
-0.7106 -8.8023 -2.5000 0.9640
-0.0000 -8.8310 -2.5000 0.9640
0.3556 -8.8238 -2.5000 0.9640
0.7105 -8.8023 -2.5000 0.9640
1.4166 -8.7166 -2.5000 0.9640
1.7664 -8.6525 -2.5000 0.9640
2.1134 -8.5744 -2.5000 0.9640
2.4569 -8.4823 -2.5000 0.9640
3.1315 -8.2571 -2.5000 0.9640
3.4614 -8.1243 -2.5000 0.9640
3.7858 -7.9783 -2.5000 0.9640
4.4155 -7.6479 -2.5000 0.9640
4.7198 -7.4638 -2.5000 0.9640
5.3051 -7.0599 -2.5000 0.9640
5.8560 -6.6101 -2.5000 0.9640
6.3689 -6.1174 -2.5000 0.9640
6.8405 -5.5851 -2.5000 0.9640
7.4638 -4.7199 -2.5000 0.9640
7.6478 -4.4155 -2.5000 0.9640
7.8194 -4.1040 -2.5000 0.9640
7.9783 -3.7858 -2.5000 0.9640
8.2571 -3.1315 -2.5000 0.9640
8.3765 -2.7965 -2.5000 0.9640
8.4823 -2.4569 -2.5000 0.9640
8.5743 -2.1134 -2.5000 0.9640
8.7666 -1.0645 -2.5000 0.9640
8.8238 -0.3556 -2.5000 0.9640
8.8238 0.3556 -2.5000 0.9640
8.8023 0.7106 -2.5000 0.9640
8.7166 1.4166 -2.5000 0.9640
8.5743 2.1134 -2.5000 0.9640
8.1224 2.7116 -2.4241 0.9650
7.7537 2.9406 -2.3476 0.9661
7.6290 3.2504 -2.3476 0.9661
7.4920 3.5550 -2.3476 0.9661
7.3427 3.8538 -2.3476 0.9661
7.1816 4.1463 -2.3476 0.9661
7.0088 4.4321 -2.3476 0.9661
6.6295 4.9817 -2.3476 0.9661
5.7445 5.9807 -2.3476 0.9661
5.4990 6.2071 -2.3476 0.9661
5.2446 6.4235 -2.3476 0.9661
4.4274 7.0014 -2.3451 0.9661
4.1221 7.1397 -2.3339 0.9663
3.8220 7.2822 -2.3282 0.9664
3.5251 7.4290 -2.3279 0.9664
3.2226 7.5637 -2.3275 0.9664
2.9150 7.6862 -2.3271 0.9664
2.6029 7.7968 -2.3270 0.9664
2.2868 7.8950 -2.3269 0.9664
1.9669 7.9803 -2.3268 0.9664
1.6439 8.0524 -2.3266 0.9664
1.3182 8.1114 -2.3264 0.9664
-0.3083 7.6513 -2.1678 0.9687
-0.6178 7.6525 -2.1734 0.9686
-0.9294 7.6538 -2.1827 0.9685
-1.7456 7.0820 -2.0649 0.9701
-2.1911 7.5644 -2.2295 0.9678
-2.8375 7.4819 -2.2653 0.9673
-3.1871 7.4804 -2.3019 0.9668
-4.1230 7.1412 -2.3344 0.9663
-4.4320 7.0087 -2.3475 0.9661
-4.7108 6.8247 -2.3476 0.9661
-5.2446 6.4235 -2.3476 0.9661
-5.4991 6.2071 -2.3476 0.9661
-5.7445 5.9807 -2.3476 0.9661
-5.9807 5.7445 -2.3476 0.9661
-6.2071 5.4990 -2.3476 0.9661
-6.4235 5.2446 -2.3476 0.9661
-6.6295 4.9817 -2.3476 0.9661
-6.8247 4.7108 -2.3476 0.9661
-7.0088 4.4321 -2.3476 0.9661
-7.1816 4.1463 -2.3476 0.9661
-7.4920 3.5550 -2.3476 0.9661
-8.6525 1.7664 -2.5000 0.9640
-8.7166 1.4166 -2.5000 0.9640
-8.7666 1.0644 -2.5000 0.9640
-8.8023 0.7106 -2.5000 0.9640
-8.1016 -0.6540 -2.5000 0.9666
-8.0227 -1.3038 -2.5000 0.9666
-7.8918 -1.9452 -2.5000 0.9666
-7.8071 -2.2613 -2.5000 0.9666
-7.3432 -3.4844 -2.5000 0.9666
-6.2960 -5.1405 -2.5000 0.9666
-6.0839 -5.3898 -2.5000 0.9666
-5.8619 -5.6304 -2.5000 0.9666
-4.8828 -6.4979 -2.5000 0.9666
-4.6172 -6.6892 -2.5000 0.9666
-4.3441 -6.8697 -2.5000 0.9666
-2.2613 -7.8071 -2.5000 0.9666
-1.9452 -7.8918 -2.5000 0.9666
-0.3273 -8.1214 -2.5000 0.9666
0.3273 -8.1214 -2.5000 0.9666
0.6540 -8.1016 -2.5000 0.9666
0.9797 -8.0687 -2.5000 0.9666
1.3038 -8.0227 -2.5000 0.9666
2.2613 -7.8070 -2.5000 0.9666
2.8822 -7.5998 -2.5000 0.9666
3.1859 -7.4776 -2.5000 0.9666
4.3441 -6.8697 -2.5000 0.9666
4.6172 -6.6892 -2.5000 0.9666
5.1405 -6.2960 -2.5000 0.9666
5.3898 -6.0839 -2.5000 0.9666
5.6304 -5.8619 -2.5000 0.9666
5.8619 -5.6304 -2.5000 0.9666
6.0838 -5.3898 -2.5000 0.9666
6.4978 -4.8828 -2.5000 0.9666
7.0390 -4.0640 -2.5000 0.9666
7.1970 -3.7772 -2.5000 0.9666
7.4775 -3.1859 -2.5000 0.9666
7.7096 -2.5739 -2.5000 0.9666
7.8070 -2.2613 -2.5000 0.9666
7.8918 -1.9452 -2.5000 0.9666
8.0687 -0.9797 -2.5000 0.9666
8.1016 0.6540 -2.5000 0.9666
8.0687 0.9797 -2.5000 0.9666
8.0227 1.3038 -2.5000 0.9666
7.8070 2.2613 -2.5000 0.9666
7.1807 2.7233 -2.3621 0.9684
6.7582 3.5470 -2.3476 0.9686
6.2814 4.3357 -2.3476 0.9686
5.9121 4.8271 -2.3476 0.9686
5.7130 5.0612 -2.3476 0.9686
5.2872 5.5046 -2.3476 0.9686
4.5851 6.1017 -2.3476 0.9686
2.9878 7.0127 -2.3446 0.9686
1.8098 7.3427 -2.3260 0.9688
1.5125 7.4085 -2.3257 0.9689
1.2127 7.4623 -2.3254 0.9689
0.3043 7.5508 -2.3244 0.9689
-0.3015 7.4807 -2.3028 0.9692
-0.9086 7.4831 -2.3186 0.9689
-1.2114 7.4540 -2.3228 0.9689
-1.7476 7.0903 -2.2461 0.9699
-2.3954 7.1750 -2.3266 0.9688
-2.6948 7.1056 -2.3374 0.9687
-2.9905 7.0190 -2.3467 0.9686
-3.8162 6.6099 -2.3476 0.9686
-4.3357 6.2814 -2.3476 0.9686
-4.5852 6.1017 -2.3476 0.9686
-5.0613 5.7130 -2.3476 0.9686
-5.2872 5.5046 -2.3476 0.9686
-5.7130 5.0613 -2.3476 0.9686
-5.9122 4.8271 -2.3476 0.9686
-6.1017 4.5851 -2.3476 0.9686
-6.2814 4.3357 -2.3476 0.9686
-6.4509 4.0793 -2.3476 0.9686
-6.6099 3.8162 -2.3476 0.9686
-6.7582 3.5470 -2.3476 0.9686
-6.8956 3.2720 -2.3476 0.9686
-7.1727 2.7202 -2.3595 0.9684
-7.8071 2.2613 -2.5000 0.9666
-7.8918 1.9452 -2.5000 0.9666
-7.9637 1.6258 -2.5000 0.9666
-8.0687 0.9797 -2.5000 0.9666
-8.1214 0.3273 -2.5000 0.9666
-7.5209 0.0000 -2.5000 0.9688
-7.5148 -0.3029 -2.5000 0.9688
-7.4965 -0.6052 -2.5000 0.9688
-7.3024 -1.7999 -2.5000 0.9688
-7.2240 -2.0925 -2.5000 0.9688
-7.1338 -2.3816 -2.5000 0.9688
-7.0322 -2.6670 -2.5000 0.9688
-6.7948 -3.2241 -2.5000 0.9688
-6.6594 -3.4951 -2.5000 0.9688
-6.5133 -3.7604 -2.5000 0.9688
-6.3566 -4.0197 -2.5000 0.9688
-6.1896 -4.2724 -2.5000 0.9688
-5.8257 -4.7566 -2.5000 0.9688
-5.2099 -5.4241 -2.5000 0.9688
-4.9873 -5.6295 -2.5000 0.9688
-4.7566 -5.8257 -2.5000 0.9688
-4.2724 -6.1896 -2.5000 0.9688
-4.0197 -6.3566 -2.5000 0.9688
-3.4951 -6.6594 -2.5000 0.9688
-1.5044 -7.3689 -2.5000 0.9688
-1.2064 -7.4235 -2.5000 0.9688
-0.9066 -7.4661 -2.5000 0.9688
-0.6052 -7.4965 -2.5000 0.9688
-0.3029 -7.5148 -2.5000 0.9688
0.0000 -7.5209 -2.5000 0.9688
0.3028 -7.5148 -2.5000 0.9688
0.9065 -7.4661 -2.5000 0.9688
2.6669 -7.0322 -2.5000 0.9688
3.2241 -6.7948 -2.5000 0.9688
3.4951 -6.6594 -2.5000 0.9688
4.2723 -6.1896 -2.5000 0.9688
4.5181 -6.0125 -2.5000 0.9688
4.7566 -5.8257 -2.5000 0.9688
4.9873 -5.6295 -2.5000 0.9688
5.2099 -5.4241 -2.5000 0.9688
5.8257 -4.7566 -2.5000 0.9688
6.3566 -4.0197 -2.5000 0.9688
6.9190 -2.9479 -2.5000 0.9688
7.0321 -2.6669 -2.5000 0.9688
7.3023 -1.7999 -2.5000 0.9688
7.4234 -1.2064 -2.5000 0.9688
7.4660 -0.9066 -2.5000 0.9688
7.5148 -0.3028 -2.5000 0.9688
7.4235 1.2064 -2.5000 0.9688
7.3689 1.5044 -2.5000 0.9688
6.3805 3.0276 -2.3476 0.9707
6.2534 3.2821 -2.3476 0.9707
5.9691 3.7746 -2.3476 0.9707
5.8122 4.0119 -2.3476 0.9707
5.2863 4.6832 -2.3476 0.9707
4.8923 5.0934 -2.3476 0.9707
4.6832 5.2863 -2.3476 0.9707
4.4666 5.4706 -2.3476 0.9707
3.5312 6.1162 -2.3476 0.9707
3.0276 6.3805 -2.3476 0.9707
2.5043 6.6035 -2.3476 0.9707
2.2364 6.6990 -2.3476 0.9707
1.6901 6.8572 -2.3476 0.9707
0.8507 7.0067 -2.3462 0.9707
0.5674 7.0288 -2.3440 0.9707
-0.0000 7.0467 -2.3424 0.9707
-0.5675 7.0300 -2.3444 0.9707
-1.4127 6.9197 -2.3476 0.9707
-1.9649 6.7836 -2.3476 0.9707
-2.2364 6.6989 -2.3476 0.9707
-2.5044 6.6035 -2.3476 0.9707
-3.0276 6.3805 -2.3476 0.9707
-3.7746 5.9691 -2.3476 0.9707
-4.2427 5.6460 -2.3476 0.9707
-4.4666 5.4706 -2.3476 0.9707
-4.6832 5.2863 -2.3476 0.9707
-5.0934 4.8923 -2.3476 0.9707
-5.6460 4.2427 -2.3476 0.9707
-6.1163 3.5312 -2.3476 0.9707
-6.2535 3.2821 -2.3476 0.9707
-7.0322 2.6669 -2.5000 0.9688
-7.1338 2.3816 -2.5000 0.9688
-7.3024 1.7999 -2.5000 0.9688
-7.5148 0.3028 -2.5000 0.9688
-6.9852 -0.2815 -2.5000 0.9707
-6.9399 -0.8427 -2.5000 0.9707
-6.9003 -1.1214 -2.5000 0.9707
-6.8496 -1.3983 -2.5000 0.9707
-6.7878 -1.6730 -2.5000 0.9707
-6.6311 -2.2138 -2.5000 0.9707
-6.4315 -2.7402 -2.5000 0.9707
-5.0418 -4.8427 -2.5000 0.9707
-4.8428 -5.0418 -2.5000 0.9707
-4.6358 -5.2327 -2.5000 0.9707
-4.4213 -5.4152 -2.5000 0.9707
-3.7364 -5.9086 -2.5000 0.9707
-3.2488 -6.1901 -2.5000 0.9707
-2.9969 -6.3159 -2.5000 0.9707
-2.7402 -6.4315 -2.5000 0.9707
-2.4790 -6.5366 -2.5000 0.9707
-2.2138 -6.6311 -2.5000 0.9707
-1.6730 -6.7877 -2.5000 0.9707
-1.3984 -6.8496 -2.5000 0.9707
-1.1214 -6.9003 -2.5000 0.9707
-0.5625 -6.9682 -2.5000 0.9707
-0.2815 -6.9852 -2.5000 0.9707
0.2815 -6.9852 -2.5000 0.9707
0.8426 -6.9399 -2.5000 0.9707
1.1214 -6.9003 -2.5000 0.9707
1.3983 -6.8496 -2.5000 0.9707
2.2138 -6.6311 -2.5000 0.9707
3.4954 -6.0543 -2.5000 0.9707
3.7364 -5.9086 -2.5000 0.9707
4.6358 -5.2327 -2.5000 0.9707
4.8427 -5.0418 -2.5000 0.9707
5.5888 -4.1997 -2.5000 0.9707
5.7533 -3.9713 -2.5000 0.9707
6.0542 -3.4954 -2.5000 0.9707
6.1901 -3.2488 -2.5000 0.9707
6.3159 -2.9969 -2.5000 0.9707
6.4314 -2.7402 -2.5000 0.9707
6.5366 -2.4790 -2.5000 0.9707
6.6311 -2.2138 -2.5000 0.9707
6.7877 -1.6730 -2.5000 0.9707
6.9399 -0.8427 -2.5000 0.9707
6.9852 -0.2815 -2.5000 0.9707
6.9852 0.2815 -2.5000 0.9707
6.9682 0.5625 -2.5000 0.9707
6.9399 0.8427 -2.5000 0.9707
6.9003 1.1214 -2.5000 0.9707
6.7877 1.6730 -2.5000 0.9707
6.5366 2.4790 -2.5000 0.9707
4.9137 4.3532 -2.3476 0.9725
4.5475 4.7345 -2.3476 0.9725
4.1518 5.0850 -2.3476 0.9725
3.9437 5.2481 -2.3476 0.9725
3.7292 5.4026 -2.3476 0.9725
3.2823 5.6852 -2.3476 0.9725
2.0788 6.2269 -2.3476 0.9725
1.0530 6.4797 -2.3476 0.9725
0.7913 6.5168 -2.3476 0.9725
0.2643 6.5594 -2.3476 0.9725
-0.2643 6.5594 -2.3476 0.9725
-1.0531 6.4797 -2.3476 0.9725
-1.3131 6.4320 -2.3476 0.9725
-1.8264 6.3055 -2.3476 0.9725
-2.3279 6.1381 -2.3476 0.9725
-2.8142 5.9309 -2.3476 0.9725
-3.0508 5.8127 -2.3476 0.9725
-3.7292 5.4026 -2.3476 0.9725
-3.9437 5.2481 -2.3476 0.9725
-4.1518 5.0850 -2.3476 0.9725
-5.0851 4.1518 -2.3476 0.9725
-5.2481 3.9437 -2.3476 0.9725
-5.5484 3.5086 -2.3476 0.9725
-5.8128 3.0508 -2.3476 0.9725
-6.3343 2.6988 -2.4622 0.9712
-6.5366 2.4790 -2.5000 0.9707
-6.6311 2.2138 -2.5000 0.9707
-6.7149 1.9450 -2.5000 0.9707
-6.7877 1.6730 -2.5000 0.9707
-6.9004 1.1214 -2.5000 0.9707
-6.9399 0.8427 -2.5000 0.9707
-6.9682 0.5625 -2.5000 0.9707
-3.5589 -0.1434 -1.3649 0.9849
-3.5687 -0.2881 -1.3720 0.9848
-6.0017 -2.5571 -2.5000 0.9724
-5.8938 -2.7967 -2.5000 0.9724
-5.5137 -3.4867 -2.5000 0.9724
-5.2153 -3.9190 -2.5000 0.9724
-5.0533 -4.1258 -2.5000 0.9724
-4.7049 -4.5191 -2.5000 0.9724
-4.5191 -4.7049 -2.5000 0.9724
-4.1259 -5.0533 -2.5000 0.9724
-3.9190 -5.2153 -2.5000 0.9724
-3.7059 -5.3689 -2.5000 0.9724
-3.4867 -5.5137 -2.5000 0.9724
-3.2618 -5.6496 -2.5000 0.9724
-3.0317 -5.7764 -2.5000 0.9724
-2.7967 -5.8938 -2.5000 0.9724
-2.3133 -6.0997 -2.5000 0.9724
-1.8150 -6.2661 -2.5000 0.9724
-1.3049 -6.3918 -2.5000 0.9724
-0.7864 -6.4761 -2.5000 0.9724
-0.2627 -6.5184 -2.5000 0.9724
0.5249 -6.5025 -2.5000 0.9724
0.7863 -6.4761 -2.5000 0.9724
1.0465 -6.4392 -2.5000 0.9724
1.3049 -6.3918 -2.5000 0.9724
1.5612 -6.3341 -2.5000 0.9724
2.3133 -6.0997 -2.5000 0.9724
3.4867 -5.5137 -2.5000 0.9724
3.7059 -5.3689 -2.5000 0.9724
3.9190 -5.2153 -2.5000 0.9724
4.1259 -5.0533 -2.5000 0.9724
4.3260 -4.8830 -2.5000 0.9724
4.5191 -4.7049 -2.5000 0.9724
4.8830 -4.3260 -2.5000 0.9724
5.0532 -4.1259 -2.5000 0.9724
5.2153 -3.9190 -2.5000 0.9724
5.8938 -2.7967 -2.5000 0.9724
6.1879 -2.0658 -2.5000 0.9724
6.3341 -1.5612 -2.5000 0.9724
6.3918 -1.3049 -2.5000 0.9724
6.4761 -0.7863 -2.5000 0.9724
6.5184 -0.2627 -2.5000 0.9724
6.5236 -0.0000 -2.5000 0.9724
6.5183 0.2627 -2.5000 0.9724
6.5025 0.5249 -2.5000 0.9724
6.4392 1.0465 -2.5000 0.9724
6.3341 1.5612 -2.5000 0.9724
6.1879 2.0658 -2.5000 0.9724
5.7131 2.7108 -2.4233 0.9733
5.3052 3.0630 -2.3476 0.9741
5.0416 3.4799 -2.3476 0.9741
4.8974 3.6801 -2.3476 0.9741
4.7452 3.8743 -2.3476 0.9741
4.5853 4.0623 -2.3476 0.9741
4.4181 4.2436 -2.3476 0.9741
4.0623 4.5854 -2.3476 0.9741
3.8743 4.7452 -2.3476 0.9741
3.0630 5.3053 -2.3476 0.9741
2.6261 5.5345 -2.3476 0.9741
2.1723 5.7279 -2.3476 0.9741
1.7043 5.8841 -2.3476 0.9741
0.0000 6.1260 -2.3476 0.9741
-0.2467 6.1210 -2.3476 0.9741
-0.7384 6.0813 -2.3476 0.9741
-1.2254 6.0022 -2.3476 0.9741
-1.9399 5.8107 -2.3476 0.9741
-2.6262 5.5345 -2.3476 0.9741
-3.0630 5.3052 -2.3476 0.9741
-3.8744 4.7452 -2.3476 0.9741
-4.0623 4.5854 -2.3476 0.9741
-4.2436 4.4181 -2.3476 0.9741
-4.7452 3.8743 -2.3476 0.9741
-4.8974 3.6801 -2.3476 0.9741
-5.0416 3.4799 -2.3476 0.9741
-5.1776 3.2741 -2.3476 0.9741
-5.4243 2.8469 -2.3476 0.9741
-5.7047 2.7069 -2.4198 0.9733
-6.0017 2.5570 -2.5000 0.9724
-6.0997 2.3133 -2.5000 0.9724
-6.2661 1.8150 -2.5000 0.9724
-6.3341 1.5612 -2.5000 0.9724
-3.5687 0.2881 -1.3720 0.9848
-2.8204 -0.1137 -1.1552 0.9879
-2.9323 -0.3560 -1.2089 0.9873
-3.0246 -0.4916 -1.2541 0.9868
-5.8672 -1.6995 -2.5000 0.9739
-5.7114 -2.1661 -2.5000 0.9739
-5.5186 -2.6186 -2.5000 0.9739
-5.1627 -3.2647 -2.5000 0.9739
-5.0271 -3.4699 -2.5000 0.9739
-4.7316 -3.8632 -2.5000 0.9739
-4.5722 -4.0506 -2.5000 0.9739
-3.8632 -4.7316 -2.5000 0.9739
-2.8387 -5.4087 -2.5000 0.9739
-2.6186 -5.5186 -2.5000 0.9739
-2.1661 -5.7114 -2.5000 0.9739
-1.9343 -5.7940 -2.5000 0.9739
-1.6995 -5.8672 -2.5000 0.9739
-1.2218 -5.9849 -2.5000 0.9739
-0.9799 -6.0292 -2.5000 0.9739
0.2459 -6.1034 -2.5000 0.9739
0.9798 -6.0292 -2.5000 0.9739
1.2218 -5.9849 -2.5000 0.9739
1.6994 -5.8672 -2.5000 0.9739
2.1660 -5.7114 -2.5000 0.9739
2.3942 -5.6195 -2.5000 0.9739
2.6186 -5.5186 -2.5000 0.9739
2.8387 -5.4087 -2.5000 0.9739
3.0542 -5.2900 -2.5000 0.9739
3.4699 -5.0271 -2.5000 0.9739
3.8632 -4.7315 -2.5000 0.9739
4.4053 -4.2314 -2.5000 0.9739
4.5721 -4.0506 -2.5000 0.9739
4.7315 -3.8632 -2.5000 0.9739
4.8832 -3.6695 -2.5000 0.9739
5.1627 -3.2647 -2.5000 0.9739
5.4086 -2.8387 -2.5000 0.9739
5.7114 -2.1660 -2.5000 0.9739
5.7940 -1.9343 -2.5000 0.9739
5.8671 -1.6995 -2.5000 0.9739
5.9308 -1.4618 -2.5000 0.9739
6.0292 -0.9799 -2.5000 0.9739
6.0638 -0.7363 -2.5000 0.9739
6.0885 -0.4915 -2.5000 0.9739
6.1034 -0.2460 -2.5000 0.9739
6.0885 0.4915 -2.5000 0.9739
6.0638 0.7363 -2.5000 0.9739
5.9849 1.2218 -2.5000 0.9739
5.7940 1.9343 -2.5000 0.9739
5.5186 2.6186 -2.5000 0.9739
5.1756 2.7164 -2.3923 0.9751
4.8480 3.0657 -2.3476 0.9755
4.5856 3.4458 -2.3476 0.9755
4.4431 3.6277 -2.3476 0.9755
3.4458 4.5856 -2.3476 0.9755
2.4589 5.1821 -2.3476 0.9755
2.2483 5.2770 -2.3476 0.9755
2.0340 5.3632 -2.3476 0.9755
1.8164 5.4408 -2.3476 0.9755
1.5958 5.5095 -2.3476 0.9755
1.3727 5.5693 -2.3476 0.9755
0.6914 5.6941 -2.3476 0.9755
0.4615 5.7174 -2.3476 0.9755
0.0000 5.7359 -2.3476 0.9755
-0.2310 5.7313 -2.3476 0.9755
-0.4616 5.7174 -2.3476 0.9755
-0.9201 5.6617 -2.3476 0.9755
-1.3727 5.5693 -2.3476 0.9755
-2.0340 5.3632 -2.3476 0.9755
-2.2483 5.2770 -2.3476 0.9755
-2.4590 5.1822 -2.3476 0.9755
-3.0657 4.8480 -2.3476 0.9755
-3.2584 4.7206 -2.3476 0.9755
-3.4459 4.5856 -2.3476 0.9755
-3.9734 4.1368 -2.3476 0.9755
-4.1368 3.9734 -2.3476 0.9755
-3.8948 3.4505 -2.1296 0.9778
-4.5856 3.4458 -2.3476 0.9755
-4.7206 3.2584 -2.3476 0.9755
-4.8480 3.0657 -2.3476 0.9755
-5.1688 2.7128 -2.3891 0.9751
-5.5186 2.6186 -2.5000 0.9739
-5.7114 2.1660 -2.5000 0.9739
-5.7940 1.9343 -2.5000 0.9739
-5.9308 1.4618 -2.5000 0.9739
-3.0070 0.6139 -1.2561 0.9868
-3.0246 0.4915 -1.2541 0.9868
-2.9323 0.3560 -1.2089 0.9873
-2.8204 0.1137 -1.1552 0.9879
-2.3650 -0.0000 -1.0307 0.9897
-2.4021 -0.3904 -1.0606 0.9894
-5.5696 -1.3728 -2.5000 0.9753
-5.5099 -1.5960 -2.5000 0.9753
-5.4411 -1.8165 -2.5000 0.9753
-5.3636 -2.0341 -2.5000 0.9753
-5.2773 -2.2485 -2.5000 0.9753
-5.0793 -2.6658 -2.5000 0.9753
-4.9678 -2.8682 -2.5000 0.9753
-4.8483 -3.0659 -2.5000 0.9753
-4.2937 -3.8039 -2.5000 0.9753
-4.1371 -3.9737 -2.5000 0.9753
-3.9737 -4.1371 -2.5000 0.9753
-3.8039 -4.2937 -2.5000 0.9753
-3.6279 -4.4434 -2.5000 0.9753
-3.0659 -4.8483 -2.5000 0.9753
-2.2485 -5.2773 -2.5000 0.9753
-2.0341 -5.3636 -2.5000 0.9753
-1.5960 -5.5098 -2.5000 0.9753
-1.3728 -5.5696 -2.5000 0.9753
-0.6915 -5.6945 -2.5000 0.9753
-0.2310 -5.7317 -2.5000 0.9753
-0.0000 -5.7363 -2.5000 0.9753
0.4616 -5.7177 -2.5000 0.9753
0.6914 -5.6945 -2.5000 0.9753
1.1474 -5.6204 -2.5000 0.9753
1.8165 -5.4411 -2.5000 0.9753
2.2484 -5.2773 -2.5000 0.9753
2.4591 -5.1825 -2.5000 0.9753
2.6658 -5.0793 -2.5000 0.9753
3.2586 -4.7209 -2.5000 0.9753
3.4460 -4.5859 -2.5000 0.9753
3.8039 -4.2937 -2.5000 0.9753
4.2937 -3.8039 -2.5000 0.9753
4.5858 -3.4461 -2.5000 0.9753
5.1825 -2.4591 -2.5000 0.9753
5.3635 -2.0341 -2.5000 0.9753
5.4411 -1.8165 -2.5000 0.9753
5.5696 -1.3728 -2.5000 0.9753
5.6204 -1.1474 -2.5000 0.9753
5.6620 -0.9202 -2.5000 0.9753
5.6945 -0.6914 -2.5000 0.9753
5.7363 0.0000 -2.5000 0.9753
5.7317 0.2310 -2.5000 0.9753
5.7177 0.4616 -2.5000 0.9753
5.6620 0.9202 -2.5000 0.9753
5.6204 1.1474 -2.5000 0.9753
5.5098 1.5959 -2.5000 0.9753
5.4411 1.8165 -2.5000 0.9753
5.3635 2.0341 -2.5000 0.9753
4.4331 3.0600 -2.3476 0.9768
4.1725 3.4067 -2.3476 0.9768
3.5720 4.0319 -2.3476 0.9768
3.4067 4.1725 -2.3476 0.9768
3.2360 4.3063 -2.3476 0.9768
3.0599 4.4331 -2.3476 0.9768
2.6933 4.6650 -2.3476 0.9768
1.7058 5.1094 -2.3476 0.9768
1.4987 5.1740 -2.3476 0.9768
0.4334 5.3692 -2.3476 0.9768
0.2169 5.3823 -2.3476 0.9768
-0.4335 5.3692 -2.3476 0.9768
-0.6493 5.3473 -2.3476 0.9768
-1.0775 5.2778 -2.3476 0.9768
-2.1114 4.9556 -2.3476 0.9768
-2.3092 4.8666 -2.3476 0.9768
-3.2360 4.3063 -2.3476 0.9768
-3.4068 4.1725 -2.3476 0.9768
-3.5720 4.0319 -2.3476 0.9768
-3.7315 3.8848 -2.3476 0.9768
-3.8610 3.4205 -2.2480 0.9777
-4.4331 3.0600 -2.3476 0.9768
-4.5585 2.8826 -2.3505 0.9767
-4.7058 2.7169 -2.3681 0.9766
-5.1825 2.4591 -2.5000 0.9753
-5.2773 2.2484 -2.5000 0.9753
-5.3636 2.0341 -2.5000 0.9753
-5.4411 1.8165 -2.5000 0.9753
-5.5696 1.3728 -2.5000 0.9753
-2.4021 0.3904 -1.0606 0.9894
-2.2030 0.0000 -1.0198 0.9903
-2.2080 -0.2681 -1.0295 0.9902
-2.2302 -0.3624 -1.0459 0.9901
-2.2466 -0.4586 -1.0614 0.9899
-5.1229 -1.7103 -2.5000 0.9765
-4.9687 -2.1170 -2.5000 0.9765
-4.8794 -2.3153 -2.5000 0.9765
-4.6773 -2.7004 -2.5000 0.9765
-4.5648 -2.8866 -2.5000 0.9765
-4.3177 -3.2446 -2.5000 0.9765
-4.1836 -3.4158 -2.5000 0.9765
-3.8951 -3.7413 -2.5000 0.9765
-3.5815 -4.0426 -2.5000 0.9765
-3.2445 -4.3177 -2.5000 0.9765
-3.0681 -4.4448 -2.5000 0.9765
-2.8866 -4.5648 -2.5000 0.9765
-2.7005 -4.6773 -2.5000 0.9765
-2.1170 -4.9687 -2.5000 0.9765
-1.7103 -5.1229 -2.5000 0.9765
-0.6510 -5.3615 -2.5000 0.9765
-0.4346 -5.3834 -2.5000 0.9765
-0.0000 -5.4009 -2.5000 0.9765
0.2175 -5.3965 -2.5000 0.9765
0.4346 -5.3834 -2.5000 0.9765
0.6510 -5.3615 -2.5000 0.9765
1.0803 -5.2917 -2.5000 0.9765
1.2925 -5.2439 -2.5000 0.9765
1.5027 -5.1876 -2.5000 0.9765
1.7103 -5.1229 -2.5000 0.9765
1.9152 -5.0499 -2.5000 0.9765
2.1169 -4.9687 -2.5000 0.9765
2.3153 -4.8794 -2.5000 0.9765
2.8866 -4.5648 -2.5000 0.9765
3.0681 -4.4448 -2.5000 0.9765
3.4158 -4.1836 -2.5000 0.9765
4.1835 -3.4158 -2.5000 0.9765
4.4448 -3.0681 -2.5000 0.9765
4.7822 -2.5099 -2.5000 0.9765
4.8794 -2.3153 -2.5000 0.9765
5.1229 -1.7103 -2.5000 0.9765
5.1876 -1.5026 -2.5000 0.9765
5.3309 -0.8664 -2.5000 0.9765
5.3834 -0.4346 -2.5000 0.9765
5.3965 -0.2175 -2.5000 0.9765
5.4009 -0.0000 -2.5000 0.9765
5.3834 0.4346 -2.5000 0.9765
5.3309 0.8664 -2.5000 0.9765
5.2439 1.2925 -2.5000 0.9765
5.1876 1.5026 -2.5000 0.9765
5.1229 1.7103 -2.5000 0.9765
4.9687 2.1170 -2.5000 0.9765
4.7822 2.5099 -2.5000 0.9765
4.6710 2.6968 -2.4966 0.9765
4.3086 2.7246 -2.3597 0.9778
4.1803 2.8854 -2.3512 0.9779
4.0545 3.0467 -2.3476 0.9779
3.9285 3.2075 -2.3476 0.9779
3.7962 3.3631 -2.3476 0.9779
3.6577 3.5133 -2.3476 0.9779
3.5132 3.6577 -2.3476 0.9779
3.3631 3.7962 -2.3476 0.9779
3.2075 3.9285 -2.3476 0.9779
2.7106 4.2865 -2.3476 0.9779
2.5358 4.3922 -2.3476 0.9779
2.3569 4.4907 -2.3476 0.9779
2.1742 4.5820 -2.3476 0.9779
1.9879 4.6658 -2.3476 0.9779
1.2137 4.9243 -2.3476 0.9779
1.0144 4.9691 -2.3476 0.9779
0.8135 5.0060 -2.3476 0.9779
-0.2042 5.0675 -2.3476 0.9779
-0.4081 5.0552 -2.3476 0.9779
-0.6113 5.0346 -2.3476 0.9779
-1.0145 4.9692 -2.3476 0.9779
-1.2137 4.9243 -2.3476 0.9779
-1.4110 4.8714 -2.3476 0.9779
-1.6060 4.8106 -2.3476 0.9779
-1.7984 4.7421 -2.3476 0.9779
-1.9879 4.6658 -2.3476 0.9779
-2.7106 4.2865 -2.3476 0.9779
-3.5133 3.6577 -2.3476 0.9779
-4.6655 2.6936 -2.4937 0.9765
-4.7823 2.5099 -2.5000 0.9765
-4.8794 2.3153 -2.5000 0.9765
-5.0499 1.9152 -2.5000 0.9765
-2.3851 0.5879 -1.1371 0.9892
-2.2466 0.4586 -1.0614 0.9899
-2.2037 0.0888 -1.0209 0.9903
-2.0590 0.0000 -1.0100 0.9909
-2.0571 -0.1661 -1.0123 0.9908
-2.0750 -0.3372 -1.0312 0.9907
-2.0898 -0.4266 -1.0462 0.9905
-2.1007 -0.5178 -1.0613 0.9904
-2.9436 -0.8526 -1.5032 0.9864
-4.8343 -1.6139 -2.5000 0.9775
-4.6887 -1.9977 -2.5000 0.9775
-4.3076 -2.7239 -2.5000 0.9775
-4.1944 -2.8952 -2.5000 0.9775
-4.0744 -3.0617 -2.5000 0.9775
-3.9479 -3.2233 -2.5000 0.9775
-3.6757 -3.5305 -2.5000 0.9775
-3.5305 -3.6757 -2.5000 0.9775
-3.3797 -3.8148 -2.5000 0.9775
-2.7240 -4.3076 -2.5000 0.9775
-2.5483 -4.4137 -2.5000 0.9775
-2.3685 -4.5128 -2.5000 0.9775
-2.1849 -4.6045 -2.5000 0.9775
-1.9977 -4.6887 -2.5000 0.9775
-1.6139 -4.8343 -2.5000 0.9775
-1.2197 -4.9485 -2.5000 0.9775
-1.0194 -4.9936 -2.5000 0.9775
-0.8175 -5.0306 -2.5000 0.9775
-0.0000 -5.0966 -2.5000 0.9775
0.2052 -5.0924 -2.5000 0.9775
0.4101 -5.0800 -2.5000 0.9775
0.8175 -5.0306 -2.5000 0.9775
1.6139 -4.8343 -2.5000 0.9775
1.9977 -4.6887 -2.5000 0.9775
2.1849 -4.6045 -2.5000 0.9775
2.7239 -4.3076 -2.5000 0.9775
3.0617 -4.0744 -2.5000 0.9775
3.3796 -3.8148 -2.5000 0.9775
3.5305 -3.6757 -2.5000 0.9775
3.6756 -3.5305 -2.5000 0.9775
3.8148 -3.3797 -2.5000 0.9775
3.9478 -3.2233 -2.5000 0.9775
4.0744 -3.0617 -2.5000 0.9775
4.3075 -2.7239 -2.5000 0.9775
4.5128 -2.3685 -2.5000 0.9775
4.7654 -1.8073 -2.5000 0.9775
4.8342 -1.6139 -2.5000 0.9775
4.8953 -1.4180 -2.5000 0.9775
4.9484 -1.2197 -2.5000 0.9775
4.9935 -1.0195 -2.5000 0.9775
5.0306 -0.8175 -2.5000 0.9775
5.0800 -0.4101 -2.5000 0.9775
5.0924 -0.2052 -2.5000 0.9775
5.0924 0.2052 -2.5000 0.9775
5.0800 0.4101 -2.5000 0.9775
5.0594 0.6143 -2.5000 0.9775
4.9484 1.2197 -2.5000 0.9775
4.8953 1.4179 -2.5000 0.9775
4.8343 1.6139 -2.5000 0.9775
4.7654 1.8073 -2.5000 0.9775
4.6045 2.1849 -2.5000 0.9775
4.5128 2.3685 -2.5000 0.9775
4.4137 2.5483 -2.5000 0.9775
3.9526 2.7283 -2.3559 0.9788
3.8362 2.8827 -2.3538 0.9788
3.7071 3.0268 -2.3476 0.9789
3.5823 3.1736 -2.3476 0.9789
3.4516 3.3153 -2.3476 0.9789
3.3153 3.4516 -2.3476 0.9789
3.1736 3.5823 -2.3476 0.9789
2.8751 3.8260 -2.3476 0.9789
2.7187 3.9387 -2.3476 0.9789
2.5579 4.0450 -2.3476 0.9789
2.3929 4.1447 -2.3476 0.9789
2.2241 4.2377 -2.3476 0.9789
1.8759 4.4029 -2.3476 0.9789
1.6971 4.4749 -2.3476 0.9789
1.5155 4.5396 -2.3476 0.9789
1.3315 4.5969 -2.3476 0.9789
0.9573 4.6892 -2.3476 0.9789
0.7677 4.7239 -2.3476 0.9789
0.3851 4.7704 -2.3476 0.9789
0.1927 4.7820 -2.3476 0.9789
-0.0000 4.7859 -2.3476 0.9789
-0.5769 4.7510 -2.3476 0.9789
-1.1454 4.6468 -2.3476 0.9789
-1.3315 4.5969 -2.3476 0.9789
-1.5156 4.5396 -2.3476 0.9789
-2.0517 4.3238 -2.3476 0.9789
-2.2241 4.2377 -2.3476 0.9789
-2.5579 4.0450 -2.3476 0.9789
-2.8751 3.8260 -2.3476 0.9789
-3.5823 3.1736 -2.3476 0.9789
-3.9502 2.7266 -2.3544 0.9788
-4.2653 2.6972 -2.4754 0.9778
-4.4138 2.5483 -2.5000 0.9775
-4.6045 2.1849 -2.5000 0.9775
-2.9436 0.8526 -1.5032 0.9864
-2.1007 0.5178 -1.0613 0.9904
-2.0571 0.1661 -1.0123 0.9908
-2.0595 0.0830 -1.0111 0.9909
-1.9479 0.0000 -1.0105 0.9913
-1.9494 -0.0786 -1.0121 0.9912
-1.9473 -0.1572 -1.0135 0.9912
-1.9445 -0.2361 -1.0162 0.9912
-1.9607 -0.4003 -1.0382 0.9910
-1.9687 -0.4852 -1.0519 0.9909
-2.3249 -0.6734 -1.2557 0.9892
-4.5710 -1.5260 -2.5000 0.9785
-4.4334 -1.8889 -2.5000 0.9785
-4.2670 -2.2395 -2.5000 0.9785
-4.1734 -2.4095 -2.5000 0.9785
-3.9660 -2.7375 -2.5000 0.9785
-3.4755 -3.3382 -2.5000 0.9785
-2.7375 -3.9659 -2.5000 0.9785
-2.5756 -4.0730 -2.5000 0.9785
-2.4095 -4.1733 -2.5000 0.9785
-2.0659 -4.3537 -2.5000 0.9785
-1.8889 -4.4334 -2.5000 0.9785
-1.7088 -4.5058 -2.5000 0.9785
-1.3407 -4.6287 -2.5000 0.9785
-0.9639 -4.7216 -2.5000 0.9785
-0.7730 -4.7566 -2.5000 0.9785
-0.3878 -4.8033 -2.5000 0.9785
-0.0000 -4.8190 -2.5000 0.9785
