ply
format ascii 1.0
element vertex 1574
property float32 x
property float32 y
property float32 z
property float32 I
end_header
16.4484 -20.1456 -0.1464 0.9012
13.7566 -15.5280 -0.1168 0.9204
25.6274 8.5557 -0.1522 0.8976
18.2382 9.5721 -0.1160 0.9209
15.3095 9.6811 -0.1020 0.9301
10.4563 9.2635 -0.0787 0.9457
5.5729 9.6526 -0.0628 0.9564
5.0661 9.6526 -0.0614 0.9573
4.5414 9.5708 -0.0596 0.9585
3.1087 8.1971 -0.0494 0.9655
2.0560 8.3416 -0.0484 0.9662
1.1686 9.6247 -0.0546 0.9620
0.7770 9.6247 -0.0544 0.9621
-0.0000 9.6811 -0.0545 0.9620
-0.3901 9.6811 -0.0546 0.9620
-1.9764 9.6811 -0.0556 0.9612
-2.3862 9.6811 -0.0561 0.9609
-2.7879 9.6248 -0.0564 0.9607
-3.2132 9.6248 -0.0571 0.9602
-3.8403 9.0135 -0.0552 0.9616
-4.7062 8.1513 -0.0530 0.9631
-32.8110 34.1598 -0.2667 0.8274
-31.4611 27.8721 -0.2366 0.8452
-12.1740 7.6984 -0.0811 0.9440
-32.4844 17.0491 -0.2066 0.8635
-31.0096 14.7142 -0.1933 0.8717
-30.8434 6.2968 -0.1772 0.8817
-37.0032 6.0136 -0.2111 0.8607
-44.5685 -16.9026 -1.3422 0.8263
-35.1650 -16.6860 -1.0960 0.8558
-31.4845 -16.5243 -1.0012 0.8674
-37.3281 -23.6049 -1.2436 0.8380
-24.1957 -16.7011 -0.8278 0.8890
-26.2390 -19.7173 -0.9242 0.8769
-21.1588 -17.2756 -0.7691 0.8965
-20.2588 -17.9477 -0.7621 0.8974
-11.4521 -24.1347 -0.7522 0.8986
-8.4996 -22.4117 -0.6749 0.9085
-4.6129 -15.9254 -0.4669 0.9358
-4.8121 -29.6096 -0.8447 0.8869
-2.1541 -26.6829 -0.7538 0.8984
-0.9992 -24.7960 -0.6988 0.9055
0.0000 -25.1940 -0.7094 0.9041
1.0638 -26.3985 -0.7439 0.8997
5.4969 -18.9776 -0.5563 0.9240
11.3310 -26.5948 -0.8140 0.8908
7.4197 -15.6367 -0.4873 0.9331
8.4929 -14.7100 -0.4783 0.9343
15.2451 -18.6719 -0.6787 0.9080
24.4771 -25.4834 -0.9949 0.8681
22.9672 -15.8531 -0.7858 0.8943
25.6274 8.5557 -0.7608 0.8975
19.2575 8.2049 -0.5894 0.9196
17.3176 9.0890 -0.5507 0.9247
15.5919 9.0020 -0.5070 0.9305
14.0728 8.8991 -0.4688 0.9355
11.0468 8.3011 -0.3891 0.9462
10.6260 8.6758 -0.3863 0.9466
9.2714 9.6526 -0.3769 0.9479
6.6627 9.6526 -0.3303 0.9542
5.5729 9.6526 -0.3138 0.9564
2.7537 8.2485 -0.2449 0.9658
2.0560 8.3416 -0.2419 0.9662
1.7713 8.6766 -0.2494 0.9652
0.7770 9.6247 -0.2719 0.9621
-0.7816 9.6811 -0.2735 0.9619
-1.0451 8.6072 -0.2441 0.9659
-1.5734 9.6811 -0.2762 0.9615
-1.9764 9.6811 -0.2782 0.9612
-2.7879 9.6248 -0.2822 0.9607
-3.7660 8.8391 -0.2705 0.9623
-4.3763 8.3382 -0.2652 0.9630
-31.3402 35.3757 -1.3308 0.8277
-31.5430 21.7726 -1.0792 0.8578
-32.4473 18.7334 -1.0550 0.8608
-32.4833 17.0485 -1.0330 0.8635
-31.0584 14.7374 -0.9680 0.8715
-32.0403 13.6511 -0.9807 0.8699
-30.8748 10.3075 -0.9165 0.8779
-30.8748 7.6100 -0.8954 0.8805
-30.8434 6.2968 -0.8864 0.8816
-49.2955 -0.0000 -2.5000 0.8208
-49.2555 -1.9849 -2.5000 0.8208
-48.9361 -5.9419 -2.5000 0.8208
-48.6571 -7.9076 -2.5000 0.8208
-48.2993 -9.8604 -2.5000 0.8208
-43.9220 -14.6633 -2.3483 0.8307
-41.1134 -17.5167 -2.2664 0.8361
-35.1650 -16.6860 -1.9739 0.8557
-26.2375 -16.5916 -1.5743 0.8831
-23.7943 -16.4240 -1.4662 0.8907
-21.7952 -16.3780 -1.3826 0.8966
-18.3986 -16.2998 -1.2466 0.9062
-16.8391 -16.1741 -1.1841 0.9107
-15.5186 -16.1566 -1.1361 0.9142
-21.2552 -28.2856 -1.7944 0.8679
-24.5352 -38.7993 -2.3281 0.8321
-22.9439 -39.7400 -2.3272 0.8321
-11.2749 -23.7613 -1.3338 0.9000
-8.3989 -22.1462 -1.2012 0.9095
-4.6132 -15.9265 -0.8409 0.9357
-5.8881 -23.8887 -1.2478 0.9062
-9.1598 -44.8677 -2.3224 0.8324
-7.3449 -45.1951 -2.3221 0.8324
-5.5187 -45.4505 -2.3219 0.8325
-3.6840 -45.6337 -2.3218 0.8325
-0.0000 -45.7824 -2.3218 0.8325
7.3470 -45.2078 -2.3228 0.8324
7.4209 -15.6393 -0.8779 0.9330
21.3809 -40.7379 -2.3333 0.8317
10.7346 -15.5518 -0.9583 0.9271
12.7230 -15.5829 -1.0202 0.9226
14.9190 -15.5323 -1.0922 0.9174
16.2490 -15.6074 -1.1426 0.9137
17.5646 -15.5609 -1.1901 0.9103
18.9110 -15.4404 -1.2381 0.9068
41.6643 -26.3469 -2.5000 0.8208
42.6914 -24.6479 -2.5000 0.8208
42.9330 -22.5330 -2.4590 0.8235
43.2826 -16.4149 -2.3476 0.8308
46.1926 -13.3799 -2.4389 0.8248
48.2992 -9.8604 -2.5000 0.8208
49.2555 1.9849 -2.5000 0.8208
45.9529 5.5797 -2.3476 0.8308
45.6911 7.4255 -2.3476 0.8308
45.0238 11.0974 -2.3517 0.8305
44.5226 12.8961 -2.3507 0.8306
43.3005 16.4217 -2.3486 0.8307
19.2820 8.2153 -1.0629 0.9195
15.5522 8.1624 -0.8908 0.9321
14.1565 8.1733 -0.8290 0.9366
14.0729 8.8992 -0.8444 0.9355
11.9882 8.2749 -0.7387 0.9433
11.1360 8.3681 -0.7064 0.9457
10.7691 8.7927 -0.7051 0.9458
8.5514 9.6526 -0.6540 0.9497
7.8811 9.6526 -0.6320 0.9513
6.6627 9.6526 -0.5948 0.9541
6.1039 9.6526 -0.5792 0.9553
5.0661 9.6526 -0.5528 0.9573
3.0694 8.0935 -0.4390 0.9659
1.7242 8.4456 -0.4371 0.9661
1.4403 8.8626 -0.4554 0.9647
-0.0000 9.6863 -0.4912 0.9619
-0.3902 9.6811 -0.4914 0.9619
-0.7816 9.6811 -0.4926 0.9618
-1.0451 8.6072 -0.4397 0.9659
-1.5734 9.6811 -0.4974 0.9615
-2.6688 9.2136 -0.4865 0.9623
-3.6012 9.4956 -0.5150 0.9601
-4.0393 8.5126 -0.4778 0.9630
-4.3763 8.3382 -0.4776 0.9630
-5.7486 8.3282 -0.5132 0.9603
-30.3344 34.2404 -2.3199 0.8326
-31.3488 30.1110 -2.2044 0.8402
-31.4611 27.8721 -2.1316 0.8451
-32.4491 26.4938 -2.1245 0.8455
-31.0171 23.3078 -1.9676 0.8561
-29.9318 20.6604 -1.8445 0.8644
-12.1740 7.6984 -0.7305 0.9439
-32.4840 17.0489 -1.8605 0.8634
-31.9771 13.6242 -1.7628 0.8700
-30.8640 11.7052 -1.6740 0.8762
-30.8748 10.3075 -1.6507 0.8778
-30.8748 8.9430 -1.6302 0.8792
-30.8435 6.2968 -1.5965 0.8815
-45.9884 5.5840 -2.3494 0.8307
-46.1499 3.7256 -2.3481 0.8307
-49.2555 1.9849 -2.5000 0.8208
-34.0959 0.0000 -2.5000 0.8722
-34.0683 -1.3729 -2.5000 0.8722
-33.4069 -6.8201 -2.5000 0.8722
-32.7497 -9.4861 -2.5000 0.8722
-32.3412 -10.7971 -2.5000 0.8722
-31.8802 -12.0906 -2.5000 0.8722
-30.9995 -13.2076 -2.4706 0.8736
-28.9271 -13.7261 -2.3477 0.8795
-27.7392 -16.0152 -2.3485 0.8794
-21.7952 -16.3780 -1.9990 0.8964
-20.0090 -16.3368 -1.8940 0.9016
-18.4579 -16.3523 -1.8081 0.9058
-16.8391 -16.1741 -1.7120 0.9106
-15.7354 -16.3823 -1.6655 0.9129
-14.4703 -16.3336 -1.6000 0.9162
-18.1418 -26.2829 -2.3416 0.8798
-9.2895 -16.0899 -1.3623 794
-31.11.2309 -23.6686 -1.9209 0.9003
-6.0740 -16.0159 -1.2559 0.9336
-5.3412 -15.9990 -1.2367 0.9346
-3.9354 -15.9666 -1.2057 0.9362
-3.2564 -15.9510 -1.1937 0.9368
-2.5898 -15.9356 -1.1838 0.9373
-1.9331 -15.9205 -1.1759 0.9377
-1.2840 -15.9055 -1.1700 0.9380
-0.0000 -15.8760 -1.1641 0.9383
1.2720 -15.7569 -1.1591 0.9386
1.9223 -15.8317 -1.1693 0.9380
2.5704 -15.8168 -1.1749 0.9378
3.8910 -15.7863 -1.1921 0.9369
8.3116 -28.6948 -2.1905 0.8871
8.2328 -15.6863 -1.2989 0.9314
17.0749 -27.0018 -2.3425 0.8797
10.7915 -15.6342 -1.3929 0.9266
12.7662 -15.6359 -1.4800 0.9222
13.7367 -15.5055 -1.5189 0.9203
18.9110 -15.4404 -1.7901 0.9067
25.6280 -19.2582 -2.3505 0.8793
29.5281 -17.0481 -2.5000 0.8722
30.1905 -15.8452 -2.5000 0.8722
30.8041 -14.6167 -2.5000 0.8722
31.3676 -13.3645 -2.5000 0.8722
32.3413 -10.7971 -2.5000 0.8722
32.7498 -9.4861 -2.5000 0.8722
33.1052 -8.1597 -2.5000 0.8722
33.4069 -6.8201 -2.5000 0.8722
33.6544 -5.4694 -2.5000 0.8722
33.8473 -4.1098 -2.5000 0.8722
33.9854 -2.7436 -2.5000 0.8722
34.0683 -1.3729 -2.5000 0.8722
34.0959 0.0000 -2.5000 0.8722
33.9853 2.7436 -2.5000 0.8722
33.6545 5.4694 -2.5000 0.8722
33.4070 6.8201 -2.5000 0.8722
33.1053 8.1597 -2.5000 0.8722
32.7499 9.4861 -2.5000 0.8722
25.5865 8.5420 -1.9778 0.8975
31.8804 12.0906 -2.5000 0.8722
17.4066 7.4163 -1.3873 0.9269
15.5909 8.1828 -1.2910 0.9318
14.0738 8.1255 -1.1916 0.9369
14.0728 8.8991 -1.2209 0.9354
11.1360 8.3681 -1.0214 0.9457
9.5695 8.4778 -0.9374 0.9500
8.8317 8.4830 -0.8979 0.9521
8.5514 9.6526 -0.9455 0.9496
2.3624 8.1560 -0.6226 0.9665
1.4761 9.0829 -0.6747 0.9638
1.1686 9.6245 -0.7109 0.9619
0.7769 9.6236 -0.7079 0.9620
-0.3901 9.6811 -0.7104 0.9619
-0.7816 9.6811 -0.7122 0.9618
-1.9764 9.6811 -0.7245 0.9611
-2.3862 9.6811 -0.7311 0.9608
-2.6686 9.2130 -0.7033 0.9623
-4.3763 8.3382 -0.6905 0.9629
-21.2309 26.0032 -2.4614 0.8740
-22.2608 25.1272 -2.4614 0.8740
-24.2105 23.2545 -2.4614 0.8740
-25.1801 18.9217 -2.3094 0.8813
-26.6679 16.8638 -2.3135 0.8811
-28.5722 13.5576 -2.3189 0.8809
-29.8558 11.3228 -2.3412 0.8798
-30.7175 8.8974 -2.3449 0.8796
-30.8435 6.2968 -2.3082 0.8814
-34.0683 1.3729 -2.5000 0.8722
-26.0190 -1.0485 -2.5000 0.9006
-25.9557 -2.0954 -2.5000 0.9006
-25.8503 -3.1388 -2.5000 0.9006
-25.2835 -6.2318 -2.5000 0.9006
-25.0120 -7.2448 -2.5000 0.9006
-24.7000 -8.2461 -2.5000 0.9006
-23.9564 -10.2069 -2.5000 0.9006
-23.0574 -12.1015 -2.5000 0.9006
-20.1243 -13.8908 -2.3476 0.9064
-19.5487 -14.6899 -2.3476 0.9064
-18.9422 -15.4658 -2.3477 0.9064
-18.3102 -16.2214 -2.3485 0.9064
-16.8391 -16.1741 -2.2416 0.9104
-16.9622 -17.6595 -2.3508 0.9063
-14.3579 -16.2067 -2.0787 0.9167
-13.2108 -16.1803 -2.0054 0.9195
-10.2186 -16.1594 -1.8355 0.9260
-10.4775 -22.0809 -2.3464 0.9065
-6.0740 -16.0159 -1.6445 0.9335
-0.0000 -15.8760 -1.5242 0.9382
1.2720 -15.7569 -1.5177 0.9385
3.9181 -24.1088 -2.3449 0.9065
5.9959 -15.8099 -1.6233 0.9343
6.6983 -15.7217 -1.6406 0.9336
7.4097 -15.6156 -1.6594 0.9329
9.0457 -15.6676 -1.7369 0.9299
10.7945 -15.6385 -1.8243 0.9265
11.7270 -15.6058 -1.8741 0.9246
13.7092 -15.4745 -1.9848 0.9203
16.9723 -17.6700 -2.3522 0.9062
17.2599 -16.5784 -2.2976 0.9083
18.3033 -16.2152 -2.3476 0.9064
23.0574 -12.1015 -2.5000 0.9006
23.9564 -10.2069 -2.5000 0.9006
24.3480 -9.2340 -2.5000 0.9006
24.7000 -8.2461 -2.5000 0.9006
25.2835 -6.2318 -2.5000 0.9006
11.1731 -1.3567 -1.0806 0.9558
11.3409 -0.9155 -1.0923 0.9553
25.9557 2.0954 -2.5000 0.9006
25.8503 3.1388 -2.5000 0.9006
23.9585 4.8912 -2.3476 0.9064
23.7422 5.8519 -2.3476 0.9064
23.2752 7.7704 -2.3558 0.9061
22.9517 8.7044 -2.3566 0.9061
17.3147 7.3771 -1.8069 0.9272
14.0365 7.3669 -1.5219 0.9383
14.0739 8.1256 -1.5602 0.9368
14.0728 8.8991 -1.5985 0.9353
10.7691 8.7927 -1.3347 0.9457
9.5341 8.4465 -1.2229 0.9501
8.7937 8.4464 -1.1706 0.9522
8.4153 8.7613 -1.1663 0.9524
8.5514 9.6526 -1.2381 0.9495
7.8811 9.6526 -1.1963 0.9512
4.7598 8.2442 -0.9139 0.9625
4.4957 8.5659 -0.9287 0.9619
3.5798 8.4021 -0.8768 0.9640
2.7048 8.1018 -0.8200 0.9663
2.3624 8.1560 -0.8152 0.9665
1.7358 8.5025 -0.8331 0.9657
1.4403 8.8626 -0.8620 0.9646
0.7769 9.6236 -0.9269 0.9 0.9187
200 9.6811 -0.9294 0.9618
-1.9764 9.6811 -0.9486 0.9611
-2.7293 8.1752 -0.8274 0.9660
-3.6012 9.4956 -0.9750 0.9600
-4.0393 8.5126 -0.9046 0.9628
-5.7486 8.3282 -0.9715 0.9602
-15.4019 20.4963 -2.4614 0.9021
-16.2148 19.8595 -2.4614 0.9021
-17.7602 18.4903 -2.4614 0.9021
-20.4963 15.4019 -2.4614 0.9021
-22.7015 11.9147 -2.4614 0.9021
-23.1629 10.9909 -2.4614 0.9021
-23.5866 10.0493 -2.4614 0.9021
-23.9721 9.0914 -2.4614 0.9021
-24.3188 8.1188 -2.4614 0.9021
-24.3758 7.0605 -2.4364 0.9030
-24.5444 6.0497 -2.4269 0.9034
-24.9526 5.0941 -2.4450 0.9027
-25.6215 4.1639 -2.4921 0.9009
-25.8226 3.1354 -2.4973 0.9007
-25.9350 2.0937 -2.4980 0.9007
-26.0054 1.0480 -2.4987 0.9007
-20.9779 -1.6935 -2.5000 0.9187
-20.8927 -2.5368 -2.5000 0.9187
-20.6208 -4.2098 -2.5000 0.9187
-20.4346 -5.0367 -2.5000 0.9187
-20.2152 -5.8554 -2.5000 0.9187
-19.9631 -6.6646 -2.5000 0.9187
-19.3621 -8.2494 -2.5000 0.9187
-18.6354 -9.7806 -2.5000 0.9187
-18.2265 -10.5231 -2.5000 0.9187
-16.1672 -13.2001 -2.4792 0.9194
-13.6904 -14.2532 -2.3476 0.9235
-13.1054 -14.7929 -2.3476 0.9235
-12.4991 -15.3087 -2.3476 0.9235
-11.8746 -15.8023 -2.3480 0.9235
-10.5672 -16.7107 -2.3486 0.9234
-6.0740 -16.0159 -2.0347 0.9333
-4.6157 -15.9352 -1.9707 0.9354
-2.5898 -15.9356 -1.9178 0.9370
-1.9331 -15.9205 -1.9050 0.9374
3.2259 -15.8017 -1.9157 0.9371
3.8910 -15.7863 -1.9313 0.9366
5.2597 -15.7548 -1.9730 0.9353
7.7589 -18.2108 -2.3513 0.9234
7.4097 -15.6156 -2.0531 0.9327
9.8837 -17.1190 -2.3481 0.9235
11.2269 -16.2648 -2.3476 0.9235
11.8726 -15.7996 -2.3476 0.9235
12.4991 -15.3086 -2.3476 0.9235
13.1054 -14.7929 -2.3476 0.9235
14.2532 -13.6904 -2.3476 0.9235
14.9095 -13.2086 -2.3661 0.9229
16.1519 -13.1876 -2.4769 0.9194
17.7880 -11.2484 -2.5000 0.9187
18.6354 -9.7806 -2.5000 0.9187
19.0139 -9.0223 -2.5000 0.9187
19.3620 -8.2494 -2.5000 0.9187
19.6785 -7.4631 -2.5000 0.9187
19.9630 -6.6646 -2.5000 0.9187
20.2152 -5.8554 -2.5000 0.9187
12.5752 -2.5673 -1.5246 0.9496
10.5645 -1.7169 -1.2714 0.9578
10.6028 -1.2874 -1.2687 0.9579
21.0461 0.0000 -2.5000 0.9187
20.9779 1.6935 -2.5000 0.9187
20.8927 2.5368 -2.5000 0.9187
19.5072 3.1702 -2.3476 0.9235
19.3638 3.9531 -2.3476 0.9235
19.1888 4.7296 -2.3476 0.9235
18.4633 7.0022 -2.3456 0.9235
14.0728 8.8991 -1.9778 0.9351
11.9882 8.2749 -1.7303 0.9430
11.1360 8.3681 -1.6546 0.9454
9.5341 8.4465 -1.5130 0.9500
8.7937 8.4464 -1.4484 0.9521
7.6146 7.9277 -1.3057 0.9567
7.8811 9.6526 -1.4802 0.9510
5.6689 8.2128 -1.1854 0.9606
5.1935 8.2128 -1.1543 0.9616
3.5798 8.4021 -1.0849 0.9639
2.7159 8.1351 -1.0188 0.9660
2.3769 8.2062 -1.0148 0.9662
2.0560 8.3416 -1.0205 0.9660
1.7482 8.5633 -1.0382 0.9654
1.1686 9.6245 -1.1517 0.9617
0.7769 9.6237 -1.1469 0.9619
0.3238 8.0366 -0.9554 0.9681
-0.0000 9.6116 -1.1417 0.9620
-0.3868 9.5979 -1.1410 0.9620
-0.7725 9.5686 -1.1403 0.9621
-1.9214 9.4115 -1.1410 0.9620
-2.3002 9.3321 -1.1417 0.9620
-3.6012 9.4956 -1.2063 0.9599
-3.7717 8.8524 -1.1430 0.9620
-4.0629 8.5623 -1.1258 0.9625
-5.1428 8.1327 -1.1430 0.9620
-12.2976 15.0619 -2.3097 0.9247
-14.3541 14.9442 -2.4614 0.9199
-14.9442 14.3541 -2.4614 0.9199
-15.5101 13.7407 -2.4614 0.9199
-16.5655 12.4481 -2.4614 0.9199
-18.3478 9.6296 -2.4614 0.9199
-18.7206 8.8830 -2.4614 0.9199
-19.0632 8.1220 -2.4614 0.9199
-19.3772 7.3488 -2.4617 0.9199
-19.7228 6.5844 -2.4699 0.9197
-20.5411 4.1935 -2.4903 0.9190
-20.8817 2.5355 -2.4987 0.9188
-21.0273 0.8474 -2.4998 0.9187
-17.6442 -0.0000 -2.5000 0.9312
-17.5869 -1.4198 -2.5000 0.9312
-16.9475 -4.9089 -2.5000 0.9312
-16.7361 -5.5873 -2.5000 0.9312
-16.4976 -6.2567 -2.5000 0.9312
-14.9127 -9.4302 -2.5000 0.9312
-14.5208 -10.0230 -2.5000 0.9312
-12.2225 -12.7250 -2.5000 0.9312
-11.6897 -13.1949 -2.4977 0.9313
-10.7853 -13.2096 -2.4163 0.9334
-7.6998 -14.6707 -2.3476 0.9353
-5.8753 -15.4919 -2.3476 0.9353
-5.2471 -15.7168 -2.3477 0.9353
-4.6033 -15.8923 -2.3443 0.9353
-3.3147 -16.2367 -2.3480 0.9352
-2.6583 -16.3575 -2.3481 0.9352
-1.9976 -16.4515 -2.3481 0.9352
0.6673 -16.5588 -2.3481 0.9352
1.9975 -16.4506 -2.3480 0.9352
3.9653 -16.0878 -2.3477 0.9353
4.6099 -15.9144 -2.3476 0.9353
5.2467 -15.7159 -065 -2.390353
6.4943 -15.2427 -2.3476 0.9353
7.1028 -14.9688 -2.3476 0.9353
8.2843 -14.3488 -2.3476 0.9353
9.9534 -13.2456 -2.3476 0.9353
10.7785 -13.2013 -2.4148 0.9335
11.6817 -13.1859 -2.4960 0.9313
12.7250 -12.2225 -2.5000 0.9312
13.6672 -11.1589 -2.5000 0.9312
14.1054 -10.5996 -2.5000 0.9312
14.5208 -10.0230 -2.5000 0.9312
15.2802 -8.8221 -2.5000 0.9312
15.9406 -7.5639 -2.5000 0.9312
16.2322 -6.9159 -2.5000 0.9312
16.4975 -6.2567 -2.5000 0.9312
16.7361 -5.5873 -2.5000 0.9312
17.1314 -4.2225 -2.5000 0.9312
10.1977 -2.0819 -1.4747 0.9588
9.9580 -1.6184 -1.4295 0.9601
9.9635 -1.2098 -1.4221 0.9603
10.1059 -0.8158 -1.4366 0.9599
17.5155 2.1268 -2.5000 0.9312
16.2337 3.3141 -2.3476 0.9353
15.9144 4.6096 -2.3476 0.9353
15.7158 5.2467 -2.3476 0.9353
13.9742 8.8368 -2.3427 0.9354
11.9882 8.2749 -2.0640 0.9428
11.1360 8.3681 -1.9737 0.9453
8.7937 8.4464 -1.7276 0.9519
7.6338 7.9476 -1.5614 0.9565
7.8537 8.8650 -1.6781 0.9533
7.6184 9.3309 -1.7068 0.9525
6.1715 8.2128 -1.4556 0.9593
5.6689 8.2128 -1.4140 0.9605
5.1935 8.2128 -1.3768 0.9615
4.7417 8.2128 -1.3437 0.9624
4.4957 8.5659 -1.3707 0.9617
4.5414 9.5708 -1.5010 0.9581
3.5798 8.4021 -1.2940 0.9638
3.0892 8.1457 -1.2344 0.9654
2.7048 8.1018 -1.2102 0.9661
2.0560 8.3416 -1.2173 0.9659
0.7769 9.6239 -1.3680 0.9617
-0.7174 8.8867 -1.2632 0.9646
-0.9540 7.8565 -1.1214 0.9685
-2.1591 8.7597 -1.2783 0.9642
-2.5369 8.7582 -1.2920 0.9638
-3.6012 9.4956 -1.4389 0.9598
-4.7062 8.1513 -1.3336 0.9627
-5.2327 8.2749 -1.3872 0.9612
-5.7486 8.3282 -1.4338 0.9599
-9.8124 13.0579 -2.3143 0.9361
-12.2009 10.8090 -2.3096 0.9363
-13.8878 10.4359 -2.4614 0.9322
-15.0444 8.6859 -2.4614 0.9322
-15.6969 7.4483 -2.4618 0.9322
-15.9996 6.8168 -2.4641 0.9322
-16.8393 4.8775 -2.4840 0.9316
-17.2791 3.5276 -2.4988 0.9312
-17.4098 2.8294 -2.4991 0.9312
-17.5869 1.4197 -2.5000 0.9312
-15.1754 0.0000 -2.5000 0.9403
-15.1262 -1.2211 -2.5000 0.9403
-15.0648 -1.8292 -2.5000 0.9403
-14.8687 -3.0355 -2.5000 0.9403
-14.7344 -3.6317 -2.5000 0.9403
-12.4891 -8.6206 -2.5000 0.9403
-12.1319 -9.1165 -2.5000 0.9403
-11.7550 -9.5976 -2.5000 0.9403
-10.9446 -10.5124 -2.5000 0.9403
-9.1165 -12.1319 -2.5000 0.9403
-7.5877 -13.1423 -2.5000 0.9403
-6.2679 -13.2092 -2.4086 0.9425
-5.6312 -13.2167 -2.3667 0.9434
-4.5126 -13.5169 -2.3476 0.9439
-3.9647 -13.6877 -2.3476 0.9439
-3.4104 -13.8362 -2.3476 0.9439
-1.7177 -14.1464 -2.3476 0.9439
-0.5738 -14.2388 -2.3476 0.9439
-0.0000 -14.2503 -2.3476 0.9439
0.5738 -14.2387 -2.3476 0.9439
1.7177 -14.1464 -2.3476 0.9439
2.2859 -14.0658 -2.3476 0.9439
2.8504 -13.9623 -2.3476 0.9439
3.9647 -13.6877 -2.3476 0.9439
6.2655 -13.2044 -2.4077 0.9425
6.9254 -13.1954 -2.4550 0.9414
9.5976 -11.7549 -2.5000 0.9403
10.0632 -11.3589 -2.5000 0.9403
10.9445 -10.5124 -2.5000 0.9403
11.7547 -9.5976 -2.5000 0.9403
12.1319 -9.1165 -2.5000 0.9403
12.4891 -8.6206 -2.5000 0.9403
13.1423 -7.5877 -2.5000 0.9403
13.4371 -7.0524 -2.5000 0.9403
13.7102 -6.5056 -2.5000 0.9403
14.1892 -5.3813 -2.5000 0.9403
14.3944 -4.8056 -2.5000 0.9403
14.5762 -4.2221 -2.5000 0.9403
14.7344 -3.6317 -2.5000 0.9403
9.8326 -1.5979 -1.6411 0.9604
9.8646 -1.1978 -1.6370 0.9605
9.9602 -0.8041 -1.6462 0.9603
15.1262 1.2211 -2.5000 0.9403
15.0647 1.8292 -2.5000 0.9403
14.9789 2.4343 -2.5000 0.9403
13.8362 3.4103 -2.3476 0.9439
13.6877 3.9647 -2.3476 0.9439
13.3242 5.0532 -2.3476 0.9439
13.1100 5.5856 -2.3476 0.9439
12.8744 6.1090 -2.3476 0.9439
11.9879 7.5807 -2.3366 0.9441
10.7040 8.7396 -2.2765 0.9455
9.9643 9.5708 -2.2761 0.9455
7.6411 7.9553 -1.8172 0.9563
6.1715 8.2128 -1.6924 0.9592
4.7417 8.2128 -1.5623 0.9623
4.4957 8.5659 -1.5937 0.9615
3.5798 8.4021 -1.5045 0.9637
3.1087 8.1971 -1.4442 0.9651
1.7713 8.6766 -1.4589 0.9647
1.4722 9.0592 -1.5120 0.9635
-0.3459 8.5820 -1.4149 0.9658
-0.6929 8.5834 -1.4186 0.9657
-0.9336 7.6888 -1.2759 0.9691
-2.1151 8.5813 -1.4560 0.9648
-2.4852 8.5798 -1.4715 0.9644
-3.8403 9.0134 -1.6140 0.9611
-4.3763 8.3382 -1.5513 0.9625
-5.2327 8.2749 -1.6129 0.9611
-8.4394 11.2308 -2.3143 0.9446
-8.8849 10.8820 -2.3143 0.9446
-9.7317 10.1318 -2.3143 0.9446
-10.1318 9.7317 -2.3143 0.9446
-10.5135 9.3140.9500
-6.3031 10.9172 -2.3695 0.9500
-6.7348 10.6502 -2.3685 0.9500
-7.1550 10.3659 -2.3675 0.9500
-7.5632 10.0647 -2.3664 0.9501
-7.9584 9.7473 -2.3652 0.9501
-6.0480 4.9381 -1.4676 0.9687
-10.3143 7.1195 -2.3557 0.9503
-10.5855 6.6939 -2.3541 0.9503
-11.4904 4.8956 -2.3476 0.9504
-11.8470 3.9551 -2.3476 0.9504
-13.0318 2.6605 -2.5000 0.9473
-13.2036 1.6032 -2.5000 0.9473
-13.2898 0.5356 -2.5000 0.9473
-11.8174 -0.4762 -2.5000 0.9528
-11.7886 -0.9517 -2.5000 0.9528
-11.7407 -1.4256 -2.5000 0.9528
-11.6738 -1.8972 -2.5000 0.9528
-11.5880 -2.3657 -2.5000 0.9528
-11.3600 -3.2905 -2.5000 0.9528
-11.2183 -3.7452 -2.5000 0.9528
-11.0584 -4.1939 -2.5000 0.9528
-10.6851 -5.0701 -2.5000 0.9528
-9.9960 -6.3211 -2.5000 0.9528
-9.7334 -6.7185 -2.5000 0.9528
-9.1612 -7.4799 -2.5000 0.9528
-8.8526 -7.8427 -2.5000 0.9528
-8.5296 -8.1928 -2.5000 0.9528
-7.8427 -8.8526 -2.5000 0.9528
-6.7185 -9.7334 -2.5000 0.9528
-6.3211 -9.9960 -2.5000 0.9528
-5.4963 -10.4723 -2.5000 0.9528
-5.0701 -10.6851 -2.5000 0.9528
-3.7452 -11.2183 -2.5000 0.9528
-3.2905 -11.3600 -2.5000 0.9528
-1.8972 -11.6738 -2.5000 0.9528
-1.4256 -11.7407 -2.5000 0.9528
-0.4762 -11.8174 -2.5000 0.9528
-0.0000 -11.8270 -2.5000 0.9528
0.4762 -11.8174 -2.5000 0.9528
1.4256 -11.7407 -2.5000 0.9528
3.2905 -11.3600 -2.5000 0.9528
4.1939 -11.0584 -2.5000 0.9528
5.4962 -10.4723 -2.5000 0.9528
5.9135 -10.2425 -2.5000 0.9528
6.3211 -9.9960 -2.5000 0.9528
6.7185 -9.7334 -2.5000 0.9528
7.1049 -9.4550 -2.5000 0.9528
7.4799 -9.1612 -2.5000 0.9528
7.8427 -8.8526 -2.5000 0.9528
8.8526 -7.8427 -2.5000 0.9528
9.1612 -7.4799 -2.5000 0.9528
10.2425 -5.9135 -2.5000 0.9528
10.6851 -5.0701 -2.5000 0.9528
11.2183 -3.7452 -2.5000 0.9528
11.3600 -3.2905 -2.5000 0.9528
11.6738 -1.8972 -2.5000 0.9528
11.0819 -1.3456 -2.3597 0.9554
11.8174 0.4762 -2.5000 0.9528
11.7407 1.4256 -2.5000 0.9528
11.6738 1.8972 -2.5000 0.9528
11.0130 2.7144 -2.3976 0.9547
10.3843 3.9382 -2.3476 0.9556
10.2173 4.3532 -2.3476 0.9556
10.0337 4.7611 -2.3476 0.9556
9.4943 4.9830 -2.2665 0.9571
8.6264 4.9805 -2.1055 0.9601
9.4020 5.9455 -2.3514 0.9555
6.6201 4.9747 -1.7504 0.9667
8.0448 7.7271 -2.3579 0.9554
4.7731 4.9694 -1.4565 0.9722
7.4041 8.3575 -2.3602 0.9554
6.3509 9.2009 -2.3632 0.9553
5.9776 9.4528 -2.3641 0.9553
5.2012 9.9101 -2.3658 0.9553
3.1179 10.7643 -2.3689 0.9552
2.6824 10.8831 -2.3693 0.9552
1.7985 11.0668 -2.3700 0.9552
1.3516 11.1313 -2.3702 0.9552
0.4516 11.2053 -2.3705 0.9552
-0.4516 11.2053 -2.3705 0.9552
-1.3516 11.1313 -2.3702 0.9552
-3.1179 10.7643 -2.3689 0.9552
-4.7995 10.1147 -2.3665 0.9553
-5.9776 9.4529 -2.3641 0.9553
-4.7467 4.9419 -1.4484 0.9724
-5.5755 4.9395 -1.5745 0.9700
-6.0338 4.9265 -1.6465 0.9687
-9.1604 6.3230 -2.3528 0.9555
-10.0337 4.7611 -2.3476 0.9556
-10.2173 4.3532 -2.3476 0.9556
-10.6675 3.0899 -2.3476 0.9556
-10.9872 2.7081 -2.3920 0.9548
-11.5880 2.3657 -2.5000 0.9528
-11.7407 1.4256 -2.5000 0.9528
-10.6372 0.0000 -2.5000 0.9572
-10.6286 -0.4283 -2.5000 0.9572
-10.4222 -2.1277 -2.5000 0.9572
-10.3281 -2.5456 -2.5000 0.9572
-10.2172 -2.9594 -2.5000 0.9572
-9.9459 -3.7720 -2.5000 0.9572
-9.6102 -4.5601 -2.5000 0.9572
-9.2121 -5.3186 -2.5000 0.9572
-8.7542 -6.0426 -2.5000 0.9572
-8.5038 -6.3902 -2.5000 0.9572
-8.2396 -6.7274 -2.5000 0.9572
-7.9621 -7.0538 -2.5000 0.9572
-7.3686 -7.6716 -2.5000 0.9572
-7.0538 -7.9621 -2.5000 0.9572
-6.7275 -8.2396 -2.5000 0.9572
-6.0426 -8.7542 -2.5000 0.9572
-5.3186 -9.2121 -2.5000 0.9572
-4.9434 -9.4188 -2.5000 0.9572
-4.1694 -9.7860 -2.5000 0.9572
-3.7720 -9.9459 -2.5000 0.9572
-2.1277 -10.4222 -2.5000 0.9572
-0.8559 -10.6027 -2.5000 0.9572
-0.0000 -10.6372 -2.5000 0.9572
0.4283 -10.6286 -2.5000 0.9572
1.7063 -10.4994 -2.5000 0.9572
2.5457 -10.3281 -2.5000 0.9572
3.3685 -10.0898 -2.5000 0.9572
3.7720 -9.9460 -2.5000 0.9572
4.1694 -9.7860 -2.5000 0.9572
4.5601 -9.6102 -2.5000 0.9572
5.3186 -9.2121 -2.5000 0.9572
6.0426 -8.7542 -2.5000 0.9572
6.3902 -8.5038 -2.5000 0.9572
7.6716 -7.3686 -2.5000 0.9572
8.5038 -6.3902 -2.5000 0.9572
8.7542 -6.0426 -2.5000 0.9572
8.9904 -5.6852 -2.5000 0.9572
9.6102 -4.5601 -2.5000 0.9572
9.9459 -3.7720 -2.5000 0.9572
10.2172 -2.9595 -2.5000 0.9572
10.3281 -2.5457 -2.5000 0.9572
10.4222 -2.1277 -2.5000 0.9572
10.4994 -1.7063 -2.5000 0.9572
10.5596 -1.2822 -2.5000 0.9572
10.6286 -0.4283 -2.5000 0.9572
10.6286 0.4283 -2.5000 0.9572
10.6027 0.8559 -2.5000 0.9572
10.4995 1.7063 -2.5000 0.9572
10.3281 2.5456 -2.5000 0.9572
9.1894 3.9153 -2.3476 0.9598
9.0243 4.2821 -2.3476 0.9598
8.4483 5.3424 -2.3492 0.9598
8.2306 5.6812 -2.3505 0.9597
6.0938 4.9754 -1.8489 0.9682
5.6120 4.9718 -1.7621 0.9697
6.0297 8.0241 -2.3590 0.9596
3.4274 4.9655 -1.4180 0.9755
3.1394 4.9647 -1.3805 0.9762
5.0238 8.7015 -2.3614 0.9596
4.6708 8.8994 -2.3621 0.9595
4.3098 9.0828 -2.3628 0.9595
3.9416 9.2514 -2.3634 0.9595
3.1858 9.5428 -2.3645 0.9595
2.0134 9.8621 -2.3656 0.9595
0.4054 10.0604 -2.3663 0.9595
-0.4054 10.0604 -2.3663 0.9595
-1.2135 9.9941 -2.3661 0.9595
-2.4085 9.7717 -2.3653 0.9595
-2.7996 9.6652 -2.3649 0.9595
-3.1859 9.5428 -2.3645 0.9595
-3.5668 9.4048 -2.3640 0.9595
-3.9417 9.2514 -2.3634 0.9595
-5.0238 8.7015 -2.3614 0.9596
-5.3684 8.4894 -2.3607 0.9596
-4.3790 4.9429 -1.5520 0.9732
-4.7467 4.9419 -1.6104 0.9722
-5.5755 4.9395 -1.7506 0.9699
-6.0480 4.9381 -1.8351 0.9684
-6.5694 4.9366 -1.9312 0.9668
-8.2307 5.6813 -2.3505 0.9597
-9.0243 4.2821 -2.3476 0.9598
-9.1894 3.9153 -2.3476 0.9598
-9.3396 3.5421 -2.3476 0.9598
-10.3281 2.5457 -2.5000 0.9572
-10.4222 2.1277 -2.5000 0.9572
-10.4994 1.7063 -2.5000 0.9572
-10.5596 1.2822 -2.5000 0.9572
-9.6555 -0.0000 -2.5000 0.9609
-9.6477 -0.3888 -2.5000 0.9609
-9.6242 -0.7769 -2.5000 0.9609
-9.5851 -1.1638 -2.5000 0.9609
-9.2743 -2.6863 -2.5000 0.9609
-9.1586 -3.0576 -2.5000 0.9609
-8.8829 -3.7846 -2.5000 0.9609
-8.5496 -4.4871 -2.5000 0.9609
-7.7190 -5.8005 -2.5000 0.9609
-7.4792 -6.1066 -2.5000 0.9609
-7.2273 -6.4028 -2.5000 0.9609
-6.9636 -6.6886 -2.5000 0.9609
-6.6886 -6.9636 -2.5000 0.9609
-6.1066 -7.4792 -2.5000 0.9609
-5.8005 -7.7190 -2.5000 0.9609
-5.4850 -7.9463 -2.5000 0.9609
-5.1605 -8.1608 -2.5000 0.9609
-4.8278 -8.3619 -2.5000 0.9609
-3.0576 -9.1586 -2.5000 0.9609
-2.6863 -9.2743 -2.5000 0.9609
-2.3107 -9.3749 -2.5000 0.9609
-1.9314 -9.4604 -2.5000 0.9609
-1.5489 -9.5305 -2.5000 0.9609
-1.1638 -9.5851 -2.5000 0.9609
0.3888 -9.6477 -2.5000 0.9609
1.1638 -9.5851 -2.5000 0.9609
2.3107 -9.3749 -2.5000 0.9609
3.0576 -9.1586 -2.5000 0.9609
3.7846 -8.8829 -2.5000 0.9609
4.1392 -8.7233 -2.5000 0.9609
5.1605 -8.1607 -2.5000 0.9609
5.8005 -7.7190 -2.5000 0.9609
6.6886 -6.9636 -2.5000 0.9609
6.9636 -6.6886 -2.5000 0.9609
7.4792 -6.1066 -2.5000 0.9609
7.7190 -5.8005 -2.5000 0.9609
7.9463 -5.4850 -2.5000 0.9609
8.1607 -5.1605 -2.5000 0.9609
8.3619 -4.8278 -2.5000 0.9609
8.5495 -4.4871 -2.5000 0.9609
8.7233 -4.1392 -2.5000 0.9609
8.8829 -3.7846 -2.5000 0.9609
9.1586 -3.0576 -2.5000 0.9609
9.3749 -2.3107 -2.5000 0.9609
9.4604 -1.9313 -2.5000 0.9609
9.5851 -1.1638 -2.5000 0.9609
9.6242 -0.7770 -2.5000 0.9609
9.6477 -0.3888 -2.5000 0.9609
9.6242 0.7770 -2.5000 0.9609
9.3749 2.3107 -2.5000 0.9609
7.8522 4.5335 -2.3476 0.9632
7.6628 4.8456 -2.3474 0.9632
6.6201 4.9747 -2.1441 0.9664
5.6120 4.9718 -1.9412 0.9695
4.0461 4.9556 -1.6564 0.9739
5.4670 7.2752 -2.3562 0.9631
3.4274 4.9655 -1.5622 0.9754
4.5544 7.8886 -2.3585 0.9631
2.6048 4.9631 -1.4513 0.9771
3.9070 8.2338 -2.3597 0.9630
2.1140 4.9617 -1.3964 0.9780
3.2332 8.5253 -2.3608 0.9630
2.8879 8.6503 -2.3612 0.9630
2.5377 8.7610 -2.3616 0.9630
1.4637 9.0064 -2.3625 0.9630
0.3675 9.1188 -2.3629 0.9630
-0.0000 9.1263 -2.3630 0.9630
-0.3675 9.1188 -2.3629 0.9630
-0.7343 9.0963 -2.3628 0.9630
-1.1000 9.0588 -2.3627 0.9630
-1.4637 9.0064 -2.3625 0.9630
-1.8250 8.9393 -2.3623 0.9630
-2.8879 8.6503 -2.3612 0.9630
-2.5970 4.9481 -1.4469 0.9772
-4.8670 7.6965 -2.3578 0.9631
-4.0271 4.9323 -1.6486 0.9740
-4.3687 4.9313 -1.7058 0.9731
-4.7467 4.9419 -1.7742 0.9721
-6.5533 6.2946 -2.3527 0.9632
-5.5755 4.9395 -1.9286 0.9697
-6.0480 4.9381 -2.0216 0.9683
-6.5694 4.9366 -2.1276 0.9666
-7.4650 5.1527 -2.3486 0.9632
-7.8522 4.5335 -2.3476 0.9632
-8.0284 4.2136 -2.3476 0.9632
-8.4777 3.2152 -2.3476 0.9632
-8.6180 2.8771 -2.3524 0.9632
-9.2743 2.6863 -2.5000 0.9609
-9.3749 2.3107 -2.5000 009
-1.1638 -9.5851 -2.5000 0.9609
-0.7770 -9.6242 -2.5000 0.9609
-0.3888 -9.6477 -2.5000 0.9609
1.5488 -9.5305 -2.5000 0.9609
1.9314 -9.4604 -2.5000 0.9609
2.3107 -9.3749 -2.5000 0.9609
2.6863 -9.2743 -2.5000 0.9609
3.7846 -8.8829 -2.5000 0.9609
4.1392 -8.7233 -2.5000 0.9609
4.4871 -8.5495 -2.5000 0.9609
4.8277 -8.3619 -2.5000 0.9609
5.1605 -8.1608 -2.5000 0.9609
5.4849 -7.9463 -2.5000 0.9609
5.8005 -7.7191 -2.5000 0.9609
6.1066 -7.4792 -2.5000 0.9609
6.4028 -7.2273 -2.5000 0.9609
6.6886 -6.9636 -2.5000 0.9609
6.9636 -6.6886 -2.5000 0.9609
7.2272 -6.4028 -2.5000 0.9609
8.5495 -4.4871 -2.5000 0.9609
8.8829 -3.7846 -2.5000 0.9609
9.1586 -3.0576 -2.5000 0.9609
9.2743 -2.6863 -2.5000 0.9609
9.4604 -1.9314 -2.5000 0.9609
9.5305 -1.5489 -2.5000 0.9609
9.5851 -1.1639 -2.5000 0.9609
9.6242 -0.7770 -2.5000 0.9609
9.6477 -0.3888 -2.5000 0.9609
9.6555 0.0000 -2.5000 0.9609
9.6477 0.3888 -2.5000 0.9609
9.5851 1.1638 -2.5000 0.9609
9.5305 1.5489 -2.5000 0.9609
9.4604 1.9313 -2.5000 0.9609
9.3749 2.3107 -2.5000 0.9609
9.2743 2.6863 -2.5000 0.9609
8.6003 2.8712 -2.3476 0.9632
8.4777 3.2152 -2.3476 0.9632
8.1915 3.8869 -2.3476 0.9632
7.8521 4.5335 -2.3476 0.9632
7.4619 5.1506 -2.3476 0.9632
7.0233 5.7343 -2.3476 0.9632
6.7867 6.0125 -2.3476 0.9632
6.5391 6.2809 -2.3476 0.9632
6.0125 6.7867 -2.3476 0.9632
5.4046 7.1922 -2.3294 0.9635
2.0560 8.3416 -2.2244 0.9651
1.7358 8.5025 -2.2468 0.9648
1.4424 8.8755 -2.3282 0.9635
0.5708 7.0715 -1.8369 0.9711
0.3158 7.8371 -2.0308 0.9681
0.0000 7.8384 -2.0295 0.9681
-0.3160 7.8397 -2.0315 0.9681
-0.6330 7.8410 -2.0368 0.9680
-0.9414 7.7532 -2.0222 0.9682
-1.1494 7.0724 -1.8552 0.9708
-2.2462 7.7549 -2.0904 0.9672
-2.6844 7.0781 -1.9600 0.9692
-3.5130 8.2452 -2.3205 0.9636
-3.8407 8.0942 -2.3197 0.9637
-5.7344 7.0231 -2.3475 0.9632
-6.2809 6.5391 -2.3476 0.9632
-6.7867 6.0125 -2.3476 0.9632
-7.4619 5.1506 -2.3476 0.9632
-8.1915 3.8869 -2.3476 0.9632
-8.4777 3.2152 -2.3476 0.9632
-8.6003 2.8712 -2.3476 0.9632
-9.3750 2.3107 -2.5000 0.9609
-9.4604 1.9313 -2.5000 0.9609
-9.5305 1.5489 -2.5000 0.9609
-9.5851 1.1638 -2.5000 0.9609
-9.6242 0.7769 -2.5000 0.9609
-9.6477 0.3888 -2.5000 0.9609
-8.8023 -0.7106 -2.5000 0.9640
-8.6525 -1.7664 -2.5000 0.9640
-8.4823 -2.4569 -2.5000 0.9640
-8.2571 -3.1315 -2.5000 0.9640
-8.1243 -3.4615 -2.5000 0.9640
-7.9784 -3.7858 -2.5000 0.9640
-7.8194 -4.1040 -2.5000 0.9640
-6.3689 -6.1174 -2.5000 0.9640
-5.5851 -6.8405 -2.5000 0.9640
-4.1040 -7.8194 -2.5000 0.9640
-3.4615 -8.1243 -2.5000 0.9640
-2.1134 -8.5744 -2.5000 0.9640
-1.7664 -8.6525 -2.5000 0.9640
-1.4166 -8.7166 -2.5000 0.9640
-0.3556 -8.8238 -2.5000 0.9640
0.7106 -8.8023 -2.5000 0.9640
1.7664 -8.6525 -2.5000 0.9640
3.4614 -8.1243 -2.5000 0.9640
3.7857 -7.9784 -2.5000 0.9640
4.4155 -7.6479 -2.5000 0.9640
4.7198 -7.4639 -2.5000 0.9640
5.3051 -7.0599 -2.5000 0.9640
5.5851 -6.8405 -2.5000 0.9640
5.8560 -6.6101 -2.5000 0.9640
6.1174 -6.3689 -2.5000 0.9640
6.6101 -5.8560 -2.5000 0.9640
6.8405 -5.5851 -2.5000 0.9640
7.2677 -5.0166 -2.5000 0.9640
7.4638 -4.7199 -2.5000 0.9640
7.8194 -4.1040 -2.5000 0.9640
7.9783 -3.7858 -2.5000 0.9640
8.4823 -2.4569 -2.5000 0.9640
8.6525 -1.7664 -2.5000 0.9640
8.8238 -0.3556 -2.5000 0.9640
8.8310 0.0000 -2.5000 0.9640
8.7666 1.0645 -2.5000 0.9640
8.7166 1.4166 -2.5000 0.9640
8.6525 1.7664 -2.5000 0.9640
8.5743 2.1134 -2.5000 0.9640
7.4920 3.5550 -2.3476 0.9661
7.0088 4.4321 -2.3476 0.9661
6.6295 4.9817 -2.3476 0.9661
6.2071 5.4990 -2.3476 0.9661
5.4990 6.2071 -2.3476 0.9661
5.2446 6.4235 -2.3476 0.9661
4.7107 6.8247 -2.3476 0.9661
3.8210 7.2803 -2.3276 0.9664
3.2218 7.5618 -2.3269 0.9664
2.9142 7.6842 -2.3265 0.9664
1.3178 8.1091 -2.3257 0.9664
0.5715 7.0794 -2.0107 0.9709
0.3083 7.6510 -2.1677 0.9687
-0.0000 7.6523 -2.1663 0.9687
-0.6180 7.6548 -2.1741 0.9686
-0.9296 7.6561 -2.1833 0.9684
-1.5629 7.6554 -2.2119 0.9680
-1.8846 7.6461 -2.2293 0.9678
-2.4975 7.4810 -2.2327 0.9677
-2.6876 7.0865 -2.1456 0.9690
-3.2122 7.5393 -2.3200 0.9665
-3.8076 7.2547 -2.3194 0.9665
-4.7108 6.8247 -2.3476 0.9661
-4.9818 6.6295 -2.3476 0.9661
-5.2446 6.4235 -2.3476 0.9661
-5.9807 5.7445 -2.3476 0.000 0.9666
7.8071 -2.2613 -2.5000 0.9666
7.8918 -1.9452 -2.5000 0.9666
8.0687 -0.9797 -2.5000 0.9666
8.1016 0.6540 -2.5000 0.9666
8.0687 0.9797 -2.5000 0.9666
8.0227 1.3038 -2.5000 0.9666
7.8071 2.2613 -2.5000 0.9666
7.1765 2.7217 -2.3607 0.9684
6.7582 3.5470 -2.3476 0.9686
6.2814 4.3357 -2.3476 0.9686
5.9121 4.8271 -2.3476 0.9686
5.6120 4.9718 -2.3061 0.9691
4.7731 4.9694 -2.1193 0.9716
4.5938 6.1133 -2.3520 0.9685
2.1090 4.9500 -1.6549 0.9777
1.8338 7.4399 -2.3568 0.9684
1.5329 7.5085 -2.3571 0.9684
0.8057 4.9579 -1.5449 0.9792
0.3086 7.6589 -2.3576 0.9684
-0.1997 4.9550 -1.5253 0.9795
-0.9239 7.6087 -2.3575 0.9684
-1.2294 7.5648 -2.3573 0.9684
-1.2206 4.9521 -1.5687 0.9789
-2.4259 7.2663 -2.3562 0.9684
-1.8773 4.9502 -1.6284 0.9781
-2.1038 4.9378 -1.6509 0.9778
-2.8563 4.9473 -1.7571 0.9764
-3.4138 4.9457 -1.8484 0.9752
-3.7158 4.9449 -1.9025 0.9744
-4.3790 4.9429 -2.0312 0.9727
-4.7467 4.9419 -2.1076 0.9717
-5.5755 4.9395 -2.2911 0.9693
-5.9121 4.8271 -2.3476 0.9686
-6.1017 4.5851 -2.3476 0.9686
-6.2814 4.3358 -2.3476 0.9686
-6.4509 4.0793 -2.3476 0.9686
-6.6099 3.8162 -2.3476 0.9686
-6.7582 3.5470 -2.3476 0.9686
-6.8956 3.2720 -2.3476 0.9686
-7.1697 2.7191 -2.3585 0.9684
-7.8070 2.2613 -2.5000 0.9666
-7.8918 1.9452 -2.5000 0.9666
-7.9637 1.6258 -2.5000 0.9666
-8.0687 0.9797 -2.5000 0.9666
-8.1214 0.3273 -2.5000 0.9666
-7.5209 0.0000 -2.5000 0.9688
-7.5148 -0.3028 -2.5000 0.9688
-7.4965 -0.6052 -2.5000 0.9688
-7.3023 -1.7999 -2.5000 0.9688
-7.2240 -2.0924 -2.5000 0.9688
-7.1338 -2.3816 -2.5000 0.9688
-7.0322 -2.6669 -2.5000 0.9688
-6.7947 -3.2241 -2.5000 0.9688
-6.6594 -3.4951 -2.5000 0.9688
-6.5133 -3.7604 -2.5000 0.9688
-6.3566 -4.0196 -2.5000 0.9688
-6.1896 -4.2723 -2.5000 0.9688
-5.8257 -4.7565 -2.5000 0.9688
-5.2099 -5.4241 -2.5000 0.9688
-4.9873 -5.6295 -2.5000 0.9688
-4.7566 -5.8257 -2.5000 0.9688
-4.2723 -6.1896 -2.5000 0.9688
-4.0197 -6.3566 -2.5000 0.9688
-3.4951 -6.6594 -2.5000 0.9688
-1.5044 -7.3689 -2.5000 0.9688
-1.2064 -7.4235 -2.5000 0.9688
-0.9065 -7.4661 -2.5000 0.9688
-0.6052 -7.4965 -2.5000 0.9688
-0.3028 -7.5148 -2.5000 0.9688
0.0000 -7.5209 -2.5000 0.9688
0.3028 -7.5148 -2.5000 0.9688
0.9065 -7.4661 -2.5000 0.9688
2.6670 -7.0321 -2.5000 0.9688
3.2241 -6.7947 -2.5000 0.9688
3.4951 -6.6594 -2.5000 0.9688
4.2724 -6.1896 -2.5000 0.9688
4.5181 -6.0125 -2.5000 0.9688
4.7566 -5.8257 -2.5000 0.9688
4.9873 -5.6295 -2.5000 0.9688
5.2099 -5.4241 -2.5000 0.9688
5.8257 -4.7566 -2.5000 0.9688
6.3566 -4.0197 -2.5000 0.9688
6.9191 -2.9479 -2.5000 0.9688
7.0321 -2.6670 -2.5000 0.9688
7.3023 -1.7999 -2.5000 0.9688
7.4235 -1.2064 -2.5000 0.9688
7.4660 -0.9066 -2.5000 0.9688
7.5148 -0.3028 -2.5000 0.9688
7.4235 1.2064 -2.5000 0.9688
7.3689 1.5044 -2.5000 0.9688
6.3805 3.0276 -2.3476 0.9707
6.2534 3.2821 -2.3476 0.9707
5.9691 3.7746 -2.3476 0.9707
5.8123 4.0119 -2.3476 0.9707
5.2863 4.6832 -2.3476 0.9707
4.7731 4.9694 -2.2904 0.9714
4.6862 5.2896 -2.3490 0.9707
4.4707 5.4755 -2.3497 0.9706
3.5380 6.1279 -2.3521 0.9706
3.0346 6.3954 -2.3531 0.9706
2.5111 6.6212 -2.3539 0.9706
1.6560 4.9604 -1.7383 0.9782
1.2194 4.9474 -1.6938 0.9788
0.6005 4.9456 -1.6560 0.9792
0.3992 4.9450 -1.6491 0.9793
-0.0000 4.9439 -1.6434 0.9794
-0.3990 4.9427 -1.6483 0.9793
-1.0087 4.9410 -1.6763 0.9790
-1.4342 4.9514 -1.7135 0.9785
-2.2428 6.7179 -2.3542 0.9706
-1.8773 4.9502 -1.7598 0.9779
-2.3482 4.9488 -1.8208 0.9772
-3.7810 5.9792 -2.3516 0.9706
-3.7158 4.9449 -2.0560 0.9743
-4.0366 4.9439 -2.1216 0.9735
-4.3790 4.9429 -2.1951 0.9725
-5.0935 4.8924 -2.3476 0.9707
-5.6460 4.2427 -2.3476 0.9707
-6.1162 3.5312 -2.3476 0.9707
-6.2535 3.2821 -2.3476 0.9707
-7.0321 2.6669 -2.5000 0.9688
-7.1338 2.3816 -2.5000 0.9688
-7.3023 1.7999 -2.5000 0.9688
-7.5148 0.3029 -2.5000 0.9688
-6.9852 -0.2815 -2.5000 0.9707
-6.9399 -0.8427 -2.5000 0.9707
-6.9003 -1.1214 -2.5000 0.9707
-6.8496 -1.3984 -2.5000 0.9707
-6.7877 -1.6730 -2.5000 0.9707
-6.6311 -2.2138 -2.5000 0.9707
-6.4315 -2.7402 -2.5000 0.9707
-5.0418 -4.8427 -2.5000 0.9707
-4.8428 -5.0418 -2.5000 0.9707
-4.6358 -5.2327 -2.5000 0.9707
-4.4213 -5.4152 -2.5000 0.9707
-3.7364 -5.9086 -2.5000 0.9707
-3.2488 -6.1901 -2.5000 0.9707
-2.9969 -6.3159 -2.5000 0.9707
-2.7402 -6.4315 -2.5000 0.9707
-2.4790 -6.5366 -2.5000 0.9707
-2.2138 -6.6311 -2.5000 0.9707
-1.6730 -6.7877 -2.5000 0.9707
-1.3983 -6.8496 -2.5000 0.9707
-1.1214 -6.9003 -2.5000 0.9707
-0.5625 -6.9682 -2.5000 0.9707
-0.2815 -6.9852 -2.5000 0.9707
0.2815 -6.9852 -2.5000 0.9707
0.8427 -6.9399 -2.5000 0.9707
1.1214 -6.9003 -2.5000 0.9707
1.3983 -6.8496 -2.5000 0.9707
2.2138 -6.6311 -2.5000 0.9707
3.4954 -6.0543 -2.5000 0.9707
3.7364 -5.9086 -2.5000 0.9707
4.6358 -5.2327 -2.5000 0.9707
4.8427 -5.0418 -2.5000 0.9707
5.5888 -4.1997 -2.5000 0.9707
5.7534 -3.9713 -2.5000 0.9707
6.0543 -3.4954 -2.5000 0.9707
6.1901 -3.2488 -2.5000 0.9707
6.3159 -2.9969 -2.5000 0.9707
6.4314 -2.7402 -2.5000 0.9707
6.5366 -2.4790 -2.5000 0.9707
6.6311 -2.2138 -2.5000 0.9707
6.7877 -1.6730 -2.5000 0.9707
6.9399 -0.8427 -2.5000 0.9707
6.9852 -0.2815 -2.5000 0.9707
6.9852 0.2815 -2.5000 0.9707
6.9682 0.5625 -2.5000 0.9707
6.9399 0.8427 -2.5000 0.9707
6.9003 1.1214 -2.5000 0.9707
6.7877 1.6730 -2.5000 0.9707
6.5366 2.4790 -2.5000 0.9707
4.9138 4.3532 -2.3476 0.9725
4.5475 4.7345 -2.3476 0.9725
4.1531 5.0866 -2.3483 0.9725
3.9459 5.2511 -2.3489 0.9725
3.4274 4.9655 -2.1576 0.9747
3.2864 5.6923 -2.3505 0.9725
1.6560 4.9604 -1.8701 0.9780
0.8057 4.9579 -1.7962 0.9789
0.6019 4.9573 -1.7858 0.9790
0.2650 6.5765 -2.3537 0.9724
-0.1997 4.9550 -1.7734 0.9792
-1.0557 6.4958 -2.3534 0.9724
-1.0111 4.9527 -1.8076 0.9788
-1.4342 4.9514 -1.8434 0.9783
-1.8773 4.9502 -1.8932 0.9778
-2.3482 4.9488 -1.9588 0.9770
-2.5970 4.9481 -1.9984 0.9765
-3.4138 4.9457 -2.1490 0.9748
-3.7158 4.9449 -2.2119 0.9741
-4.0366 4.9439 -2.2824 0.9733
-5.0851 4.1518 -2.3476 0.9725
-5.2481 3.9437 -2.3476 0.9725
-5.5484 3.5086 -2.3476 0.9725
-5.8128 3.0508 -2.3476 0.9725
-6.3300 2.6970 -2.4606 0.9712
-6.5366 2.4790 -2.5000 0.9707
-6.6311 2.2138 -2.5000 0.9707
-6.7149 1.9450 -2.5000 0.9707
-6.7877 1.6730 -2.5000 0.9707
-6.9004 1.1214 -2.5000 0.9707
-6.9399 0.8427 -2.5000 0.9707
-6.9682 0.5625 -2.5000 0.9707
-6.5184 -0.2627 -2.5000 0.9724
-6.5025 -0.5249 -2.5000 0.9724
-6.0016 -2.5571 -2.5000 0.9724
-5.8938 -2.7966 -2.5000 0.9724
-5.5137 -3.4867 -2.5000 0.9724
-5.2153 -3.9190 -2.5000 0.9724
-5.0533 -4.1259 -2.5000 0.9724
-4.7049 -4.5191 -2.5000 0.9724
-4.5191 -4.7049 -2.5000 0.9724
-4.1259 -5.0532 -2.5000 0.9724
-3.9190 -5.2153 -2.5000 0.9724
-3.7059 -5.3689 -2.5000 0.9724
-3.4867 -5.5137 -2.5000 0.9724
-3.2618 -5.6496 -2.5000 0.9724
-3.0317 -5.7764 -2.5000 0.9724
-2.7966 -5.8938 -2.5000 0.9724
-2.3133 -6.0997 -2.5000 0.9724
-1.8150 -6.2661 -2.5000 0.9724
-1.3049 -6.3918 -2.5000 0.9724
-0.7863 -6.4761 -2.5000 0.9724
-0.2627 -6.5184 -2.5000 0.9724
0.5249 -6.5025 -2.5000 0.9724
0.7863 -6.4761 -2.5000 0.9724
1.0465 -6.4392 -2.5000 0.9724
1.3049 -6.3918 -2.5000 0.9724
1.5612 -6.3341 -2.5000 0.9724
2.3133 -6.0997 -2.5000 0.9724
3.4867 -5.5137 -2.5000 0.9724
3.7058 -5.3689 -2.5000 0.9724
3.9190 -5.2153 -2.5000 0.9724
4.1259 -5.0533 -2.5000 0.9724
4.3260 -4.8830 -2.5000 0.9724
4.5191 -4.7049 -2.5000 0.9724
4.8830 -4.3260 -2.5000 0.9724
5.0533 -4.1259 -2.5000 0.9724
5.2153 -3.9190 -2.5000 0.9724
5.8938 -2.7966 -2.5000 0.9724
6.1879 -2.0658 -2.5000 0.9724
6.3341 -1.5612 -2.5000 0.9724
6.3918 -1.3049 -2.5000 0.9724
6.4761 -0.7863 -2.5000 0.9724
6.5184 -0.2627 -2.5000 0.9724
6.5237 0.0000 -2.5000 0.9724
6.5184 0.2627 -2.5000 0.9724
6.5025 0.5249 -2.5000 0.9724
6.4392 1.0465 -2.5000 0.9724
6.3341 1.5612 -2.5000 0.9724
6.1879 2.0658 -2.5000 0.9724
5.7077 2.7083 -2.4210 0.9733
5.3052 3.0630 -2.3476 0.9741
5.0416 3.4800 -2.3476 0.9741
4.8974 3.6801 -2.3476 0.9741
4.7452 3.8743 -2.3476 0.9741
4.5854 4.0623 -2.3476 0.9741
4.4181 4.2436 -2.3476 0.9741
4.0623 4.5854 -2.3476 0.9741
3.8744 4.7452 -2.3476 0.9741
3.0650 5.3087 -2.3491 0.9741
2.6288 5.5401 -2.3500 0.9741
2.1751 5.7354 -2.3507 0.9741
1.4366 4.9597 -1.9788 0.9781
0.0000 6.1378 -2.3521 0.9741
-0.1997 4.9550 -1.9004 0.9790
-0.7398 6.0926 -2.3520 0.9741
-1.0111 4.9527 -1.9371 0.9786
-1.9427 5.8191 -2.3510 0.9741
-2.3482 4.9488 -2.0991 0.9768
-2.8563 4.9473 -2.1892 0.9758
-3.8744 4.7452 -2.3476 0.9741
-4.0623 4.5854 -2.3476 0.9741
-4.2436 4.4181 -2.3476 0.9741
-4.7452 3.8743 -2.3476 0.9741
-4.8974 3.6801 -2.3476 0.9741
-5.0416 3.4800 -2.3476 0.9741
-5.1776 3.2741 -2.3476 0.9741
-5.4243 2.8469 -2.3476 0.9741
-5.7008 2.7050 -2.4181 0.9733
-6.0016 2.5571 -2.5000 0.9724
-6.0997 2.3133 -2.5000 0.9724
-6.2661 1.8150 -2.5000 0.9724
-6.3341 1.5612 -2.5000 0.9724
-6.5025 0.5249 -2.5000 0.9724
-2.6418 -0.1065 -1.0821 0.9886
-2.6602 -0.3230 -1.0968 0.9885
-2.8591 -0.4646 -1.1855 0.9876
-5.8671 -1.6994 -2.5000 0.9739
-5.7114 -2.1660 -2.5000 0.9739
-5.5186 -2.6186 -2.5000 0.9739
-5.1627 -3.2647 -2.5000 0.9739
-5.0271 -3.4699 -2.5000 0.9739
-4.7315 -3.8632 -2.5000 0.9739
-4.5721 -4.0506 -2.5000 0.9739
-3.8632 -4.7315 -2.5000 0.9739
-2.8387 -5.4087 -2.5000 0.9739
-2.6186 -5.5186 -2.5000 0.9739
-2.1660 -5.7114 -2.5000 0.9739
-1.9343 -5.7940 -2.5000 0.9739
-1.6995 -5.8672 -2.5000 0.9739
-1.2218 -5.9849 -2.5000 0.9739
-0.9798 -6.0292 -2.5000 0.9739
0.2460 -6.1034 -2.5000 0.9739
0.9798 -6.0292 -2.5000 0.9739
1.2218 -5.9849 -2.5000 0.9739
1.6994 -5.8672 -2.5000 0.9739
2.1660 -5.7114 -2.5000 0.9739
2.3943 -5.6195 -2.5000 0.9739
2.6186 -5.5186 -2.5000 0.9739
2.8387 -5.4087 -2.5000 0.9739
3.0542 -5.2900 -2.5000 0.9739
3.4699 -5.0271 -2.5000 0.9739
3.8632 -4.7315 -2.5000 0.9739
4.4054 -4.2314 -2.5000 0.9739
4.5721 -4.0506 -2.5000 0.9739
4.7315 -3.8632 -2.5000 0.9739
4.8832 -3.6695 -2.5000 0.9739
5.1627 -3.2647 -2.5000 0.9739
5.4086 -2.8387 -2.5000 0.9739
5.7114 -2.1660 -2.5000 0.9739
5.7940 -1.9343 -2.5000 0.9739
5.8672 -1.6995 -2.5000 0.9739
5.9308 -1.4618 -2.5000 0.9739
6.0292 -0.9799 -2.5000 0.9739
6.0638 -0.7363 -2.5000 0.9739
6.0885 -0.4915 -2.5000 0.9739
6.1034 -0.2460 -2.5000 0.9739
6.0885 0.4915 -2.5000 0.9739
6.0638 0.7363 -2.5000 0.9739
5.9849 1.2218 -2.5000 0.9739
5.7940 1.9343 -2.5000 0.9739
5.5186 2.6186 -2.5000 0.9739
5.1709 2.7139 -2.3901 0.9751
4.8480 3.0657 -2.3476 0.9755
4.5856 3.4458 -2.3476 0.9755
4.4431 3.6277 -2.3476 0.9755
3.4458 4.5856 -2.3476 0.9755
2.4601 5.1846 -2.3487 0.9755
2.1140 4.9617 -2.2073 0.9770
2.0355 5.3672 -2.3493 0.9755
1.6560 4.9604 -2.1403 0.9777
1.4366 4.9597 -2.1133 0.9779
1.3742 5.5752 -2.3501 0.9755
0.6019 4.9573 -2.0438 0.9786
0.4621 5.7248 -2.3506 0.9755
-0.0000 5.7436 -2.3507 0.9755
-0.1997 4.9550 -2.0296 0.9788
-0.4000 4.9544 -2.0343 0.9787
-0.9212 5.6685 -2.3504 0.9755
-1.2206 4.9521 -2.0874 0.9782
-1.8773 4.9502 -2.1668 0.9774
-2.2497 5.2802 -2.3490 0.9755
-2.3482 4.9488 -2.2419 0.9766
-3.0655 4.8477 -2.3475 0.9755
-3.2584 4.7206 -2.3476 0.9755
-3.4458 4.5856 -2.3476 0.9755
-3.9734 4.1368 -2.3476 0.9755
-4.1368 3.9734 -2.3476 0.9755
-4.2934 3.8037 -2.3476 0.9755
-4.5856 3.4458 -2.3476 0.9755
-4.7206 3.2584 -2.3476 0.9755
-4.8480 3.0657 -2.3476 0.9755
-5.1652 2.7109 -2.3875 0.9751
-5.5186 2.6186 -2.5000 0.9739
-5.7114 2.1660 -2.5000 0.9739
-5.7940 1.9343 -2.5000 0.9739
-5.9308 1.4618 -2.5000 0.9739
-5.9849 1.2218 -2.5000 0.9739
-2.8591 0.4647 -1.1855 0.9876
-2.6602 0.3230 -1.0968 0.9885
-2.6418 0.1065 -1.0821 0.9886
-2.4020 0.0000 -1.0468 0.9896
-2.4304 -0.3950 -1.0731 0.9893
-5.5696 -1.3728 -2.5000 0.9753
-5.5099 -1.5959 -2.5000 0.9753
-5.4411 -1.8165 -2.5000 0.9753
-5.3636 -2.0341 -2.5000 0.9753
-5.2773 -2.2484 -2.5000 0.9753
-5.0793 -2.6658 -2.5000 0.9753
-4.9678 -2.8682 -2.5000 0.9753
-4.8483 -3.0659 -2.5000 0.9753
-4.2937 -3.8039 -2.5000 0.9753
-4.1371 -3.9737 -2.5000 0.9753
-3.9737 -4.1370 -2.5000 0.9753
-3.8039 -4.2937 -2.5000 0.9753
-3.6279 -4.4434 -2.5000 0.9753
-3.0659 -4.8483 -2.5000 0.9753
-2.2484 -5.2773 -2.5000 0.9753
-2.0342 -5.3635 -2.5000 0.9753
-1.5959 -5.5098 -2.5000 0.9753
-1.3728 -5.5696 -2.5000 0.9753
-0.6914 -5.6945 -2.5000 0.9753
-0.2310 -5.7317 -2.5000 0.9753
0.0000 -5.7363 -2.5000 0.9753
0.4616 -5.7177 -2.5000 0.9753
0.6914 -5.6945 -2.5000 0.9753
1.1474 -5.6204 -2.5000 0.9753
1.8165 -5.4411 -2.5000 0.9753
2.2484 -5.2773 -2.5000 0.9753
2.4591 -5.1825 -2.5000 0.9753
2.6658 -5.0792 -2.5000 0.9753
3.2586 -4.7209 -2.5000 0.9753
3.4460 -4.5858 -2.5000 0.9753
3.8039 -4.2937 -2.5000 0.9753
4.2937 -3.8039 -2.5000 0.9753
4.5859 -3.4460 -2.5000 0.9753
5.1825 -2.4591 -2.5000 0.9753
5.3635 -2.0341 -2.5000 0.9753
5.4411 -1.8165 -2.5000 0.9753
5.5696 -1.3728 -2.5000 0.9753
5.6204 -1.1474 -2.5000 0.9753
5.6620 -0.9202 -2.5000 0.9753
5.6945 -0.6914 -2.5000 0.9753
5.7363 0.0000 -2.5000 0.9753
5.7317 0.2310 -2.5000 0.9753
5.7177 0.4616 -2.5000 0.9753
5.6620 0.9202 -2.5000 0.9753
5.6204 1.1474 -2.5000 0.9753
5.5098 1.5960 -2.5000 0.9753
5.4411 1.8165 -2.5000 0.9753
5.3636 2.0341 -2.5000 0.9753
4.4331 3.0600 -2.3476 0.9768
4.1725 3.4068 -2.3476 0.9768
3.5720 4.0320 -2.3476 0.9768
3.4067 4.1725 -2.3476 0.9768
3.2360 4.3063 -2.3476 0.9768
3.0599 4.4331 -2.3476 0.9768
2.6933 4.6650 -2.3476 0.9768
1.6560 4.9604 -2.2791 0.9774
1.4366 4.9597 -2.2504 0.9777
0.4338 5.3732 -2.3494 0.9768
0.2171 5.3864 -2.3494 0.9768
-0.4000 4.9544 -2.1662 0.9785
-0.6497 5.3512 -2.3493 0.9768
-1.0111 4.9527 -2.2030 0.9782
-2.1038 4.9378 -2.3391 0.9769
-2.3091 4.8664 -2.3475 0.9768
-3.2360 4.3063 -2.3476 0.9768
-3.4068 4.1725 -2.3476 0.9768
-3.5720 4.0320 -2.3476 0.9768
-3.7315 3.8848 -2.3476 0.9768
-4.0320 3.5720 -2.3476 0.9768
-4.4331 3.0600 -2.3476 0.9768
-4.5527 2.8790 -2.3476 0.9768
-4.7024 2.7150 -2.3664 0.9766
-5.1825 2.4591 -2.5000 0.9753
-5.2773 2.2484 -2.5000 0.9753
-5.3636 2.0341 -2.5000 0.9753
-5.4411 1.8165 -2.5000 0.9753
-5.5696 1.3728 -2.5000 0.9753
-2.4304 0.3950 -1.0731 0.9893
-2.2418 -0.0000 -1.0377 0.9902
-2.2422 -0.2723 -1.0455 0.9901
-2.2449 -0.3648 -1.0528 0.9900
-2.3009 -0.4697 -1.0870 0.9897
-5.1229 -1.7103 -2.5000 0.9765
-4.9687 -2.1170 -2.5000 0.9765
-4.8794 -2.3153 -2.5000 0.9765
-4.6773 -2.7004 -2.5000 0.9765
-4.5648 -2.8866 -2.5000 0.9765
-4.3177 -3.2445 -2.5000 0.9765
-4.1835 -3.4158 -2.5000 0.9765
-3.8951 -3.7413 -2.5000 0.9765
-3.5814 -4.0426 -2.5000 0.9765
-3.2445 -4.3177 -2.5000 0.9765
-3.0681 -4.4448 -2.5000 0.9765
-2.8866 -4.5648 -2.5000 0.9765
-2.7004 -4.6773 -2.5000 0.9765
-2.1170 -4.9687 -2.5000 0.9765
-1.7103 -5.1229 -2.5000 0.9765
-0.6510 -5.3615 -2.5000 0.9765
-0.4346 -5.3834 -2.5000 0.9765
-0.0000 -5.4009 -2.5000 0.9765
0.2175 -5.3965 -2.5000 0.9765
0.4346 -5.3834 -2.5000 0.9765
0.6510 -5.3615 -2.5000 0.9765
1.0803 -5.2917 -2.5000 0.9765
1.2925 -5.2439 -2.5000 0.9765
1.5026 -5.1876 -2.5000 0.9765
1.7103 -5.1229 -2.5000 0.9765
1.9152 -5.0499 -2.5000 0.9765
2.1170 -4.9687 -2.5000 0.9765
2.3153 -4.8794 -2.5000 0.9765
2.8866 -4.5648 -2.5000 0.9765
3.0680 -4.4448 -2.5000 0.9765
3.4158 -4.1835 -2.5000 0.9765
4.1835 -3.4158 -2.5000 0.9765
4.4448 -3.0680 -2.5000 0.9765
4.7822 -2.5099 -2.5000 0.9765
4.8794 -2.3153 -2.5000 0.9765
5.1229 -1.7103 -2.5000 0.9765
5.1876 -1.5026 -2.5000 0.9765
5.3309 -0.8664 -2.5000 0.9765
5.3834 -0.4346 -2.5000 0.9765
5.3965 -0.2175 -2.5000 0.9765
5.4009 0.0000 -2.5000 0.9765
5.3834 0.4346 -2.5000 0.9765
5.3309 0.8664 -2.5000 0.9765
5.2439 1.2925 -2.5000 0.9765
5.1876 1.5026 -2.5000 0.9765
5.1230 1.7103 -2.5000 0.9765
4.9687 2.1170 -2.5000 0.9765
4.7822 2.5099 -2.5000 0.9765
4.6668 2.6944 -2.4944 0.9765
4.3062 2.7231 -2.3584 0.9778
4.1739 2.8810 -2.3476 0.9779
4.0545 3.0467 -2.3476 0.9779
3.9285 3.2075 -2.3476 0.9779
3.7962 3.3631 -2.3476 0.9779
3.6577 3.5133 -2.3476 0.9779
3.5132 3.6577 -2.3476 0.9779
3.3631 3.7962 -2.3476 0.9779
3.2075 3.9285 -2.3476 0.9779
2.7106 4.2865 -2.3476 0.9779
2.5358 4.3922 -2.3476 0.9779
2.3569 4.4907 -2.3476 0.9779
2.1742 4.5820 -2.3476 0.9779
1.9879 4.6658 -2.3476 0.9779
1.2138 4.9246 -2.3477 0.9779
1.0099 4.9468 -2.3370 0.9780
0.8038 4.9462 -2.3195 0.9782
-0.1997 4.9550 -2.2954 0.9784
-0.4000 4.9544 -2.3008 0.9783
-0.6010 4.9500 -2.3081 0.9783
-1.0087 4.9410 -2.3343 0.9780
-1.2138 4.9246 -2.3477 0.9779
-1.4110 4.8713 -2.3475 0.9779
-1.6060 4.8106 -2.3476 0.9779
-1.7984 4.7421 -2.3476 0.9779
-1.9879 4.6658 -2.3476 0.9779
-2.7106 4.2865 -2.3476 0.9779
-3.5133 3.6577 -2.3476 0.9779
-4.6622 2.6917 -2.4919 0.9766
-4.7823 2.5099 -2.5000 0.9765
-4.8794 2.3153 -2.5000 0.9765
-5.0499 1.9152 -2.5000 0.9765
-5.2440 1.2925 -2.5000 0.9765
-2.3009 0.4697 -1.0870 0.9897
-2.2399 0.0903 -1.0377 0.9902
-2.0990 0.0000 -1.0296 0.9907
-2.0926 -0.1689 -1.0298 0.9907
-2.0953 -0.3405 -1.0413 0.9906
-2.1259 -0.4340 -1.0643 0.9904
-4.9485 -1.2197 -2.5000 0.9775
-4.80 0.9765
-1.5026 -5.1876 -2.5000 0.9765
-1.0803 -5.2917 -2.5000 0.9765
-0.6510 -5.3615 -2.5000 0.9765
-0.0000 -5.4009 -2.5000 0.9765
0.4346 -5.3834 -2.5000 0.9765
0.6510 -5.3615 -2.5000 0.9765
1.2925 -5.2439 -2.5000 0.9765
1.5027 -5.1876 -2.5000 0.9765
1.7103 -5.1229 -2.5000 0.9765
2.7004 -4.6773 -2.5000 0.9765
3.0680 -4.4448 -2.5000 0.9765
3.5814 -4.0426 -2.5000 0.9765
3.7413 -3.8951 -2.5000 0.9765
4.0426 -3.5815 -2.5000 0.9765
4.4448 -3.0680 -2.5000 0.9765
4.6773 -2.7004 -2.5000 0.9765
4.7822 -2.5099 -2.5000 0.9765
4.8794 -2.3153 -2.5000 0.9765
4.9687 -2.1170 -2.5000 0.9765
5.0499 -1.9152 -2.5000 0.9765
5.1876 -1.5026 -2.5000 0.9765
5.2917 -1.0803 -2.5000 0.9765
5.3309 -0.8664 -2.5000 0.9765
5.3615 -0.6510 -2.5000 0.9765
5.3833 -0.4346 -2.5000 0.9765
5.3965 -0.2175 -2.5000 0.9765
5.3965 0.2175 -2.5000 0.9765
5.3834 0.4346 -2.5000 0.9765
5.3309 0.8664 -2.5000 0.9765
5.2439 1.2925 -2.5000 0.9765
5.1876 1.5026 -2.5000 0.9765
5.0499 1.9152 -2.5000 0.9765
4.8794 2.3153 -2.5000 0.9765
4.7822 2.5099 -2.5000 0.9765
4.3084 2.7245 -2.3596 0.9778
4.1801 2.8853 -2.3511 0.9779
