ply
format ascii 1.0
element vertex 1569
property float32 x
property float32 y
property float32 z
property float32 I
end_header
12.2104 8.4282 -0.0835 0.9424
11.6813 9.5375 -0.0849 0.9415
10.8955 9.6526 -0.0820 0.9434
9.2714 9.6526 -0.0754 0.9479
8.5515 9.6526 -0.0726 0.9497
7.2534 9.6526 -0.0680 0.9529
6.6627 9.6526 -0.0660 0.9542
6.0522 9.5708 -0.0638 0.9557
4.3430 8.2749 -0.0526 0.9633
2.9417 8.8115 -0.0523 0.9635
1.1755 9.6811 -0.0549 0.9617
0.7815 9.6811 -0.0547 0.9619
0.3863 9.5866 -0.0540 0.9623
-1.1755 9.6811 -0.0549 0.9617
-1.5642 9.6248 -0.0549 0.9617
-2.3358 9.4767 -0.0550 0.9617
-2.5997 8.9752 -0.0526 0.9633
-2.1664 3.4259 -0.0228 0.9839
-30.7225 34.6785 -0.2608 0.8308
-31.5426 30.2971 -0.2462 0.8395
-30.1986 19.0964 -0.2012 0.8668
-29.8878 15.6863 -0.1900 0.8737
-30.0011 14.2357 -0.1870 0.8756
-31.8696 13.5783 -0.1950 0.8706
-23.7170 8.9946 -0.1428 0.9035
-29.6064 9.8841 -0.1757 0.8826
-29.6064 7.2974 -0.1717 0.8852
-29.7202 6.0674 -0.1708 0.8857
-37.5261 6.0986 -0.2141 0.8589
-47.4003 5.7554 -0.2688 0.8261
-44.6505 -16.9337 -1.3446 0.8261
-39.4645 -16.8142 -1.2079 0.8423
-23.6277 -16.3091 -0.8084 0.8915
-19.7820 -17.5253 -0.7442 0.8996
-15.5501 -16.1893 -0.6321 0.9141
-19.1742 -25.5163 -0.8987 0.8801
-16.5457 -23.9705 -0.8201 0.8900
-9.3870 -16.2588 -0.5286 0.9276
-10.2651 -24.0931 -0.7374 0.9005
-8.5328 -22.4990 -0.6776 0.9082
-6.5275 -22.5355 -0.6606 0.9104
-5.7525 -23.3388 -0.6768 0.9083
-3.2778 -16.0558 -0.4614 0.9365
-4.3562 -26.8049 -0.7647 0.8970
-2.1876 -27.0979 -0.7655 0.8969
5.7508 -19.8539 -0.5820 0.9206
6.4225 -19.2378 -0.5711 0.9220
9.2715 -21.7609 -0.6660 0.9097
9.1336 -15.8199 -0.5144 0.9295
9.5158 -15.0480 -0.5013 0.9312
15.3856 -20.4745 -0.7211 0.9026
18.7178 -21.1280 -0.7948 0.8932
14.8652 -15.4763 -0.6042 0.9177
18.5852 8.8188 -0.5792 0.9210
16.8599 8.8488 -0.5362 0.9266
12.1699 8.4003 -0.4164 0.9425
11.5922 9.4647 -0.4214 0.9419
10.8955 9.6526 -0.4099 0.9434
8.5514 9.6526 -0.3631 0.9497
7.8811 9.6526 -0.3509 0.9514
7.2534 9.6526 -0.3400 0.9528
6.6627 9.6526 -0.3303 0.9542
6.0522 9.5708 -0.3189 0.9557
4.8521 8.4041 -0.2732 0.9619
2.9417 8.8115 -0.2616 0.9635
0.7821 9.6876 -0.2737 0.9619
-0.0000 8.6073 -0.2424 0.9661
-0.7816 9.6811 -0.2735 0.9619
-1.5642 9.6248 -0.2746 0.9617
-2.8242 8.4594 -0.2511 0.9649
-5.0213 8.6972 -0.2828 0.9606
-29.6261 33.4409 -1.2580 0.8363
-32.3760 26.4341 -1.1769 0.8460
-10.2447 7.6983 -0.3608 0.9500
-11.1530 7.6984 -0.3816 0.9472
-29.8878 15.6863 -0.9504 0.8737
-30.0011 14.2357 -0.9350 0.8756
-29.6064 9.8841 -0.8789 0.8826
-29.6064 8.5756 -0.8679 0.8840
-37.5261 6.0986 -1.0705 0.8589
-49.2555 -1.9849 -2.5000 0.8208
-48.9361 -5.9419 -2.5000 0.8208
-48.6571 -7.9076 -2.5000 0.8208
-48.2992 -9.8604 -2.5000 0.8208
-43.3181 -16.4284 -2.3495 0.8306
-31.6959 -16.6353 -1.8154 0.8664
-28.9539 -16.7165 -1.6955 0.8747
-26.2351 -16.5901 -1.5742 0.8831
-21.8353 -16.4081 -1.3852 0.8964
-20.0459 -16.3669 -1.3124 0.9015
-16.9659 -16.2960 -1.1930 0.9101
-15.5353 -16.1739 -1.1373 0.9141
-14.3148 -16.1580 -1.0948 0.9172
-19.1661 -25.5055 -1.6180 0.8800
-21.3168 -40.6157 -2.3263 0.8322
-19.6574 -41.4272 -2.3255 0.8322
-10.1814 -23.8967 -1.3173 0.9012
-8.4699 -22.3334 -1.2113 0.9088
-7.4012 -22.1692 -1.1853 0.9106
-5.5712 -22.6032 -1.1806 0.9110
-3.6839 -45.6326 -2.3218 0.8325
-0.9027 -22.3991 -1.1369 0.9141
1.8435 -45.7465 -2.3219 0.8325
10.9650 -44.4867 -2.3236 0.8323
9.3029 -27.8654 -1.4898 0.8890
12.5361 -26.4191 -1.4830 0.8895
21.3338 -40.6479 -2.3281 0.8321
23.0231 -39.8771 -2.3352 0.8316
11.6918 -15.5590 -0.9870 0.9250
14.9022 -15.5149 -1.0910 0.9174
17.5156 -15.5175 -1.1867 0.9105
18.9458 -15.4688 -1.2404 0.9067
20.7806 -15.6156 -1.3183 0.9011
40.5696 -28.0031 -2.5000 0.8208
42.6914 -24.6479 -2.5000 0.8208
43.6493 -22.9089 -2.5000 0.8208
44.1955 -20.9710 -2.4809 0.8221
44.3080 -16.8038 -2.4032 0.8271
45.1336 -15.0678 -2.4131 0.8265
46.9099 -13.5876 -2.4768 0.8223
47.8630 -11.7972 -2.5000 0.8208
48.2992 -9.8607 -2.5000 0.8208
48.6571 -7.9076 -2.5000 0.8208
49.1356 -3.9667 -2.5000 0.8208
46.5282 3.7562 -2.3673 0.8295
45.9529 5.5797 -2.3476 0.8308
45.3552 9.2593 -2.3476 0.8308
25.7304 7.4529 -1.3585 0.8983
43.9084 14.6587 -2.3476 0.8308
43.8129 16.6160 -2.3764 0.8289
18.6734 7.9560 -1.0294 0.9219
16.9457 8.0408 -0.9512 0.9276
13.0857 8.2749 -0.7852 0.9399
11.9509 8.9805 -0.7581 0.9419
10.3071 9.1313 -0.6983 0.9463
7.2534 9.6526 -0.6123 0.9528
6.6627 9.6526 -0.5948 0.9541
6.0522 9.5708 -0.5743 0.9557
4.8521 8.4041 -0.4921 0.9619
2.8800 8.6266 -0.4612 0.9642
2.6184 9.0398 -0.4773 0.9630
1.1755 9.6811 -0.4946 0.9617
0.7815 9.6811 -0.4926 0.9618
-0.0000 8.6073 -0.4365 0.9661
-0.3901 9.6811 -0.4914 0.9619
-0.7816 9.6811 -0.4926 0.9618
-1.1755 9.6811 -0.4946 0.9617
-1.4124 8.6906 -0.4465 0.9654
-1.9647 9.6239 -0.4981 0.9614
-3.4707 8.1460 -0.4491 0.9652
-4.3311 8.2523 -0.4726 0.9634
-5.0213 8.6972 -0.5093 0.9606
-2.1664 3.4259 -0.2056 0.9839
-27.4499 36.5291 -2.3173 0.8328
-28.9292 35.4318 -2.3198 0.8326
-29.0028 30.1951 -2.1233 0.8456
-31.3473 30.1095 -2.2043 0.8402
-30.4930 27.0145 -2.0660 0.8495
-32.3760 26.4341 -2.1197 0.8459
-29.6864 18.7726 -1.7813 0.8688
-29.8878 15.6863 -1.7118 0.8735
-23.7170 8.9946 -1.2864 0.9034
-29.6064 8.5756 -1.5632 0.8839
-29.7202 6.0674 -1.5383 0.8856
-46.1522 3.7258 -2.3482 0.8307
-49.2555 1.9849 -2.5000 0.8208
-33.9853 -2.7436 -2.5000 0.8722
-33.8473 -4.1098 -2.5000 0.8722
-33.6544 -5.4694 -2.5000 0.8722
-33.4069 -6.8201 -2.5000 0.8722
-32.3412 -10.7971 -2.5000 0.8722
-28.9285 -13.7267 -2.3478 0.8795
-28.3550 -14.8819 -2.3480 0.8795
-21.8353 -16.4081 -2.0027 0.8962
-20.0459 -16.3669 -1.8975 0.9014
-18.4563 -16.3508 -1.8079 0.9058
-23.0725 -22.1614 -2.3457 0.8796
-15.5368 -16.1755 -1.6445 0.9140
-12.1625 -16.1853 -1.4845 0.9220
-9.3066 -16.1195 -1.3648 0.9281
-6.8437 -16.0628 -1.2802 0.9324
-4.6379 -16.0120 -1.2223 0.9353
-2.5946 -15.9649 -1.1859 0.9372
-1.2864 -15.9348 -1.1722 0.9379
-0.6416 -15.9200 -1.1682 0.9381
0.0000 -15.9052 -1.1662 0.9382
1.2816 -15.8757 -1.1678 0.9381
1.9258 -15.8608 -1.1715 0.9379
3.8981 -15.8154 -1.1943 0.9368
4.5765 -15.7998 -1.2061 0.9362
5.2881 -15.8398 -1.2244 0.9352
5.9798 -15.7674 -1.2364 0.9346
10.8067 -15.6563 -1.3949 0.9265
11.7486 -15.6346 -1.4340 0.9246
12.7464 -15.6116 -1.4778 0.9223
21.2156 -23.9475 -2.3458 0.8796
17.5192 -15.5207 -1.7161 0.9104
26.3977 -18.2210 -2.3519 0.8793
27.0610 -17.1123 -2.3476 0.8795
27.7281 -16.0088 -2.3476 0.8795
30.1906 -15.8452 -2.5000 0.8722
31.3676 -13.3645 -2.5000 0.8722
32.3413 -10.7971 -2.5000 0.8722
32.7498 -9.4861 -2.5000 0.8722
33.6544 -5.4694 -2.5000 0.8722
33.8474 -4.1098 -2.5000 0.8722
33.9854 -2.7436 -2.5000 0.8722
34.0683 -1.3729 -2.5000 0.8722
34.0683 1.3729 -2.5000 0.8722
33.4070 6.8201 -2.5000 0.8722
33.1053 8.1598 -2.5000 0.8722
18.5843 7.9180 -1.4812 0.9222
16.8590 7.9997 -1.3682 0.9279
15.3423 8.0523 -1.2705 0.9329
15.3412 8.8572 -1.2989 0.9314
11.2402 8.4465 -1.0309 0.9452
10.3517 8.4519 -0.9799 0.9478
9.6837 8.5790 -0.9486 0.9494
9.6837 9.3013 -0.9845 0.9476
9.2714 9.6526 -0.9813 0.9477
6.4599 8.5966 -0.7885 0.9578
5.9739 8.6547 -0.7711 0.9587
5.7641 9.1151 -0.7908 0.9577
4.8521 8.4041 -0.7115 0.9618
4.3430 8.2749 -0.6852 0.9632
3.9265 8.2749 -0.6716 0.9639
3.5130 8.2454 -0.6572 0.9647
3.1896 8.4102 -0.6595 0.9646
2.9417 8.8115 -0.6811 0.9634
2.6242 9.0598 -0.6916 0.9629
1.5579 9.5862 -0.7121 0.9618
0.7815 9.6811 -0.7122 0.9618
-0.0000 8.2418 -0.6043 0.9675
-0.7816 9.6811 -0.7122 0.9618
-1.4123 8.6902 -0.6455 0.9653
-1.9647 9.6239 -0.7202 0.9614
-2.8242 8.4594 -0.6539 0.9649
-3.1535 8.3150 -0.6520 0.9650
-16.7848 29.0721 -2.4614 0.8740
-2.1664 3.4259 -0.2972 0.9839
-19.0697 27.6272 -2.4614 0.8740
-20.1667 26.8370 -2.4614 0.8740
-22.2608 25.1272 -2.4614 0.8740
-24.4101 19.9302 -2.3106 0.8813
-25.2166 18.9490 -2.3128 0.8812
-25.9829 17.9347 -2.3149 0.8811
-28.2118 14.8067 -2.3361 0.8800
-28.8063 13.6687 -2.3379 0.8800
-31.6116 5.1374 -2.3482 0.8795
-33.3147 2.6894 -2.4506 0.8745
-34.0682 1.3729 -2.5000 0.8722
-26.0312 0.0000 -2.4991 0.9007
-25.9557 -2.0954 -2.5000 0.9006
-25.8503 -3.1388 -2.5000 0.9006
-25.7030 -4.1771 -2.5000 0.9006
-25.5139 -5.2087 -2.5000 0.9006
-25.2834 -6.2318 -2.5000 0.9006
-24.7000 -8.2461 -2.5000 0.9006
-24.3480 -9.2339 -2.5000 0.9006
-20.9086 -13.2218 -2.3750 0.9054
-15.5347 -16.1733 -2.1530 0.9138
-13.2351 -16.2100 -2.0091 0.9193
-12.1625 -16.1853 -1.9437 0.9219
-9.3066 -16.1195 -1.7870 0.9279
-10.4772 -22.0804 -2.3464 0.9065
-6.0852 -16.0454 -1.6475 0.9334
-5.3511 -16.0284 -1.6223 0.9344
-3.2440 -15.8902 -1.5570 0.9369
-1.2864 -15.9348 -1.5348 0.9378
-0.6416 -15.9200 -1.5296 0.9380
0.0000 -15.9052 -1.5270 0.9381
5.8464 -23.7198 -2.3454 0.9065
6.7977 -23.4682 -2.3457 0.9065
5.2908 -15.8481 -1.6040 0.9351
10.8067 -15.6563 -1.8264 0.9264
16.2425 -18.3340 -2.3515 0.9063
17.6373 -16.9408 -2.3478 0.9064
18.3034 -16.2152 -2.3476 0.9064
20.8830 -13.2056 -2.3721 0.9055
22.5516 -13.0201 -2.5000 0.9006
23.9564 -10.2068 -2.5000 0.9006
25.5139 -5.2087 -2.5000 0.9006
25.7029 -4.1771 -2.5000 0.9006
25.8503 -3.1388 -2.5000 0.9006
25.9557 -2.0954 -2.5000 0.9006
26.0190 -1.0485 -2.5000 0.9006
26.0190 1.0485 -2.5000 0.9006
24.1361 3.9225 -2.3476 0.9064
23.4873 6.8032 -2.3476 0.9064
18.6574 7.0758 -1.9157 0.9229
15.3434 7.2805 -1.6305 0.9340
11.2402 8.4465 -1.3498 0.9451
10.3450 8.4464 -1.2822 0.9477
9.2714 9.6526 -1.2849 0.9476
7.2759 8.2128 -1.0534 0.9569
6.7055 8.2128 -1.0179 0.9583
6.1720 8.2135 -0.9864 0.9596
5.7641 8.3507 -0.9742 0.9600
5.7641 9.1151 -1.0354 0.9576
4.8521 8.4041 -0.9317 0.9618
3.8533 8.1208 -0.8630 0.9645
2.8800 8.6266 -0.8731 0.9641
2.6184 9.0398 -0.9035 0.9629
1.5579 9.5861 -0.9324 0.9617
1.1755 9.6811 -0.9363 0.9616
-0.0000 8.0583 -0.7736 0.9681
-0.3902 9.6811 -0.9302 0.9618
-1.1755 9.6811 -0.9363 0.9616
-1.3993 8.6101 -0.8375 0.9656
-2.5376 8.7607 -0.8756 0.9640
-3.1535 8.3150 -0.8538 0.9649
-3.4707 8.1460 -0.8501 0.9650
-4.3311 8.2523 -0.8947 0.9632
-12.8191 22.2033 -2.4614 0.9021
-2.1664 3.4259 -0.3892 0.9838
-14.5642 21.0998 -2.4614 0.9021
-16.2147 19.8595 -2.4614 0.9021
-17.7602 18.4903 -2.4614 0.9021
-19.1904 17.0012 -2.4614 0.9021
-19.8595 16.2147 -2.4614 0.9021
-21.0998 14.5642 -2.4614 0.9021
-21.6692 13.7028 -2.4614 0.9021
-22.2034 12.8191 -2.4614 0.9021
-23.1629 10.9909 -2.4614 0.9021
-23.2037 9.8861 -2.4214 0.9036
-23.1343 7.7234 -2.3415 0.9066
-23.1658 6.7100 -2.3154 0.9076
-23.8538 4.8698 -2.3373 0.9068
-25.7569 3.1274 -2.4910 0.9010
-26.0146 1.0484 -2.4996 0.9007
-21.0461 0.0000 -2.5000 0.9187
-20.8927 -2.5368 -2.5000 0.9187
-20.7736 -3.3761 -2.5000 0.9187
-20.4346 -5.0367 -2.5000 0.9187
-19.6785 -7.4631 -2.5000 0.9187
-19.3620 -8.2494 -2.5000 0.9187
-18.6354 -9.7806 -2.5000 0.9187
-17.7880 -11.2484 -2.5000 0.9187
-17.3206 -11.9556 -2.5000 0.9187
-16.1678 -13.2006 -2.4793 0.9194
-13.6904 -14.2532 -2.3476 0.9235
-12.4991 -15.3087 -2.3476 0.9235
-11.8748 -15.8026 -2.3480 0.9235
-11.2303 -16.2700 -2.3483 0.9235
-10.5674 -16.7110 -2.3486 0.9234
-9.3439 -16.1842 -2.2199 0.9275
-9.1987 -17.5266 -2.3512 0.9234
-7.6305 -16.0809 -2.1143 0.9308
-6.8437 -16.0628 -2.0740 0.9321
-6.0852 -16.0454 -2.0384 0.9332
-3.2440 -15.8902 -1.9265 0.9368
-2.5946 -15.9649 -1.9213 0.9369
-1.9367 -15.9498 -1.9085 0.9373
-1.2864 -15.9348 -1.8990 0.9376
1.2816 -15.8757 -1.8919 0.9379
3.2319 -15.8307 -1.9193 0.9370
5.9798 -15.7674 -2.0031 0.9343
7.7587 -18.2104 -2.3513 0.9234
8.4870 -17.8861 -2.3517 0.9234
10.5644 -16.7062 -2.3479 0.9235
11.2269 -16.2650 -2.3476 0.9235
12.4991 -15.3086 -2.3476 0.9235
13.1054 -14.7929 -2.3476 0.9235
13.6904 -14.2532 -2.3476 0.9235
14.9100 -13.2091 -2.3662 0.9229
16.8252 -12.6433 -2.5000 0.9187
17.7880 -11.2484 -2.5000 0.9187
18.6354 -9.7806 -2.5000 0.9187
19.0143 -9.0223 -2.5000 0.9187
19.9630 -6.6646 -2.5000 0.9187
8.7161 -1.4165 -1.0489 0.9651
21.0291 -0.8474 -2.5000 0.9187
21.0461 0.0000 -2.5000 0.9187
21.0291 0.8475 -2.5000 0.9187
20.9779 1.6935 -2.5000 0.9187
19.5072 3.1702 -2.3476 0.9235
19.3638 3.9531 -2.3476 0.9235
19.1889 4.7296 -2.3476 0.9235
18.9829 5.4985 -2.3476 0.9235
16.8569 7.1820 -2.1765 0.9289
15.3422 8.0522 -2.0582 0.9326
13.0857 8.2749 -1.8391 0.9395
12.2104 8.4282 -1.7624 0.9420
8.9009 7.8856 -1.4126 0.9532
7.2759 8.2128 -1.3033 0.9568
6.7055 8.2128 -1.2594 0.9582
5.7483 8.3278 -1.2020 0.9601
5.6456 8.9277 -1.2547 0.9583
4.2977 8.1886 -1.0985 0.9634
3.8765 8.1695 -1.0741 0.9642
2.6395 9.1125 -1.1269 0.9625
2.3722 9.6244 -1.1775 0.9609
1.6370 8.0184 -0.9721 0.9676
1.5425 9.4913 -1.1422 0.9620
0.7728 9.5728 -1.1408 0.9621
-0.0000 7.8821 -0.9363 0.9687
-0.7731 9.5763 -1.1412 0.9620
-1.3993 8.6103 -1.0362 0.9655
-2.3358 9.4767 -1.1594 0.9614
-2.8425 8.5143 -1.0663 0.9645
-3.8356 8.0834 -1.0628 0.9646
-4.3311 8.2523 -1.1071 0.9632
-5.0213 8.6972 -1.1929 0.9604
-2.1664 3.4259 -0.4815 0.9838
-12.4481 16.5655 -2.4614 0.9199
-13.7407 15.5101 -2.4614 0.9199
-14.9442 14.3541 -2.4614 0.9199
-16.5655 12.4481 -2.4614 0.9199
-17.0533 11.7710 -2.4614 0.9199
-18.7206 8.8830 -2.4614 0.9199
-19.0632 8.1220 -2.4614 0.9199
-19.3806 7.3501 -2.4621 0.9199
-19.7101 6.5802 -2.4683 0.9197
-19.9949 5.7916 -2.4727 0.9196
-20.5328 4.1918 -2.4893 0.9191
-20.8797 2.5352 -2.4984 0.9188
-20.9694 1.6928 -2.4990 0.9187
-17.6441 -0.0000 -2.5000 0.9312
-17.5155 -2.1268 -2.5000 0.9312
-17.2876 -3.5293 -2.5000 0.9312
-17.1314 -4.2225 -2.5000 0.9312
-16.9475 -4.9089 -2.5000 0.9312
-16.4975 -6.2567 -2.5000 0.9312
-16.2322 -6.9159 -2.5000 0.9312
-15.9406 -7.5639 -2.5000 0.9312
-14.9126 -9.4302 -2.5000 0.9312
-14.1055 -10.5996 -2.5000 0.9312
-13.2068 -11.7002 -2.5000 0.9312
-12.7250 -12.2225 -2.5000 0.9312
-12.2225 -12.7250 -2.5000 0.9312
-8.8553 -14.0036 -2.3476 0.9353
-7.1028 -14.9688 -2.3476 0.9353
-6.4943 -15.2427 -2.3476 0.9353
-5.2471 -15.7171 -2.3478 0.9353
-3.9658 -16.0898 -2.3480 0.9352
-3.2440 -15.8902 -2.2979 0.9366
-1.9976 -16.4518 -2.3482 0.9352
-1.3336 -16.5191 -2.3482 0.9352
1.3335 -16.5185 -2.3481 0.9352
2.5607 -15.7565 -2.2618 0.9375
3.3145 -16.2355 -2.3478 0.9352
3.9654 -16.0881 -2.3477 0.9353
5.8752 -15.4919 -2.3476 0.9353
6.4943 -15.2427 -2.3476 0.9353
8.2843 -14.3488 -2.3476 0.9353
9.4120 -13.6356 -2.3476 0.9353
9.9534 -13.2456 -2.3476 0.9353
10.7789 -13.2018 -2.4148 0.9335
11.6821 -13.1863 -2.4961 0.9313
12.7252 -12.2225 -2.5000 0.9312
13.2068 -11.7002 -2.5000 0.9312
14.1055 -10.5996 -2.5000 0.9312
14.5208 -10.0230 -2.5000 0.9312
14.9126 -9.4302 -2.5000 0.9312
15.6231 -8.1996 -2.5000 0.9312
16.2322 -6.9159 -2.5000 0.9312
16.4975 -6.2567 -2.5000 0.9312
17.2875 -3.5293 -2.5000 0.9312
7.9433 -0.9645 -1.1337 0.9682
8.1073 -0.3267 -1.1497 0.9678
17.6441 0.0000 -2.5000 0.9312
17.6298 0.7104 -2.5000 0.9312
15.9144 4.6096 -2.3476 0.9353
15.7159 5.2467 -2.3476 0.9353
15.4918 5.8753 -2.3476 0.9353
15.2427 6.4943 -2.3476 0.9353
12.8707 8.1389 -2.1577 0.9403
12.2104 8.4282 -2.1022 0.9418
11.9509 8.9805 -2.1181 0.9414
10.3450 8.4464 -1.8923 0.9475
8.9163 7.8991 -1.6878 0.9530
7.2759 8.2128 -1.5546 0.9566
6.7055 8.2128 -1.5023 0.9581
5.7641 9.1151 -1.5281 0.9574
4.3430 8.2749 -1.3241 0.9629
3.9265 8.2749 -1.2978 0.9637
3.5130 8.2454 -1.2699 0.9644
3.1896 8.4102 -1.2745 0.9643
2.9417 8.8115 -1.3162 0.9632
1.6011 7.8427 -1.1341 0.9682
1.0754 8.8563 -1.2641 0.9646
0.7175 8.8885 -1.2635 0.9646
-0.3590 8.9087 -1.2633 0.9646
-0.7178 8.8909 -1.2639 0.9646
-3.1535 8.3150 -1.2600 0.9647
-4.3311 8.2523 -1.3205 0.9630
-9.2783 13.4420 -2.3142 0.9361
-10.3171 12.6362 -2.3114 0.9362
-12.5286 12.0338 -2.4614 0.9322
-14.2967 9.8683 -2.4614 0.9322
-15.3819 8.0731 -2.4614 0.9322
-15.6965 7.4481 -2.4617 0.9322
-16.3327 6.1942 -2.4750 0.9319
-16.5934 5.5397 -2.4787 0.9318
-17.0767 4.2090 -2.4920 0.9314
-15.1754 0.0000 -2.5000 0.9403
-15.1631 -0.6110 -2.5000 0.9403
-15.1262 -1.2211 -2.5000 0.9403
-15.0648 -1.8292 -2.5000 0.9403
-14.5763 -4.2221 -2.5000 0.9403
-14.3944 -4.8056 -2.5000 0.9403
-14.1893 -5.3813 -2.5000 0.9403
-13.7102 -6.5056 -2.5000 0.9403
-13.4372 -7.0524 -2.5000 0.9403
-13.1423 -7.5877 -2.5000 0.9403
-11.3590 -10.0632 -2.5000 0.9403
-10.5124 -10.9445 -2.5000 0.9403
-8.6206 -12.4891 -2.5000 0.9403
-8.1108 -12.8261 -2.5000 0.9403
-6.9285 -13.2012 -2.4561 0.9414
-6.2681 -13.2097 -2.4087 0.9424
-5.6313 -13.2172 -2.3668 0.9434
-2.8504 -13.9623 -2.3476 0.9439
-1.7177 -14.1464 -2.3476 0.9439
0.5738 -14.2388 -2.3476 0.9439
1.1467 -14.2041 -2.3476 0.9439
1.7177 -14.1464 -2.3476 0.9439
2.8504 -13.9623 -2.3476 0.9439
3.4103 -13.8362 -2.3476 0.9439
3.9647 -13.6877 -2.3476 0.9439
5.0532 -13.3243 -2.3476 0.9439
6.2658 -13.2049 -2.4078 0.9425
8.6206 -12.4891 -2.5000 0.9403
9.1165 -12.1319 -2.5000 0.9403
10.5124 -10.9446 -2.5000 0.9403
10.9446 -10.5124 -2.5000 0.9403
11.7550 -9.5976 -2.5000 0.9403
12.1319 -9.1165 -2.5000 0.9403
12.8261 -8.1107 -2.5000 0.9403
13.4371 -7.0524 -2.5000 0.9403
13.7102 -6.5056 -2.5000 0.9403
13.9611 -5.9483 -2.5000 0.9403
14.3944 -4.8056 -2.5000 0.9403
14.7344 -3.6317 -2.5000 0.9403
8.8729 -1.8114 -1.4919 0.9640
7.6918 -0.3100 -1.2682 0.9693
15.1262 1.2211 -2.5000 0.9403
15.0648 1.8292 -2.5000 0.9403
13.6877 3.9647 -2.3476 0.9439
13.3243 5.0532 -2.3476 0.9439
13.1100 5.5856 -2.3476 0.9439
12.8745 6.1090 -2.3476 0.9439
12.3065 7.1052 -2.3410 0.9440
11.9802 7.5758 -2.3351 0.9442
10.9939 8.9762 -2.3381 0.9441
8.9315 7.9127 -1.9657 0.9528
9.1027 8.7432 -2.0793 0.9501
7.2759 8.2128 -1.8076 0.9565
4.8521 8.4041 -1.5987 0.9614
4.3291 8.2485 -1.5346 0.9629
3.5130 8.2454 -1.4765 0.9643
2.3722 9.6244 -1.6330 0.9606
1.5825 7.7519 -1.3034 0.9684
0.6929 8.5829 -1.4185 0.9657
-0.0000 7.5490 -1.2436 0.9699
-0.3459 8.5834 -1.4152 0.9658
-1.3942 8.5791 -1.4319 0.9654
-2.3358 9.4767 -1.6079 0.9612
-3.9265 8.2749 -1.5089 0.9636
-4.3311 8.2523 -1.5353 0.9629
-2.1664 3.4259 -0.6678 0.9837
-8.4395 11.2309 -2.3143 0.9446
-8.8849 10.8820 -2.3143 0.9446
-9.3139 10.5132 -2.3138 0.9447
-9.7249 10.1247 -2.3127 0.9447
-10.1199 9.7203 -2.3116 0.9447
-11.2050 8.4200 -2.3090 0.9448
-12.6281 7.9855 -2.4614 0.9412
-13.2353 6.9464 -2.4624 0.9412
-13.5368 6.4233 -2.4684 0.9411
-14.8644 3.0346 -2.4993 0.9404
-14.9768 2.4340 -2.4996 0.9403
-15.0648 1.8292 -2.5000 0.9403
-15.1262 1.2211 -2.5000 0.9403
-13.3006 -0.0000 -2.5000 0.9473
-13.2898 -0.5356 -2.5000 0.9473
-13.0318 -2.6605 -2.5000 0.9473
-12.9141 -3.1830 -2.5000 0.9473
-12.6161 -4.2119 -2.5000 0.9473
-12.2362 -5.2134 -2.5000 0.9473
-12.0164 -5.7019 -2.5000 0.9473
-11.5186 -6.6503 -2.5000 0.9473
-11.2415 -7.1087 -2.5000 0.9473
-10.9461 -7.5556 -2.5000 0.9473
-10.6330 -7.9902 -2.5000 0.9473
-10.3027 -8.4119 -2.5000 0.9473
-8.8199 -9.9556 -2.5000 0.9473
-8.4119 -10.3027 -2.5000 0.9473
-7.5556 -10.9462 -2.5000 0.9473
-7.1087 -11.2415 -2.5000 0.9473
-6.6503 -11.5186 -2.5000 0.9473
-5.2127 -12.2362 -2.5000 0.9473
-4.2119 -12.6161 -2.5000 0.9473
-1.6017 -13.1914 -2.4977 0.9474
-0.5317 -13.1939 -2.4819 0.9477
1.6016 -13.1901 -2.4974 0.9474
2.1335 -13.1283 -2.5000 0.9473
3.7004 -12.7754 -2.5000 0.9473
4.7165 -12.4362 -2.5000 0.9473
5.7019 -12.0164 -2.5000 0.9473
6.1811 -11.7771 -2.5000 0.9473
7.5556 -10.9462 -2.5000 0.9473
7.9902 -10.6330 -2.5000 0.9473
8.8199 -9.9556 -2.5000 0.9473
9.2136 -9.5924 -2.5000 0.9473
9.5925 -9.2136 -2.5000 0.9473
9.9556 -8.8199 -2.5000 0.9473
10.3027 -8.4119 -2.5000 0.9473
10.9461 -7.5556 -2.5000 0.9473
11.2415 -7.1087 -2.5000 0.9473
11.5186 -6.6503 -2.5000 0.9473
11.7771 -6.1811 -2.5000 0.9473
12.0164 -5.7018 -2.5000 0.9473
12.2362 -5.2134 -2.5000 0.9473
12.4362 -4.7164 -2.5000 0.9473
12.7754 -3.7005 -2.5000 0.9473
12.9141 -3.1830 -2.5000 0.9473
7.3656 -1.5037 -1.4130 0.9699
7.1874 -1.1681 -1.3687 0.9708
7.2918 -0.2939 -1.3717 0.9707
7.6431 0.0000 -1.4366 0.9694
13.1283 2.1336 -2.5000 0.9473
12.1268 2.9890 -2.3476 0.9504
11.9966 3.4749 -2.3476 0.9504
11.8470 3.9551 -2.3476 0.9504
11.6781 4.4289 -2.3476 0.9504
11.4903 4.8956 -2.3476 0.9504
11.2839 5.3543 -2.3476 0.9504
11.0591 5.8043 -2.3476 0.9504
10.2478 7.0735 -2.3405 0.9506
9.9218 7.4558 -2.3328 0.9507
8.9462 7.9256 -2.2465 0.9525
8.9580 8.6043 -2.3346 0.9507
7.8980 8.2227 -2.1430 0.9547
7.3591 9.0133 -2.1871 0.9537
6.1715 8.2128 -1.9310 0.9590
5.7641 8.3507 -1.9072 0.9595
3.5130 8.2454 -1.6846 0.9642
2.9417 8.8115 -1.7461 0.9629
2.6242 9.0598 -1.7729 0.9623
1.7504 7.1015 -1.3748 0.9707
0.6780 8.3990 -1.5838 0.9663
-0.0000 7.3140 -1.3748 0.9707
-0.3385 8.3995 -1.5801 0.9664
-1.0196 8.3967 -1.5898 0.9662
-1.3644 8.3953 -1.5987 0.9660
-2.5997 8.9752 -1.7563 0.9627
-2.8242 8.4594 -1.6763 0.9644
-3.1535 8.3150 -1.6715 0.9645
-3.5256 8.2749 -1.6906 0.9641
-4.3311 8.2523 -1.7518 0.9628
-6.1600 10.6694 -2.3157 0.9511
-2.1664 3.4259 -0.7619 0.9836
-6.9950 10.1340 -2.3145 0.9511
-7.3968 9.8434 -2.3143 0.9511
-7.7872 9.5376 -2.3143 0.9511
-8.1649 9.2163 -2.3143 0.9511
-8.5294 8.8800 -2.3143 0.9511
-8.8800 8.5294 -2.3143 0.9511
-9.5320 7.7826 -2.3130 0.9511
-9.8341 7.3898 -2.3121 0.9512
-10.4045 6.5794 -2.3139 0.9511
-10.6917 6.1728 -2.3205 0.9510
-12.3887 4.6984 -2.4904 0.9475
-12.5943 4.2046 -2.4957 0.9474
-13.2575 1.0702 -2.5000 0.9473
-13.2898 0.5355 -2.5000 0.9473
-11.7886 -0.9517 -2.5000 0.9528
-11.6738 -1.8972 -2.5000 0.9528
-11.4833 -2.8304 -2.5000 0.9528
-11.2183 -3.7452 -2.5000 0.9528
-11.0584 -4.1939 -2.5000 0.9528
-10.8806 -4.6358 -2.5000 0.9528
-10.4723 -5.4963 -2.5000 0.9528
-10.2425 -5.9135 -2.5000 0.9528
-9.9960 -6.3211 -2.5000 0.9528
-9.4550 -7.1050 -2.5000 0.9528
-7.1050 -9.4550 -2.5000 0.9528
-6.3211 -9.9960 -2.5000 0.9528
-5.9135 -10.2425 -2.5000 0.9528
-5.4963 -10.4723 -2.5000 0.9528
-5.0702 -10.6851 -2.5000 0.9528
-4.6358 -10.8806 -2.5000 0.9528
-4.1939 -11.0584 -2.5000 0.9528
-2.8304 -11.4833 -2.5000 0.9528
-2.3658 -11.5880 -2.5000 0.9528
-1.8969 -11.6738 -2.5000 0.9528
0.0000 -11.8270 -2.5000 0.9528
0.9517 -11.7886 -2.5000 0.9528
2.3657 -11.5880 -2.5000 0.9528
2.8304 -11.4833 -2.5000 0.9528
3.7452 -11.2183 -2.5000 0.9528
5.0701 -10.6851 -2.5000 0.9528
5.9134 -10.2425 -2.5000 0.9528
6.3211 -9.9961 -2.5000 0.9528
6.7185 -9.7334 -2.5000 0.9528
7.1049 -9.4550 -2.5000 0.9528
7.8428 -8.8526 -2.5000 0.9528
9.1612 -7.4799 -2.5000 0.9528
10.4723 -5.4963 -2.5000 0.9528
10.6851 -5.0701 -2.5000 0.9528
10.8806 -4.6358 -2.5000 0.9528
11.3600 -3.2905 -2.5000 0.9528
11.4833 -2.8304 -2.5000 0.9528
7.0187 -1.4329 -1.5142 0.9711
6.9316 -0.5596 -1.4700 0.9720
7.0186 -0.2828 -1.4848 0.9717
11.7407 1.4256 -2.5000 0.9528
11.6738 1.8972 -2.5000 0.9528
10.6675 3.0899 -2.3476 0.9556
10.5344 3.5169 -2.3476 0.9556
10.3843 3.9382 -2.3476 0.9556
10.2173 4.3532 -2.3476 0.9556
10.0337 4.7611 -2.3476 0.9556
9.8339 5.1612 -2.3476 0.9556
9.6181 5.5530 -2.3476 0.9556
9.3867 5.9358 -2.3476 0.9556
8.8786 6.6718 -2.3476 0.9556
8.5862 7.0104 -2.3431 0.9557
8.2543 7.3127 -2.3310 0.9559
7.6396 7.9537 -2.3312 0.9559
7.3148 8.2567 -2.3317 0.9559
6.6292 8.8219 -2.3326 0.9559
6.2696 9.0830 -2.3329 0.9559
5.8982 9.3273 -2.3327 0.9559
4.8521 8.4041 -2.0513 0.9611
3.9265 8.2749 -1.9361 0.9632
3.5130 8.2454 -1.8945 0.9640
3.1896 8.4102 -1.9013 0.9639
2.9417 8.8115 -1.9636 0.9627
2.6242 9.0598 -1.9938 0.9622
1.7310 7.0228 -1.5289 0.9709
-0.3308 8.2083 -1.7365 0.9670
-0.6625 8.2069 -1.7404 0.9669
-1.4344 7.0263 -1.5158 0.9711
-2.3358 9.4767 -2.0631 0.9609
-2.8242 8.4594 -1.8852 0.9642
-3.1535 8.3150 -1.8798 0.9643
-3.5256 8.2749 -1.9013 0.9639
-4.3311 8.2523 -1.9700 0.9626
-6.2227 9.0151 -2.3155 0.9562
-6.5792 8.7554 -2.3150 0.9562
-6.9250 8.4815 -2.3145 0.9562
-7.2603 8.1952 -2.3143 0.9562
-7.8962 7.5844 -2.3143 0.9562
-8.1952 7.2603 -2.3143 0.9562
-9.0758 6.2646 -2.3311 0.9559
-9.5838 5.5332 -2.3392 0.9558
-9.8121 5.1498 -2.3424 0.9557
-10.0187 4.7539 -2.3441 0.9557
-10.8511 4.6232 -2.4932 0.9529
-11.0455 4.1890 -2.4971 0.9529
-11.2156 3.7443 -2.4994 0.9528
-11.3590 3.2902 -2.4998 0.9528
-11.4833 2.8304 -2.5000 0.9528
-11.6738 1.8972 -2.5000 0.9528
-11.7408 1.4256 -2.5000 0.9528
-11.8174 0.4762 -2.5000 0.9528
-10.6372 -0.0000 -2.5000 0.9572
-10.6286 -0.4283 -2.5000 0.9572
-10.6027 -0.8559 -2.5000 0.9572
-10.5596 -1.2822 -2.5000 0.9572
-10.4222 -2.1277 -2.5000 0.9572
-10.3281 -2.5456 -2.5000 0.9572
-10.2172 -2.9595 -2.5000 0.9572
-10.0898 -3.3685 -2.5000 0.9572
-8.9904 -5.6852 -2.5000 0.9572
-8.7542 -6.0426 -2.5000 0.9572
-5.6852 -8.9905 -2.5000 0.9572
-5.3186 -9.2121 -2.5000 0.9572
-4.9434 -9.4188 -2.5000 0.9572
-4.1694 -9.7860 -2.5000 0.9572
-3.7720 -9.9460 -2.5000 0.9572
-3.3685 -10.0898 -2.5000 0.9572
-2.9595 -10.2172 -2.5000 0.9572
-2.5457 -10.3281 -2.5000 0.9572
-1.2822 -10.5596 -2.5000 0.9572
-0.4283 -10.6286 -2.5000 0.9572
-0.0000 -10.6372 -2.5000 0.9572
0.4283 -10.6286 -2.5000 0.9572
0.8559 -10.6027 -2.5000 0.9572
2.9595 -10.2172 -2.5000 0.9572
4.1694 -9.7860 -2.5000 0.9572
4.5601 -9.6102 -2.5000 0.9572
5.3186 -9.2121 -2.5000 0.9572
6.0426 -8.7542 -2.5000 0.9572
7.0538 -7.9621 -2.5000 0.9572
7.3686 -7.6716 -2.5000 0.9572
7.6716 -7.3686 -2.5000 0.9572
7.9620 -7.0538 -2.5000 0.9572
8.7542 -6.0426 -2.5000 0.9572
8.9904 -5.6852 -2.5000 0.9572
9.4187 -4.9434 -2.5000 0.9572
9.6102 -4.5601 -2.5000 0.9572
10.3281 -2.5457 -2.5000 0.9572
6.8174 -1.1079 -1.6233 0.9720
6.8575 -0.5536 -1.6169 0.9721
10.6286 0.4283 -2.5000 0.9572
10.6027 0.8559 -2.5000 0.9572
10.5596 1.2822 -2.5000 0.9572
10.4222 2.1277 -2.5000 0.9572
10.3281 2.5456 -2.5000 0.9572
9.4747 3.1631 -2.3476 0.9598
9.0243 4.2821 -2.3476 0.9598
8.8446 4.6420 -2.3476 0.9598
8.6505 4.9944 -2.3476 0.9598
8.4424 5.3386 -2.3476 0.9598
7.9854 6.0007 -2.3476 0.9598
7.4767 6.6237 -2.3476 0.9598
6.8664 7.1488 -2.3296 0.9601
6.2666 7.6752 -2.3287 0.9601
5.6304 8.1570 -2.3294 0.9601
5.2980 8.3781 -2.3297 0.9601
4.8521 8.4041 -2.2807 0.9609
3.1896 8.4102 -2.1140 0.9637
1.7417 7.0662 -1.7104 0.9705
1.6217 7.9436 -1.9054 0.9672
0.9739 8.0205 -1.8988 0.9673
-0.6475 8.0209 -1.8912 0.9675
-1.4425 7.0659 -1.6949 0.9708
-3.1535 8.3150 -2.0900 0.9641
-4.9300 8.5389 -2.3173 0.9603
-5.5984 8.1107 -2.3162 0.9603
-5.9189 7.8766 -2.3156 0.9603
-6.5321 7.3732 -2.3151 0.9603
-7.2027 6.9183 -2.3472 0.9598
-7.4755 6.6227 -2.3472 0.9598
-7.7363 6.3165 -2.3473 0.9598
-7.9846 6.0000 -2.3473 0.9598
-8.2200 5.6739 -2.3474 0.9598
-8.6504 4.9943 -2.3476 0.9598
-8.8446 4.6420 -2.3476 0.9598
-9.1895 3.9153 -2.3476 0.9598
-10.3281 2.5456 -2.5000 0.9572
-10.5596 1.2822 -2.5000 0.9572
-10.6027 0.8559 -2.5000 0.9572
-10.6286 0.4283 -2.5000 0.9572
-9.5851 -1.1639 -2.5000 0.9609
-9.4604 -1.9314 -2.5000 0.9609
-9.2743 -2.6863 -2.5000 0.9609
-8.7233 -4.1392 -2.5000 0.9609
-8.5495 -4.4871 -2.5000 0.9609
-8.3619 -4.8278 -2.5000 0.9609
-8.1608 -5.1605 -2.5000 0.9609
-7.9463 -5.4850 -2.5000 0.9609
-7.4792 -6.1066 -2.5000 0.9609
-7.2273 -6.4028 -2.5000 0.9609
-6.9636 -6.6886 -2.5000 0.9609
-6.6886 -6.9636 -2.5000 0.9609
-6.1066 -7.4792 -2.5000 0.9609
-5.1605 -8.1608 -2.5000 0.9609
-4.8278 -8.3619 -2.5000 0.9609
-4.4871 -8.5495 -2.5000 0.9609
-3.4239 -9.0281 -2.5000 0.9609
-2.6863 -9.2743 -2.5000 0.9609
-1.5489 -9.5305 -2.5000 0.9609
-1.1639 -9.5851 -2.5000 0.9609
-0.3888 -9.6477 -2.5000 0.9609
0.7769 -9.6242 -2.5000 0.9609
1.1638 -9.5851 -2.5000 0.9609
1.9313 -9.4604 -2.5000 0.9609
2.6864 -9.2743 -2.5000 0.9609
3.0576 -9.1586 -2.5000 0.9609
4.8277 -8.3619 -2.5000 0.9609
5.1605 -8.1607 -2.5000 0.9609
5.4850 -7.9463 -2.5000 0.9609
5.8005 -7.7190 -2.5000 0.9609
6.1066 -7.4792 -2.5000 0.9609
6.9636 -6.6886 -2.5000 0.9609
7.2272 -6.4028 -2.5000 0.9609
7.7190 -5.8005 -2.5000 0.9609
8.1607 -5.1605 -2.5000 0.9609
8.5495 -4.4871 -2.5000 0.9609
8.8829 -3.7846 -2.5000 0.9609
9.0281 -3.4239 -2.5000 0.9609
9.2743 -2.6863 -2.5000 0.9609
7.2628 -1.7901 -1.9367 0.9696
6.7971 -1.3876 -1.7962 0.9717
6.7830 -0.5476 -1.7620 0.9723
6.9772 0.0000 -1.8065 0.9716
9.6477 0.3888 -2.5000 0.9609
9.4604 1.9314 -2.5000 0.9609
9.2743 2.6863 -2.5000 0.9609
8.6003 2.8712 -2.3476 0.9632
8.4777 3.2152 -2.3476 0.9632
8.3414 3.5539 -2.3476 0.9632
8.1915 3.8869 -2.3476 0.9632
7.8522 4.5334 -2.3476 0.9632
7.4619 5.1506 -2.3476 0.9632
7.2485 5.4469 -2.3476 0.9632
7.0233 5.7343 -2.3476 0.9632
6.7867 6.0125 -2.3476 0.9632
6.5391 6.2809 -2.3476 0.9632
6.2809 6.5391 -2.3476 0.9632
6.0125 6.7867 -2.3476 0.9632
4.8039 7.5968 -2.3272 0.9635
4.1769 7.9585 -2.3271 0.9635
3.8533 8.1206 -2.3273 0.9635
3.1874 8.4046 -2.3273 0.9635
-0.0000 7.0718 -1.8310 0.9712
-0.3160 7.8413 -2.0319 0.9681
-0.6329 7.8401 -2.0365 0.9680
-0.9518 7.8388 -2.0445 0.9679
-1.2737 7.8375 -2.0559 0.9677
-1.4441 7.0738 -1.8693 0.9706
-2.1455 8.7048 -2.3213 0.9636
-2.8378 8.5003 -2.3203 0.9636
-3.4917 8.1952 -2.3064 0.9639
-3.8383 8.0890 -2.3182 0.9637
-4.4747 7.7505 -2.3172 0.9637
-5.0828 7.3636 -2.3167 0.9637
-6.2809 6.5391 -2.3476 0.9632
-6.7867 6.0125 -2.3476 0.9632
-7.8522 4.5335 -2.3476 0.9632
-8.0284 4.2136 -2.3476 0.9632
-8.1915 3.8869 -2.3476 0.9632
-8.3414 3.5539 -2.3476 0.9632
-9.2743 2.6863 -2.5000 0.9609
-9.4604 1.9313 -2.5000 0.9609
-9.5305 1.5488 -2.5000 0.9609
-9.6242 0.7769 -2.5000 0.9609
-9.6477 0.3888 -2.5000 0.9609
-8.8310 -0.0000 -2.5000 0.9640
-8.8238 -0.3556 -2.5000 0.9640
-8.8023 -0.7106 -2.5000 0.9640
-8.7666 -1.0645 -2.5000 0.9640
-8.7166 -1.4166 -2.5000 0.9640
-8.6525 -1.7664 -2.5000 0.9640
-8.5744 -2.1134 -2.5000 0.9640
-8.2571 -3.1315 -2.5000 0.9640
-7.8194 -4.1040 -2.5000 0.9640
-7.6478 -4.4155 -2.5000 0.9640
-6.6101 -5.8560 -2.5000 0.9640
-6.1174 -6.3689 -2.5000 0.9640
-5.8560 -6.6101 -2.5000 0.9640
-5.5851 -6.8405 -2.5000 0.9640
-5.3052 -7.0599 -2.5000 0.9640
-4.7199 -7.4638 -2.5000 0.9640
-4.1040 -7.8194 -2.5000 0.9640
-3.7858 -7.9783 -2.5000 0.9640
-3.1315 -8.2571 -2.5000 0.9640
-2.4569 -8.4823 -2.5000 0.9640
-2.1134 -8.5744 -2.5000 0.9640
-1.4166 -8.7166 -2.5000 0.9640
-0.3556 -8.8238 -2.5000 0.9640
0.3556 -8.8238 -2.5000 0.9640
0.7106 -8.8023 -2.5000 0.9640
2.1134 -8.5743 -2.5000 0.9640
2.4569 -8.4823 -2.5000 0.9640
4.1039 -7.8194 -2.5000 0.9640
4.4155 -7.6479 -2.5000 0.9640
4.7198 -7.4639 -2.5000 0.9640
5.3051 -7.0599 -2.5000 0.9640
5.8560 -6.6101 -2.5000 0.9640
6.1174 -6.3689 -2.5000 0.9640
6.8405 -5.5851 -2.5000 0.9640
7.0599 -5.3051 -2.5000 0.9640
7.4639 -4.7199 -2.5000 0.9640
7.6478 -4.4155 -2.5000 0.9640
7.9783 -3.7858 -2.5000 0.9640
8.1243 -3.4615 -2.5000 0.9640
8.2571 -3.1315 -2.5000 0.9640
8.3765 -2.7965 -2.5000 0.9640
6.7497 -1.3780 -1.9502 0.9718
6.7462 -0.5446 -1.9160 0.9723
8.8238 0.3556 -2.5000 0.9640
8.8023 0.7106 -2.5000 0.9640
8.7666 1.0645 -2.5000 0.9640
8.7166 1.4166 -2.5000 0.9640
8.6526 1.7664 -2.5000 0.9640
8.5744 2.1134 -2.5000 0.9640
8.4823 2.4569 -2.5000 0.9640
8.1204 2.7110 -2.4236 0.9650
7.7537 2.9406 -2.3476 0.9661
7.6290 3.2504 -2.3476 0.9661
7.0088 4.4321 -2.3476 0.9661
6.8247 4.7108 -2.3476 0.9661
6.4235 5.2446 -2.3476 0.9661
5.4990 6.2071 -2.3476 0.9661
5.2446 6.4235 -2.3476 0.9661
4.7108 6.8247 -2.3476 0.9661
4.4286 7.0033 -2.3457 0.9661
3.8188 7.2761 -2.3263 0.9664
3.5221 7.4227 -2.3259 0.9664
2.6005 7.7895 -2.3248 0.9664
1.7456 7.0823 -2.0650 0.9701
1.5620 7.6511 -2.2106 0.9681
1.2436 7.6524 -2.1948 0.9683
0.2853 7.0801 -2.0059 0.9710
-0.9292 7.6528 -2.1824 0.9685
-1.2435 7.6515 -2.1945 0.9683
-1.4458 7.0818 -2.0462 0.9704
-1.9612 7.9570 -2.3200 0.9665
-2.2796 7.8699 -2.3195 0.9665
-2.5943 7.7707 -2.3192 0.9665
-4.1241 7.1432 -2.3350 0.9663
-4.9817 6.6295 -2.3476 0.9661
-5.2446 6.4235 -2.3476 0.9661
-5.4990 6.2071 -2.3476 0.9661
-5.7445 5.9807 -2.3476 0.9661
-5.9807 5.7445 -2.3476 0.9661
-6.6295 4.9817 -2.3476 0.9661
-7.0088 4.4321 -2.3476 0.9661
-7.3428 3.8538 -2.3476 0.9661
-7.6291 3.2504 -2.3476 0.9661
-7.7537 2.9406 -2.3476 0.9661
-8.4823 2.4569 -2.5000 0.9640
-8.5744 2.1134 -2.5000 0.9640
-8.6525 1.7664 -2.5000 0.9640
-8.8238 0.3556 -2.5000 0.9640
-8.1214 -0.3273 -2.5000 0.9666
-8.1016 -0.6540 -2.5000 0.9666
-7.8918 -1.9451 -2.5000 0.9666
-7.8070 -2.2613 -2.5000 0.9666
-7.1970 -3.7772 -2.5000 0.9666
-7.0390 -4.0640 -2.5000 0.9666
-6.8697 -4.3441 -2.5000 0.9666
-6.6892 -4.6172 -2.5000 0.9666
-6.0839 -5.3898 -2.5000 0.9666
-5.3898 -6.0839 -2.5000 0.9666
-3.7773 -7.1970 -2.5000 0.9666
-3.4844 -7.3432 -2.5000 0.9666
-3.1859 -7.4775 -2.5000 0.9666
-2.8822 -7.5998 -2.5000 0.9666
-2.5739 -7.7097 -2.5000 0.9666
-1.9452 -7.8918 -2.5000 0.9666
-1.6258 -7.9637 -2.5000 0.9666
-1.3038 -8.0227 -2.5000 0.9666
-0.9797 -8.0687 -2.5000 0.9666
-0.6540 -8.1016 -2.5000 0.9666
-0.3273 -8.1214 -2.5000 0.9666
0.0000 -8.1280 -2.5000 0.9666
0.3273 -8.1214 -2.5000 0.9666
0.6540 -8.1016 -2.5000 0.9666
0.9797 -8.0687 -2.5000 0.9666
1.3038 -8.0227 -2.5000 0.9666
1.9451 -7.8918 -2.5000 0.9666
2.2613 -7.8071 -2.5000 0.9666
3.1859 -7.4775 -2.5000 0.9666
3.4844 -7.3432 -2.5000 0.9666
3.7772 -7.1970 -2.5000 0.9666
4.3441 -6.8697 -2.5000 0.9666
4.6172 -6.6892 -2.5000 0.9666
5.3898 -6.0839 -2.5000 0.9666
5.6304 -5.8619 -2.5000 0.9666
6.0838 -5.3898 -2.5000 0.9666
6.4978 -4.8828 -2.5000 0.9666
6.6892 -4.6172 -2.5000 0.9666
6.8697 -4.3441 -2.5000 0.9666
7.0390 -4.0640 -2.5000 0.9666
7.1969 -3.7773 -2.5000 0.9666
7.3432 -3.4844 -2.5000 0.9666
7.4775 -3.1859 -2.5000 0.9666
7.5998 -2.8822 -2.5000 0.9666
7.8071 -2.2613 -2.5000 0.9666
7.1559 -1.7638 -2.2669 0.9696
6.7051 -0.8142 -2.0775 0.9721
6.7391 -0.5440 -2.0795 0.9721
8.1213 0.3273 -2.5000 0.9666
8.0687 0.9797 -2.5000 0.9666
7.9637 1.6258 -2.5000 0.9666
7.8918 1.9451 -2.5000 0.9666
7.8071 2.2613 -2.5000 0.9666
7.7097 2.5739 -2.5000 0.9666
7.0217 2.9917 -2.3476 0.9686
6.8956 3.2720 -2.3476 0.9686
6.7582 3.5470 -2.3476 0.9686
6.4509 4.0793 -2.3476 0.9686
6.2814 4.3357 -2.3476 0.9686
5.9121 4.8271 -2.3476 0.9686
4.0793 6.4509 -2.3476 0.9686
3.8162 6.6099 -2.3476 0.9686
3.5470 6.7582 -2.3476 0.9686
2.9887 7.0146 -2.3452 0.9686
2.6936 7.1025 -2.3364 0.9687
2.3934 7.1694 -2.3248 0.9689
1.7477 7.0906 -2.2462 0.9699
0.6042 7.4844 -2.3095 0.9691
0.2856 7.0880 -2.1819 0.9707
-0.0000 7.0877 -2.1800 0.9708
-0.9085 7.4823 -2.3183 0.9689
-1.2104 7.4477 -2.3208 0.9689
-2.3969 7.1796 -2.3281 0.9688
-2.6956 7.1076 -2.3381 0.9687
-3.2720 6.8955 -2.3476 0.9686
-2.1664 3.4259 -1.2468 0.9832
-4.3358 6.2814 -2.3476 0.9686
-4.5852 6.1017 -2.3476 0.9686
-4.8271 5.9121 -2.3476 0.9686
-5.2872 5.5046 -2.3476 0.9686
-5.7130 5.0613 -2.3476 0.9686
-6.1017 4.5851 -2.3476 0.9686
-6.6099 3.8162 -2.3476 0.9686
-7.0217 2.9917 -2.3476 0.9686
-7.2885 2.7642 -2.3976 0.9679
-7.7097 2.5738 -2.5000 0.9666
-8.0227 1.3038 -2.5000 0.9666
-8.0687 0.9797 -2.5000 0.9666
-8.1016 0.6540 -2.5000 0.9666
-8.1214 0.3273 -2.5000 0.9666
-7.4965 -0.6052 -2.5000 0.9688
-7.4660 -0.9065 -2.5000 0.9688
-7.4235 -1.2064 -2.5000 0.9688
-7.3689 -1.5044 -2.5000 0.9688
-7.1338 -2.3816 -2.5000 0.9688
-7.0321 -2.6669 -2.5000 0.9688
-6.9191 -2.9479 -2.5000 0.9688
-6.5133 -3.7605 -2.5000 0.9688
-6.1896 -4.2724 -2.5000 0.9688
-5.8257 -4.7565 -2.5000 0.9688
-5.4241 -5.2099 -2.5000 0.9688
-4.5181 -6.0125 -2.5000 0.9688
-3.4951 -6.6594 -2.5000 0.9688
-2.9479 -6.9191 -2.5000 0.9688
-2.3816 -7.1338 -2.5000 0.9688
-2.0924 -7.2240 -2.5000 0.9688
-1.7999 -7.3024 -2.5000 0.9688
-1.5044 -7.3689 -2.5000 0.9688
-0.6052 -7.4965 -2.5000 0.9688
1.7999 -7.3023 -2.5000 0.9688
2.6669 -7.0322 -2.5000 0.9688
2.9479 -6.9191 -2.5000 0.9688
3.4951 -6.6594 -2.5000 0.9688
4.2723 -6.1896 -2.5000 0.9688
4.9873 -5.6295 -2.5000 0.9688
5.2099 -5.4241 -2.5000 0.9688
5.4241 -5.2099 -2.5000 0.9688
6.0125 -4.5181 -2.5000 0.9688
6.1896 -4.2724 -2.5000 0.9688
6.5133 -3.7604 -2.5000 0.9688
6.6594 -3.4951 -2.5000 0.9688
6.7947 -3.2242 -2.5000 0.9688
6.9191 -2.9479 -2.5000 0.9688
7.0321 -2.6669 -2.5000 0.9688
7.1338 -2.3816 -2.5000 0.9688
7.2239 -2.0925 -2.5000 0.9688
7.4235 -1.2064 -2.5000 0.9688
7.4965 -0.6052 -2.5000 0.9688
7.4965 0.6052 -2.5000 0.9688
7.3023 1.7999 -2.5000 0.9688
7.2239 2.0924 -2.5000 0.9688
7.1338 2.3816 -2.5000 0.9688
6.4973 2.7682 -2.3476 0.9707
6.3805 3.0276 -2.3476 0.9707
6.1162 3.5312 -2.3476 0.9707
5.9691 3.7746 -2.3476 0.9707
5.8122 4.0119 -2.3476 0.9707
5.6460 4.2427 -2.3476 0.9707
5.4706 4.4666 -2.3476 0.9707
4.8923 5.0934 -2.3476 0.9707
4.6832 5.2863 -2.3476 0.9707
4.2427 5.6460 -2.3476 0.9707
4.0119 5.8123 -2.3476 0.9707
3.5312 6.1162 -2.3476 0.9707
3.2821 6.2534 -2.3476 0.9707
2.2364 6.6989 -2.3476 0.9707
1.4127 6.9197 -2.3476 0.9707
0.5676 7.0307 -2.3446 0.9707
0.2839 7.0440 -2.3434 0.9707
-0.2839 7.0446 -2.3436 0.9707
-0.5677 7.0319 -2.3450 0.9707
-0.851.4241 -2.5000474 0.9707
-1.1331 6.9708 -2.3476 0.9707
-1.4127 6.9197 -2.3476 0.9707
-1.6902 6.8572 -2.3476 0.9707
-1.9649 6.7836 -2.3476 0.9707
-2.2364 6.6990 -2.3476 0.9707
-2.5044 6.6035 -2.3476 0.9707
-3.0276 6.3805 -2.3476 0.9707
-2.1664 3.4259 -1.3474 0.9831
-4.2427 5.6460 -2.3476 0.9707
-4.6832 5.2863 -2.3476 0.9707
-5.6460 4.2427 -2.3476 0.9707
-5.8122 4.0119 -2.3476 0.9707
-5.9691 3.7746 -2.3476 0.9707
-6.1162 3.5312 -2.3476 0.9707
-6.3805 3.0276 -2.3476 0.9707
-6.4973 2.7682 -2.3476 0.9707
-7.0321 2.6669 -2.5000 0.9688
-7.1338 2.3816 -2.5000 0.9688
-7.2239 2.0924 -2.5000 0.9688
-7.3023 1.7999 -2.5000 0.9688
-7.3689 1.5044 -2.5000 0.9688
-7.4235 1.2064 -2.5000 0.9688
-7.5148 0.3028 -2.5000 0.9688
-6.9909 0.0000 -2.5000 0.9707
-6.9399 -0.8427 -2.5000 0.9707
-6.9003 -1.1214 -2.5000 0.9707
-6.6311 -2.2138 -2.5000 0.9707
-6.5366 -2.4790 -2.5000 0.9707
-6.3159 -2.9969 -2.5000 0.9707
-6.1901 -3.2488 -2.5000 0.9707
-6.0543 -3.4954 -2.5000 0.9707
-5.4152 -4.4213 -2.5000 0.9707
-4.8427 -5.0418 -2.5000 0.9707
-4.6358 -5.2327 -2.5000 0.9707
-4.4213 -5.4152 -2.5000 0.9707
-4.1997 -5.5888 -2.5000 0.9707
-3.2488 -6.1901 -2.5000 0.9707
-2.9969 -6.3159 -2.5000 0.9707
-2.7402 -6.4315 -2.5000 0.9707
-2.2138 -6.6311 -2.5000 0.9707
-1.6730 -6.7877 -2.5000 0.9707
-1.1214 -6.9003 -2.5000 0.9707
-0.8427 -6.9399 -2.5000 0.9707
-0.2815 -6.9852 -2.5000 0.9707
0.2815 -6.9852 -2.5000 0.9707
1.3983 -6.8496 -2.5000 0.9707
1.6730 -6.7877 -2.5000 0.9707
1.9450 -6.7149 -2.5000 0.9707
2.4790 -6.5366 -2.5000 0.9707
2.9969 -6.3159 -2.5000 0.9707
3.4954 -6.0543 -2.5000 0.9707
4.4213 -5.4152 -2.5000 0.9707
4.8427 -5.0418 -2.5000 0.9707
5.0418 -4.8428 -2.5000 0.9707
5.4151 -4.4214 -2.5000 0.9707
5.5888 -4.1997 -2.5000 0.9707
5.7534 -3.9713 -2.5000 0.9707
5.9086 -3.7364 -2.5000 0.9707
6.0543 -3.4954 -2.5000 0.9707
6.1901 -3.2488 -2.5000 0.9707
6.3159 -2.9969 -2.5000 0.9707
6.6311 -2.2138 -2.5000 0.9707
6.7148 -1.9450 -2.5000 0.9707
6.9003 -1.1214 -2.5000 0.9707
6.9852 -0.2815 -2.5000 0.9707
6.9909 0.0000 -2.5000 0.9707
6.9399 0.8427 -2.5000 0.9707
6.9003 1.1214 -2.5000 0.9707
6.8496 1.3983 -2.5000 0.9707
6.7877 1.6730 -2.5000 0.9707
6.7148 1.9450 -2.5000 0.9707
5.4026 3.7292 -2.3476 0.9725
5.2481 3.9437 -2.3476 0.9725
4.3532 4.9137 -2.3476 0.9725
4.1518 5.0851 -2.3476 0.9725
3.9437 5.2481 -2.3476 0.9725
3.7292 5.4026 -2.3476 0.9725
3.0508 5.8127 -2.3476 0.9725
2.8142 5.9309 -2.3476 0.9725
2.3279 6.1381 -2.3476 0.9725
2.0788 6.2269 -2.3476 0.9725
1.3131 6.4320 -2.3476 0.9725
0.7913 6.5168 -2.3476 0.9725
0.2643 6.5594 -2.3476 0.9725
0.0000 6.5647 -2.3476 0.9725
-0.2643 6.5594 -2.3476 0.9725
-0.5282 6.5434 -2.3476 0.9725
-0.7913 6.5168 -2.3476 0.9725
-1.8264 6.3055 -2.3476 0.9725
-2.0788 6.2269 -2.3476 0.9725
-2.3279 6.1381 -2.3476 0.9725
-2.5732 6.0394 -2.3476 0.9725
-3.2823 5.6852 -2.3476 0.9725
-4.1518 5.0850 -2.3476 0.9725
-4.3532 4.9137 -2.3476 0.9725
-4.5475 4.7345 -2.3476 0.9725
-4.9138 4.3532 -2.3476 0.9725
-5.0851 4.1518 -2.3476 0.9725
-5.2481 3.9437 -2.3476 0.9725
-5.5484 3.5086 -2.3476 0.9725
-5.8128 3.0508 -2.3476 0.9725
-6.3329 2.6982 -2.4617 0.9712
-6.5366 2.4790 -2.5000 0.9707
-6.7877 1.6730 -2.5000 0.9707
-6.9682 0.5625 -2.5000 0.9707
-3.5504 0.0000 -1.3606 0.9849
-3.5589 -0.1434 -1.3649 0.9849
-3.5687 -0.2881 -1.3720 0.9848
-3.5921 -0.4362 -1.3867 0.9846
-6.4392 -1.0465 -2.5000 0.9724
-6.2661 -1.8150 -2.5000 0.9724
-6.1879 -2.0658 -2.5000 0.9724
-6.0997 -2.3133 -2.5000 0.9724
-6.0016 -2.5571 -2.5000 0.9724
-5.8938 -2.7967 -2.5000 0.9724
-5.7764 -3.0317 -2.5000 0.9724
-5.6497 -3.2618 -2.5000 0.9724
-5.2153 -3.9190 -2.5000 0.9724
-5.0533 -4.1259 -2.5000 0.9724
-4.8830 -4.3260 -2.5000 0.9724
-4.5191 -4.7049 -2.5000 0.9724
-4.3260 -4.8830 -2.5000 0.9724
-3.7059 -5.3689 -2.5000 0.9724
-3.4867 -5.5137 -2.5000 0.9724
-2.3133 -6.0997 -2.5000 0.9724
-2.0658 -6.1879 -2.5000 0.9724
-1.8150 -6.2661 -2.5000 0.9724
-1.5612 -6.3341 -2.5000 0.9724
-1.3049 -6.3918 -2.5000 0.9724
-1.0465 -6.4392 -2.5000 0.9724
-0.7863 -6.4761 -2.5000 0.9724
-0.2627 -6.5184 -2.5000 0.9724
2.3133 -6.0997 -2.5000 0.9724
2.5570 -6.0016 -2.5000 0.9724
2.7966 -5.8938 -2.5000 0.97-2.5000 0.970.7764 -2.5000 0.9724
3.4867 -5.5137 -2.5000 0.9724
4.1259 -5.0533 -2.5000 0.9724
4.3260 -4.8830 -2.5000 0.9724
4.7049 -4.5191 -2.5000 0.9724
5.0533 -4.1259 -2.5000 0.9724
5.2153 -3.9191 -2.5000 0.9724
5.5137 -3.4867 -2.5000 0.9724
5.7764 -3.0317 -2.5000 0.9724
5.8938 -2.7967 -2.5000 0.9724
6.0016 -2.5571 -2.5000 0.9724
6.1879 -2.0658 -2.5000 0.9724
6.4392 -1.0465 -2.5000 0.9724
6.4761 -0.7863 -2.5000 0.9724
6.5025 -0.5249 -2.5000 0.9724
6.5025 0.5249 -2.5000 0.9724
6.4761 0.7863 -2.5000 0.9724
6.2661 1.8150 -2.5000 0.9724
6.1879 2.0658 -2.5000 0.9724
6.0016 2.5571 -2.5000 0.9724
5.7117 2.7102 -2.4227 0.9733
5.4244 2.8469 -2.3476 0.9741
5.0416 3.4800 -2.3476 0.9741
4.7452 3.8743 -2.3476 0.9741
4.5854 4.0623 -2.3476 0.9741
4.4181 4.2436 -2.3476 0.9741
4.0623 4.5854 -2.3476 0.9741
3.8744 4.7452 -2.3476 0.9741
3.6801 4.8974 -2.3476 0.9741
3.0630 5.3052 -2.3476 0.9741
2.6262 5.5345 -2.3476 0.9741
2.4012 5.6358 -2.3476 0.9741
2.1723 5.7279 -2.3476 0.9741
1.9399 5.8107 -2.3476 0.9741
1.4660 5.9480 -2.3476 0.9741
0.7384 6.0813 -2.3476 0.9741
-0.4929 6.1061 -2.3476 0.9741
-0.7384 6.0813 -2.3476 0.9741
-1.2254 6.0022 -2.3476 0.9741
-1.4661 5.9480 -2.3476 0.9741
-1.7044 5.8841 -2.3476 0.9741
-2.1723 5.7279 -2.3476 0.9741
-2.6262 5.5345 -2.3476 0.9741
-3.0630 5.3052 -2.3476 0.9741
-2.1664 3.4259 -1.5534 0.9828
-3.4800 5.0416 -2.3476 0.9741
-3.8744 4.7452 -2.3476 0.9741
-4.0623 4.5854 -2.3476 0.9741
-4.4181 4.2436 -2.3476 0.9741
-4.7452 3.8743 -2.3476 0.9741
-5.0416 3.4800 -2.3476 0.9741
-5.4243 2.8469 -2.3476 0.9741
-5.7034 2.7063 -2.4192 0.9733
-6.0016 2.5571 -2.5000 0.9724
-6.0997 2.3133 -2.5000 0.9724
-6.3341 1.5612 -2.5000 0.9724
-6.3918 1.3049 -2.5000 0.9724
-3.5921 0.4361 -1.3867 0.9846
-3.5589 0.1434 -1.3649 0.9849
-2.8096 -0.2268 -1.1536 0.9879
-2.9323 -0.3560 -1.2089 0.9873
-3.0246 -0.4916 -1.2541 0.9868
-3.0070 -0.6139 -1.2561 0.9868
-5.7940 -1.9343 -2.5000 0.9739
-5.6195 -2.3943 -2.5000 0.9739
-5.4087 -2.8387 -2.5000 0.9739
-5.2900 -3.0542 -2.5000 0.9739
-5.0271 -3.4699 -2.5000 0.9739
-4.7315 -3.8632 -2.5000 0.9739
-4.5721 -4.0506 -2.5000 0.9739
-4.0506 -4.5721 -2.5000 0.9739
-3.8632 -4.7316 -2.5000 0.9739
-3.6695 -4.8833 -2.5000 0.9739
-3.4699 -5.0271 -2.5000 0.9739
-3.0542 -5.2900 -2.5000 0.9739
-1.9343 -5.7940 -2.5000 0.9739
-1.2218 -5.9849 -2.5000 0.9739
-0.9799 -6.0292 -2.5000 0.9739
-0.7363 -6.0638 -2.5000 0.9739
-0.4915 -6.0885 -2.5000 0.9739
-0.2460 -6.1034 -2.5000 0.9739
0.0000 -6.1083 -2.5000 0.9739
0.2460 -6.1034 -2.5000 0.9739
0.4915 -6.0885 -2.5000 0.9739
1.4618 -5.9308 -2.5000 0.9739
1.9343 -5.7940 -2.5000 0.9739
2.1660 -5.7114 -2.5000 0.9739
2.3943 -5.6195 -2.5000 0.9739
2.6186 -5.5186 -2.5000 0.9739
3.0542 -5.2900 -2.5000 0.9739
3.4699 -5.0271 -2.5000 0.9739
3.8632 -4.7315 -2.5000 0.9739
4.0506 -4.5721 -2.5000 0.9739
4.2314 -4.4054 -2.5000 0.9739
4.4054 -4.2314 -2.5000 0.9739
4.5722 -4.0506 -2.5000 0.9739
5.0270 -3.4699 -2.5000 0.9739
5.1627 -3.2647 -2.5000 0.9739
5.2900 -3.0542 -2.5000 0.9739
5.5186 -2.6186 -2.5000 0.9739
5.6195 -2.3943 -2.5000 0.9739
5.7114 -2.1660 -2.5000 0.9739
5.7940 -1.9343 -2.5000 0.9739
5.8671 -1.6994 -2.5000 0.9739
5.9849 -1.2218 -2.5000 0.9739
6.0292 -0.9798 -2.5000 0.9739
6.0637 -0.7363 -2.5000 0.9739
6.0886 -0.4915 -2.5000 0.9739
6.1034 0.2459 -2.5000 0.9739
6.0885 0.4915 -2.5000 0.9739
6.0638 0.7363 -2.5000 0.9739
6.0292 0.9799 -2.5000 0.9739
5.9849 1.2218 -2.5000 0.9739
5.1743 2.7157 -2.3917 0.9751
4.8480 3.0657 -2.3476 0.9755
4.7206 3.2584 -2.3476 0.9755
4.2934 3.8036 -2.3476 0.9755
3.9734 4.1368 -2.3476 0.9755
3.2584 4.7206 -2.3476 0.9755
3.0657 4.8480 -2.3476 0.9755
2.8680 4.9675 -2.3476 0.9755
2.6656 5.0789 -2.3476 0.9755
2.2483 5.2770 -2.3476 0.9755
2.0340 5.3632 -2.3476 0.9755
1.5958 5.5095 -2.3476 0.9755
1.1473 5.6200 -2.3476 0.9755
0.6914 5.6941 -2.3476 0.9755
-0.6914 5.6941 -2.3476 0.9755
-1.8164 5.4408 -2.3476 0.9755
-2.0340 5.3632 -2.3476 0.9755
-2.2483 5.2770 -2.3476 0.9755
-2.4590 5.1821 -2.3476 0.9755
-2.6656 5.0789 -2.3476 0.9755
-3.2584 4.7206 -2.3476 0.9755
-3.6277 4.4431 -2.3476 0.9755
-3.8036 4.2934 -2.3476 0.9755
-4.4431 3.6277 -2.3476 0.9755
7 -2.5000 0.98 -2.3476 0.9755
-4.7206 3.2584 -2.3476 0.9755
-4.9675 2.8680 -2.3476 0.9755
-5.5186 2.6186 -2.5000 0.9739
-5.6195 2.3942 -2.5000 0.9739
-5.7114 2.1660 -2.5000 0.9739
-5.8672 1.6995 -2.5000 0.9739
-5.9308 1.4618 -2.5000 0.9739
-3.0070 0.6139 -1.2561 0.9868
-3.0246 0.4915 -1.2541 0.9868
-2.9322 0.3560 -1.2089 0.9873
-2.3650 -0.0000 -1.0307 0.9897
-2.3670 -0.0954 -1.0324 0.9897
-5.5696 -1.3728 -2.5000 0.9753
-5.5098 -1.5960 -2.5000 0.9753
-5.4411 -1.8165 -2.5000 0.9753
-5.3636 -2.0341 -2.5000 0.9753
-5.2773 -2.2485 -2.5000 0.9753
-5.1825 -2.4591 -2.5000 0.9753
-4.9678 -2.8682 -2.5000 0.9753
-4.8483 -3.0659 -2.5000 0.9753
-4.7209 -3.2586 -2.5000 0.9753
-4.2937 -3.8039 -2.5000 0.9753
-4.1371 -3.9737 -2.5000 0.9753
-3.9737 -4.1371 -2.5000 0.9753
-3.4460 -4.5859 -2.5000 0.9753
-2.6658 -5.0793 -2.5000 0.9753
-2.4591 -5.1825 -2.5000 0.9753
-2.2485 -5.2773 -2.5000 0.9753
-1.8165 -5.4411 -2.5000 0.9753
-1.5959 -5.5098 -2.5000 0.9753
-1.1474 -5.6204 -2.5000 0.9753
-0.9202 -5.6620 -2.5000 0.9753
0.0000 -5.7363 -2.5000 0.9753
0.9202 -5.6621 -2.5000 0.9753
1.1474 -5.6204 -2.5000 0.9753
1.3728 -5.5696 -2.5000 0.9753
2.0341 -5.3636 -2.5000 0.9753
2.2484 -5.2773 -2.5000 0.9753
2.6658 -5.0793 -2.5000 0.9753
3.0659 -4.8483 -2.5000 0.9753
3.4460 -4.5859 -2.5000 0.9753
3.8039 -4.2937 -2.5000 0.9753
3.9737 -4.1371 -2.5000 0.9753
4.4434 -3.6279 -2.5000 0.9753
4.7209 -3.2586 -2.5000 0.9753
4.8483 -3.0659 -2.5000 0.9753
4.9678 -2.8682 -2.5000 0.9753
5.0793 -2.6658 -2.5000 0.9753
5.1825 -2.4591 -2.5000 0.9753
5.3635 -2.0341 -2.5000 0.9753
5.4411 -1.8165 -2.5000 0.9753
5.5099 -1.5960 -2.5000 0.9753
5.5696 -1.3728 -2.5000 0.9753
5.6204 -1.1474 -2.5000 0.9753
5.7317 0.2310 -2.5000 0.9753
5.7177 0.4616 -2.5000 0.9753
5.6620 0.9202 -2.5000 0.9753
5.6204 1.1474 -2.5000 0.9753
5.5696 1.3728 -2.5000 0.9753
5.2773 2.2484 -2.5000 0.9753
5.0793 2.6658 -2.5000 0.9753
4.5610 2.8842 -2.3519 0.9767
4.4331 3.0600 -2.3476 0.9768
4.1725 3.4067 -2.3476 0.9768
3.7314 3.8848 -2.3476 0.9768
3.5720 4.0320 -2.3476 0.9768
3.4067 4.1725 -2.3476 0.9768
3.2360 4.3063 -2.3476 0.9768
3.0599 4.4331 -2.3476 0.9768
2.8790 4.5527 -2.3476 0.9768
2.5033 4.7696 -2.3476 0.9768
1.7058 5.1094 -2.3476 0.9768
1.2891 5.2301 -2.3476 0.9768
0.6493 5.3473 -2.3476 0.9768
0.4334 5.3692 -2.3476 0.9768
0.2169 5.3823 -2.3476 0.9768
-0.2169 5.3822 -2.3476 0.9768
-0.4334 5.3692 -2.3476 0.9768
-0.6493 5.3474 -2.3476 0.9768
-0.8641 5.3169 -2.3476 0.9768
-1.0775 5.2778 -2.3476 0.9768
-1.7058 5.1094 -2.3476 0.9768
-2.1114 4.9556 -2.3476 0.9768
-2.3092 4.8665 -2.3476 0.9768
-2.1664 3.4259 -1.7666 0.9825
-3.2360 4.3063 -2.3476 0.9768
-3.4068 4.1725 -2.3476 0.9768
-3.7315 3.8849 -2.3476 0.9768
-3.8849 3.7315 -2.3476 0.9768
-4.1725 3.4067 -2.3476 0.9768
-4.3063 3.2360 -2.3476 0.9768
-4.5578 2.8822 -2.3502 0.9767
-5.1825 2.4591 -2.5000 0.9753
-5.2773 2.2484 -2.5000 0.9753
-5.3636 2.0341 -2.5000 0.9753
-5.4411 1.8165 -2.5000 0.9753
-5.5098 1.5959 -2.5000 0.9753
-5.5696 1.3728 -2.5000 0.9753
-2.3794 0.2889 -1.0446 0.9896
-2.2080 -0.2681 -1.0295 0.9902
-2.2302 -0.3624 -1.0459 0.9901
-2.2466 -0.4587 -1.0614 0.9899
-2.3851 -0.5879 -1.1371 0.9892
-5.1877 -1.5026 -2.5000 0.9765
-5.0499 -1.9152 -2.5000 0.9765
-4.8794 -2.3153 -2.5000 0.9765
-4.7823 -2.5099 -2.5000 0.9765
-4.6773 -2.7004 -2.5000 0.9765
-4.5648 -2.8866 -2.5000 0.9765
-4.0426 -3.5814 -2.5000 0.9765
-3.5814 -4.0426 -2.5000 0.9765
-3.4158 -4.1835 -2.5000 0.9765
-3.0680 -4.4448 -2.5000 0.9765
-2.8866 -4.5648 -2.5000 0.9765
-2.7004 -4.6773 -2.5000 0.9765
-2.3153 -4.8794 -2.5000 0.9765
-1.9152 -5.0499 -2.5000 0.9765
-1.7103 -5.1229 -2.5000 0.9765
-1.2925 -5.2439 -2.5000 0.9765
-1.0803 -5.2917 -2.5000 0.9765
-0.8664 -5.3309 -2.5000 0.9765
-0.6510 -5.3615 -2.5000 0.9765
-0.4346 -5.3834 -2.5000 0.9765
-0.2175 -5.3965 -2.5000 0.9765
0.2175 -5.3965 -2.5000 0.9765
0.4346 -5.3834 -2.5000 0.9765
0.6510 -5.3615 -2.5000 0.9765
0.8664 -5.3309 -2.5000 0.9765
1.2925 -5.2439 -2.5000 0.9765
1.7103 -5.1229 -2.5000 0.9765
1.9152 -5.0499 -2.5000 0.9765
2.1170 -4.9687 -2.5000 0.9765
2.8866 -4.5648 -2.5000 0.9765
3.2446 -4.3177 -2.5000 0.9765
3.7413 -3.8951 -2.5000 .9453 -2.19951 -3.7413 -2.5000 0.9765
