ply
format ascii 1.0
element vertex 1572
property float32 x
property float32 y
property float32 z
property float32 I
end_header
10.8847 -44.1608 3.8502 0.8331
9.4812 -32.7327 2.8848 0.8721
6.2384 -18.6863 1.6677 0.9240
5.9237 -15.6196 1.4141 0.9351
9.7743 -15.4568 1.5481 0.9292
15.8461 -21.0872 2.2329 0.8995
45.3713 -1.8284 3.8439 0.8334
45.3289 0.0000 3.8372 0.8336
25.0654 8.3681 2.2370 0.8994
18.8405 8.0272 1.7336 0.9211
13.4754 9.3014 1.3861 0.9364
10.8145 8.1266 1.1451 0.9471
10.2572 8.3747 1.1210 0.9482
9.8119 8.6926 1.1097 0.9487
9.5976 9.2186 1.1265 0.9480
9.5308 10.7581 1.2167 0.9439
9.5308 11.6732 1.2757 0.9413
6.2849 9.9388 0.9954 0.9539
6.0313 10.4466 1.0211 0.9527
11.7440 22.3763 2.1393 0.9035
3.7389 9.8586 0.8926 0.9586
2.3852 8.2346 0.7257 0.9662
2.0330 8.2483 0.7191 0.9665
1.6888 8.2723 0.7147 0.9667
0.7159 8.8684 0.7532 0.9649
0.3879 9.6248 0.8154 0.9621
-0.7816 9.6811 0.8222 0.9618
-1.5733 9.6811 0.8303 0.9614
-1.9649 9.6248 0.8316 0.9613
-2.8082 9.6951 0.8545 0.9603
-3.2321 9.6811 0.8640 0.9599
-3.6502 9.6248 0.8714 0.9595
-4.4767 9.4345 0.8840 0.9589
-4.7204 8.9939 0.8599 0.9600
-4.9835 8.6317 0.8437 0.9608
-6.2182 8.2749 0.8762 0.9593
-6.8583 8.3999 0.9179 0.9574
-24.2561 25.2532 2.9642 0.8689
-23.7781 15.0364 2.3816 0.8932
-24.5092 12.8634 2.3432 0.8948
-27.1382 12.8772 2.5428 0.8864
-36.0153 13.6588 3.2607 0.8567
-26.2647 8.7684 2.3440 0.8948
-33.4408 8.2425 2.9156 0.8709
-33.4109 6.8209 2.8867 0.8721
-34.7685 5.6504 2.9819 0.8681
-23.6016 -17.7355 1.8307 0.8884
-22.0298 -17.9867 1.7636 0.8923
-20.5312 -21.3752 1.8379 0.8880
-17.6430 -19.9148 1.6498 0.8989
-17.0875 -20.9284 1.6754 0.8974
-16.6565 -22.1658 1.7193 0.8948
-20.1456 -29.1860 2.1991 0.8675
-15.5743 -26.9754 1.9315 0.8826
-14.8800 -28.3516 1.9855 0.8796
-13.6829 -28.8361 1.9792 0.8799
-17.6922 -41.5251 2.7990 0.8345
-16.6418 -43.8806 2.9102 0.8285
-12.5750 -37.6667 2.4625 0.8529
-7.4426 -25.6949 1.6588 0.8983
-3.4881 -21.4630 1.3484 0.9165
-1.5136 -18.7492 1.1664 0.9274
6.0280 -37.0920 2.3303 0.8602
4.3583 -17.6822 1.1293 0.9296
5.0649 -17.4861 1.1289 0.9296
7.2884 -17.1064 1.1530 0.9282
8.9422 -17.0379 1.1932 0.9258
9.5983 -16.6247 1.1904 0.9260
14.6135 -21.1713 1.5952 0.9020
16.7924 -20.5669 1.6465 0.8991
43.3948 -16.4574 2.8779 0.8303
19.2745 8.2121 1.2992 0.9195
10.2572 8.3747 0.8211 0.9483
9.5976 9.2186 0.8252 0.9481
9.4790 10.6996 0.8864 0.9443
9.6360 11.8020 0.9448 0.9408
9.5308 12.6833 0.9838 0.9384
9.5309 13.8078 1.0404 0.9350
9.4790 14.9899 1.0998 0.9314
5.7601 9.9768 0.7144 0.9549
4.6905 11.0090 0.7421 0.9532
4.4511 11.7367 0.7784 0.9509
2.8037 8.3981 0.5490 0.9651
2.3852 8.2346 0.5316 0.9662
1.6893 8.2749 0.5237 0.9667
1.3430 8.2637 0.5192 0.9670
1.0232 8.4267 0.5264 0.9666
0.7209 8.9306 0.5556 0.9647
0.3879 9.6248 0.5973 0.9621
-0.3879 9.6247 0.5973 0.9621
-0.7816 9.6811 0.6023 0.9618
-1.5733 9.6811 0.6082 0.9615
-2.8042 9.6811 0.6250 0.9604
-3.2321 9.6811 0.6329 0.9599
-4.1007 9.6248 0.6487 0.9589
-5.2653 8.3264 0.6109 0.9613
-5.7117 8.2749 0.6235 0.9605
-24.9624 25.9886 2.2345 0.8655
-32.8607 26.8299 2.6308 0.8437
-35.2374 26.4791 2.7333 0.8381
-32.0830 22.1453 2.4174 0.8554
-25.5139 13.3907 1.7868 0.8909
-35.8968 13.6138 2.3807 0.8574
-40.6393 13.5674 2.6568 0.8422
-33.4809 8.2523 2.1383 0.8709
-33.3796 6.8145 2.1126 0.8724
-42.8819 -24.7579 1.9525 0.8202
-23.2840 -17.4968 1.1484 0.8899
-22.1665 -18.0984 1.1284 0.8918
-21.0359 -20.2052 1.1501 0.8898
-18.0065 -20.3250 1.0707 0.8970
-19.2754 -25.6509 1.2652 0.8795
-19.9784 -28.9437 1.3868 0.8687
-19.2479 -30.4380 1.4200 0.8657
-15.1754 -26.2846 1.1968 0.8856
-14.1765 -27.0111 1.2029 0.8850
-13.8230 -29.1313 1.2714 0.8789
-7.7002 -26.5840 1.0913 0.8951
-6.3563 -25.7883 1.0473 0.8991
-1.7633 -21.8425 0.8641 0.9160
-0.9808 -24.3394 0.9605 0.9071
1.0124 -25.1218 0.9914 0.9043
2.7564 -22.7011 0.9017 0.9125
4.2286 -20.7132 0.8336 0.9189
5.0332 -20.4202 0.8293 0.9193
5.6620 -19.5473 0.8025 0.9218
5.8234 -17.4431 0.7251 0.9290
14.0708 -20.3850 0.9767 0.9056
17.8612 8.4752 0.7795 0.9239
14.0255 9.6811 0.6720 0.9341
9.5976 9.2186 0.5247 0.9481
9.5309 9.9227 0.5425 0.9464
9.4790 10.6996 0.5636 0.9444
9.5308 12.6833 0.6256 0.9385
9.5309 13.8078 0.6616 0.9350
6.3303 10.9645 0.4992 0.9506
5.2358 9.9759 0.4442 0.9559
2.8037 8.3981 0.3491 0.9652
2.0396 8.2749 0.3361 0.9665
1.6893 8.2749 0.3330 0.9668
0.7209 8.9306 0.3533 0.9648
-0.3879 9.6247 0.3798 0.9622
-1.9649 9.6248 0.3873 0.9614
-2.8066 9.6895 0.3978 0.9604
-3.6502 9.6248 0.4059 0.9596
-4.1007 9.6248 0.4125 0.9590
-4.6988 8.9529 0.3987 0.9603
-23.3837 26.3947 1.3905 0.8683
-24.9453 25.9708 1.4199 0.8658
-26.0610 25.0320 1.4249 0.8653
-26.4387 23.4227 1.3928 0.8681
-32.7250 26.7191 1.6659 0.8444
-24.1322 16.6573 1.1562 0.8892
-24.0611 15.2154 1.1225 0.8923
-33.1299 17.3879 1.4753 0.8609
-31.5465 14.9690 1.3768 0.8695
-32.4956 13.8450 1.3928 0.8681
-40.4838 13.5155 1.6829 0.8429
-33.6407 9.7442 1.3810 0.8692
-32.9059 8.1106 1.3363 0.8731
-33.1258 6.7627 1.3331 0.8734
-42.9373 5.2135 1.7055 0.8410
-44.1319 -23.1622 0.8419 0.8192
-41.8266 -26.4496 0.8359 0.8204
-22.4636 -16.8803 0.4746 0.8937
-20.8549 -18.4758 0.4706 0.8945
-20.5248 -19.7144 0.4807 0.8924
-23.3914 -24.3531 0.5704 0.8736
-16.4168 -21.8468 0.4616 0.8964
-18.4922 -26.7905 0.5499 0.8779
-10.6757 -25.0569 0.4601 0.8968
-6.6347 -26.9180 0.4683 0.8950
-1.6329 -20.2269 0.3428 0.9220
0.9938 -24.6603 0.4169 0.9060
1.9899 -24.6495 0.4177 0.9058
3.9665 -24.4065 0.4177 0.9058
3.7758 -18.4949 0.3189 0.9273
4.6020 -18.6709 0.3248 0.9260
6.0149 -18.0168 0.3208 0.9268
5.8591 -15.4492 0.2791 0.9360
7.8037 -16.4460 0.3075 0.9298
9.9906 -17.3042 0.3375 0.9232
9.5311 -15.0721 0.3012 0.9311
19.2078 8.1837 0.3527 0.9199
17.4000 9.1322 0.3319 0.9244
16.6705 9.6248 0.3252 0.9259
15.1641 9.5892 0.3031 0.9307
14.0255 9.6811 0.2879 0.9341
11.0002 8.2661 0.2324 0.9464
9.5976 9.2186 0.2248 0.9482
9.5309 9.9227 0.2324 0.9464
9.4790 10.6996 0.2415 0.9444
9.6360 15.2381 0.3045 0.9304
6.3275 10.9595 0.2138 0.9506
11.7561 22.3993 0.4273 0.9038
4.7161 9.9390 0.1858 0.9569
4.3266 10.1550 0.1865 0.9568
3.8950 10.2703 0.1855 0.9570
2.8037 8.3981 0.1496 0.9652
2.0396 8.2749 0.1440 0.9665
1.6893 8.2749 0.1427 0.9668
1.0232 8.4267 0.1434 0.9666
0.7209 8.9306 0.1513 0.9648
0.3879 9.6248 0.1627 0.9622
-0.0000 9.6248 0.1626 0.9622
-1.1755 9.6811 0.1647 0.9617
-1.5733 9.6811 0.1657 0.9615
-1.9649 9.6248 0.1659 0.9615
-2.3621 9.5833 0.1667 0.9613
-4.1007 9.6248 0.1767 0.9590
-4.4767 9.4345 0.1764 0.9591
-4.9835 8.6317 0.1684 0.9609
-5.2653 8.3264 0.1664 0.9614
-33.7360 32.4039 0.7902 0.8293
-28.3626 25.1271 0.6401 0.8593
-35.2374 26.4791 0.7445 0.8383
-33.3503 21.0895 0.6665 0.8540
-33.3147 17.4849 0.6355 0.8603
-32.6449 13.9087 0.5994 0.8677
-44.0523 12.7599 0.7747 0.8324
-32.9797 6.7328 0.5686 0.8740
-42.7679 6.9505 0.7319 0.8409
-42.8540 5.2034 0.7292 0.8414
-43.2673 -18.4345 -0.2648 0.8285
-35.0744 -16.6429 -0.2186 0.8562
-43.4010 -22.7786 -0.2760 0.8220
-37.8303 -23.9225 -0.2520 0.8361
-24.3058 -16.7771 -0.1663 0.8886
-20.3508 -19.5472 -0.1589 0.8933
-18.6969 -19.4655 -0.1520 0.8977
-17.1986 -19.4132 -0.1460 0.9015
-18.7894 -27.2211 -0.1862 0.8761
-15.4430 -29.4242 -0.1871 0.8755
-11.7066 -24.6712 -0.1537 0.8965
-7.8519 -23.5192 -0.1396 0.9056
-7.4718 -25.7954 -0.1512 0.8981
4.3019 -21.0719 -0.1211 0.9176
7.9403 -16.7338 -0.1043 0.9286
8.4694 -16.1370 -0.1026 0.9297
12.2910 -21.2886 -0.1384 0.9064
12.0878 -19.1153 -0.1273 0.9135
14.7612 -21.3852 -0.1463 0.9013
12.6826 -15.5334 -0.1129 0.9229
16.6705 9.6248 -0.1084 0.9259
14.0255 9.6811 -0.0960 0.9341
11.0002 8.2661 -0.0775 0.9464
10.2572 8.3747 -0.0746 0.9484
9.1929 9.5708 -0.0747 0.9483
8.5515 9.6526 -0.0726 0.9497
6.6627 9.6526 -0.0660 0.9542
6.1039 9.6526 -0.0643 0.9553
5.5729 9.6526 -0.0628 0.9564
4.5802 9.6526 -0.0602 0.9582
4.1126 9.6526 -0.0591 0.9589
2.8037 8.3981 -0.0498 0.9652
2.3852 8.2346 -0.0483 0.9663
2.0396 8.2749 -0.0480 0.9665
1.6893 8.2749 -0.0476 0.9668
1.0232 8.4267 -0.0478 0.9666
-0.3879 9.6247 -0.0542 0.9622
-1.5733 9.6811 -0.0552 0.9615
-1.9649 9.6248 -0.0553 0.9615
-2.8042 9.6811 -0.0567 0.9605
-3.2321 9.6811 -0.0575 0.9600
-3.6502 9.6248 -0.0580 0.9597
-4.1007 9.6248 -0.0589 0.9590
-4.4767 9.4345 -0.0588 0.9591
-5.2653 8.3264 -0.0555 0.9614
-6.2182 8.2749 -0.0583 0.9594
-6.8583 8.3999 -0.0611 0.9576
-33.7338 32.4018 -0.2633 0.8294
-33.3146 17.4849 -0.2118 0.8603
-32.0004 15.1844 -0.1994 0.8679
-32.6449 13.9087 -0.1998 0.8677
-31.6588 12.0066 -0.1906 0.8733
-31.7406 7.8234 -0.1841 0.8774
-31.6588 6.4633 -0.1819 0.8788
-40.9500 -23.6425 -1.3314 0.8276
-25.6556 -16.2236 -0.8547 0.8856
-20.3705 -18.0467 -0.7663 0.8968
-10.6688 -22.4841 -0.7008 0.9052
-8.5475 -22.5378 -0.6787 0.9081
0.0000 -26.1066 -0.7351 0.9008
0.6360 -15.7824 -0.4448 0.9388
3.1720 -39.2925 -1.1100 0.8541
6.4206 -39.5075 -1.1270 0.8520
3.9976 -19.5816 -0.5627 0.9231
10.0850 -26.5917 -0.8008 0.8924
6.6615 -15.6351 -0.4785 0.9343
7.3178 -15.4220 -0.4807 0.9340
7.6981 -14.6675 -0.4664 0.9359
14.3623 -19.1128 -0.6732 0.9088
18.1833 -20.5247 -0.7721 0.8961
23.6201 -24.5911 -0.9601 0.8725
23.6200 -22.6873 -0.9222 0.8772
23.7510 -19.3920 -0.8634 0.8845
36.6460 0.0000 -1.0319 0.8636
15.0516 8.6900 -0.4894 0.9328
13.2064 9.1157 -0.4518 0.9378
10.8145 8.1266 -0.3809 0.9473
10.2572 8.3747 -0.3729 0.9484
9.8119 8.6926 -0.3691 0.9489
9.5976 9.2186 -0.3747 0.9481
6.6627 9.6526 -0.3303 0.9542
5.5729 9.6526 -0.3138 0.9564
4.5802 9.6526 -0.3008 0.9581
4.1126 9.6526 -0.2954 0.9589
2.3852 8.2346 -0.2414 0.9663
1.6893 8.2749 -0.2378 0.9668
0.7209 8.9306 -0.2523 0.9648
-1.1755 9.6811 -0.2746 0.9617
-2.1215 8.6073 -0.2496 0.9651
-3.6160 9.5345 -0.2871 0.9600
-5.2653 8.3264 -0.2774 0.9613
-5.6211 8.1435 -0.2786 0.9612
-6.1011 8.1191 -0.2860 0.9602
-6.8583 8.3999 -0.3053 0.9575
-32.4695 36.6504 -1.3787 0.8221
-32.4566 28.7540 -1.2210 0.8407
-35.2374 26.4791 -1.2411 0.8383
-31.8035 15.0909 -0.9912 0.8686
-32.5108 13.8516 -0.9951 0.8681
-31.6588 12.0066 -0.9534 0.8733
-31.7406 10.5966 -0.9422 0.8747
-31.7406 9.1938 -0.9305 0.8761
-31.7406 7.8234 -0.9205 0.8774
-31.6588 6.4633 -0.9098 0.8787
-49.5268 6.0136 -1.4048 0.8190
-49.2955 0.0000 -2.5000 0.8208
-48.6571 -7.9076 -2.5000 0.8208
-48.2992 -9.8604 -2.5000 0.8208
-47.8630 -11.7972 -2.5000 0.8208
-45.6554 -13.2242 -2.4106 0.8267
-43.3159 -16.4276 -2.3494 0.8307
-35.0279 -16.6209 -1.9663 0.8562
-28.6046 -16.5149 -1.6751 0.8761
-18.3755 -16.2793 -1.2450 0.9064
-16.9134 -16.2456 -1.1893 0.9103
-15.4990 -16.1361 -1.1347 0.9143
-22.4799 -29.9153 -1.8977 0.8608
-26.0891 -37.7966 -2.3291 0.8320
-24.5356 -38.7999 -2.3281 0.8320
-22.9443 -39.7407 -2.3272 0.8321
-10.5866 -22.3108 -1.2524 0.9058
-9.4493 -22.1784 -1.2226 0.9080
-7.5384 -22.5802 -1.2073 0.9091
-6.8721 -23.7254 -1.2527 0.9058
-7.3450 -45.1958 -2.3221 0.8324
-1.0746 -26.6661 -1.3534 0.8986
0.6362 -15.7862 -0.8012 0.9387
3.6845 -45.6409 -2.3222 0.8324
4.8674 -40.0872 -2.0479 0.8507
7.3471 -45.2086 -2.3228 0.8324
7.7346 -26.7027 -1.4099 0.8946
9.0095 -26.9865 -1.4429 0.8923
21.4223 -40.8167 -2.3378 0.8314
9.9668 -15.7612 -0.9457 0.9280
10.7211 -15.5322 -0.9571 0.9272
12.6351 -15.4753 -1.0132 0.9231
14.9002 -15.5128 -1.0908 0.9175
18.8872 -15.4209 -1.2366 0.9070
39.4092 -29.6140 -2.5000 0.8208
42.0683 -24.2881 -2.4635 0.8232
42.0757 -22.0830 -2.4099 0.8267
42.0826 -19.9687 -2.3623 0.8298
42.6020 -18.1510 -2.3485 0.8307
43.2826 -16.4149 -2.3476 0.8308
43.9083 -14.6587 -2.3476 0.8308
47.8630 -11.7973 -2.5000 0.8208
48.2992 -9.8604 -2.5000 0.8208
48.6571 -7.9076 -2.5000 0.8208
49.2555 -1.9849 -2.5000 0.8208
35.0594 0.0000 -1.7780 0.8690
49.2555 1.9849 -2.5000 0.8208
46.1403 3.7248 -2.3476 0.8308
45.6950 7.4262 -2.3478 0.8308
45.3693 9.2622 -2.3483 0.8307
44.5522 12.9047 -2.3523 0.8305
19.2745 8.2121 -1.0625 0.9195
17.9100 8.4984 -1.0054 0.9237
14.7254 8.5017 -0.8623 0.9342
13.1691 8.3277 -0.7902 0.9395
13.2065 9.1158 -0.8138 0.9378
11.0002 8.2661 -0.6978 0.9464
10.2572 8.3747 -0.6715 0.9483
9.9421 8.8080 -0.6736 0.9482
9.5976 9.2186 -0.6749 0.9481
8.9168 9.2834 -0.6528 0.9498
7.8811 9.6526 -0.6320 0.9513
6.6627 9.6526 -0.5948 0.9541
6.1039 9.6526 -0.5792 0.9553
5.5729 9.6526 -0.5653 0.9563
5.0661 9.6526 -0.5528 0.9573
4.5802 9.6526 -0.5418 0.9581
4.1126 9.6526 -0.5321 0.9588
3.6297 9.5708 -0.5191 0.9598
2.3511 8.1169 -0.4286 0.9667
1.9864 8.0591 -0.4209 0.9673
0.6950 8.6089 -0.4380 0.9660
0.3879 9.6247 -0.4885 0.9622
-0.0000 9.6238 -0.4881 0.9622
-0.3502 8.6898 -0.4411 0.9658
-1.1755 9.6811 -0.4946 0.9617
-1.5733 9.6811 -0.4974 0.9615
-1.7742 8.6907 -0.4498 0.9651
-2.8066 9.6896 -0.5116 0.9604
-3.2321 9.6811 -0.5176 0.9599
-4.4767 9.4345 -0.5296 0.9590
-5.6211 8.1435 -0.5018 0.9611
-6.1011 8.1191 -0.5151 0.9601
-6.8583 8.3999 -0.5499 0.9575
-31.5345 32.8309 -2.3086 0.8333
-31.3505 30.1126 -2.2045 0.8402
-32.8607 26.8299 -2.1514 0.8437
-31.7451 20.0744 -1.9048 0.8603
-32.6449 13.9087 -1.7996 0.8675
-31.7406 7.8234 -1.6579 0.8773
-31.6588 6.4633 -1.6387 0.8786
-37.2629 6.0558 -1.9146 0.8597
-45.9868 5.5838 -2.3493 0.8307
-49.2555 1.9850 -2.5000 0.8208
-34.0959 0.0000 -2.5000 0.8722
-34.0683 -1.3729 -2.5000 0.8722
-33.8473 -4.1098 -2.5000 0.8722
-33.6544 -5.4694 -2.5000 0.8722
-33.1051 -8.1597 -2.5000 0.8722
-32.7497 -9.4861 -2.5000 0.8722
-30.9987 -13.2073 -2.4706 0.8736
-28.9268 -13.7259 -2.3476 0.8795
-28.3531 -14.8808 -2.3478 0.8795
-27.7390 -16.0152 -2.3485 0.8794
-27.0816 -17.1253 -2.3494 0.8794
-21.7678 -16.3574 -1.9965 0.8965
-16.9134 -16.2456 -1.7195 0.9102
-15.5745 -16.2148 -1.6485 0.9138
-14.3398 -16.1863 -1.5856 0.9169
-12.1732 -16.1996 -1.4858 0.9219
-11.1214 -16.1122 -1.4355 0.9245
-10.1749 -16.0904 -1.3959 0.9265
-7.6069 -16.0312 -1.3011 0.9313
-6.8226 -16.0132 -1.2762 0.9326
-6.0664 -15.9957 -1.2544 0.9337
-5.3345 -15.9789 -1.2352 0.9347
-4.6236 -15.9625 -1.2185 0.9355
-3.9305 -15.9466 -1.2042 0.9363
-3.2523 -15.9309 -1.1922 0.9369
-2.5865 -15.9156 -1.1823 0.9374
-1.9307 -15.9005 -1.1744 0.9378
-0.6396 -15.8707 -1.1646 0.9383
0.0000 -15.8560 -1.1626 0.9384
2.5672 -15.7969 -1.1735 0.9378
3.2219 -15.7818 -1.1810 0.9374
4.5623 -15.7509 -1.2024 0.9363
5.2531 -15.7350 -1.2163 0.9356
6.6701 -15.6553 -1.2477 0.9340
8.2225 -15.6666 -1.2973 0.9315
19.2059 -25.5584 -2.3441 0.8797
14.9002 -15.5128 -1.5771 0.9173
17.4442 -15.4542 -1.7088 0.9108
25.6051 -19.2409 -2.3484 0.8795
28.8177 -18.2232 -2.5000 0.8722
30.1903 -15.8452 -2.5000 0.8722
31.3676 -13.3645 -2.5000 0.8722
31.8803 -12.0906 -2.5000 0.8722
33.6544 -5.4694 -2.5000 0.8722
33.9854 -2.7436 -2.5000 0.8722
34.0959 0.0000 -2.5000 0.8722
34.0683 1.3729 -2.5000 0.8722
33.9854 2.7436 -2.5000 0.8722
33.8473 4.1098 -2.5000 0.8722
33.6545 5.4694 -2.5000 0.8722
31.8804 12.0906 -2.5000 0.8722
19.2078 8.1837 -1.5309 0.9197
14.7605 7.7469 -1.2223 0.9353
13.2076 8.3520 -1.1458 0.9392
10.8721 8.1699 -0.9972 0.9469
10.2572 8.3747 -0.9709 0.9483
9.8507 8.7270 -0.9650 0.9486
8.8317 8.4830 -0.8979 0.9521
8.2199 8.5578 -0.8700 0.9535
7.6523 8.6377 -0.8461 0.9548
7.2534 9.6526 -0.8853 0.9527
4.6170 8.7971 -0.7285 0.9609
3.7788 8.8692 -0.7069 0.9621
2.8037 8.3981 -0.6492 0.9651
1.6893 8.2749 -0.6192 0.9667
0.7209 8.9306 -0.6569 0.9647
0.3879 9.6247 -0.7063 0.9621
-0.3502 8.6895 -0.6377 0.9657
-0.7816 9.6811 -0.7122 0.9618
-1.5733 9.6811 -0.7192 0.9614
-1.7742 8.6904 -0.6503 0.9651
-2.8067 9.6897 -0.7397 0.9603
-3.2321 9.6811 -0.7484 0.9599
-3.5347 9.3202 -0.7309 0.9608
-3.5580 8.3510 -0.6656 0.9642
-4.4767 9.4345 -0.7657 0.9590
-4.7204 8.9939 -0.7448 0.9601
-4.9835 8.6317 -0.7308 0.9608
-6.2182 8.2749 -0.7589 0.9593
-6.8583 8.3999 -0.7951 0.9574
-23.2545 24.2105 -2.4614 0.8740
-24.2105 23.2545 -2.4614 0.8740
-25.1272 22.2608 -2.4614 0.8740
-25.9191 17.8907 -2.3092 0.8813
-26.6408 16.8467 -2.3112 0.8812
-25.9990 15.0106 -2.2012 0.8866
-28.5430 13.5438 -2.3165 0.8810
-29.0850 12.3919 -2.3181 0.8809
-29.5789 11.2178 -2.3195 0.8808
-30.3096 10.1188 -2.3429 0.8797
-30.7162 8.8971 -2.3448 0.8796
-31.6089 5.1370 -2.3480 0.8795
-33.3237 2.6902 -2.4513 0.8745
-34.0683 1.3729 -2.5000 0.8722
-26.0191 -1.0485 -2.5000 0.9006
-25.9557 -2.0954 -2.5000 0.9006
-25.8503 -3.1388 -2.5000 0.9006
-25.7030 -4.1771 -2.5000 0.9006
-25.5139 -5.2087 -2.5000 0.9006
-23.9564 -10.2068 -2.5000 0.9006
-23.5260 -11.1632 -2.5000 0.9006
-23.0574 -12.1014 -2.5000 0.9006
-20.9073 -13.2210 -2.3749 0.9054
-20.1243 -13.8908 -2.3476 0.9064
-18.9422 -15.4658 -2.3477 0.9064
-17.6458 -16.9487 -2.3489 0.9064
-16.9625 -17.6598 -2.3508 0.9063
-12.1754 -16.2025 -1.9458 0.9218
-11.1214 -16.1122 -1.8796 0.9243
-10.1749 -16.0904 -1.8277 0.9264
-6.8226 -16.0132 -1.6711 0.9324
-6.0794 -16.0301 -1.6459 0.9334
-4.6236 -15.9625 -1.5955 0.9354
-3.9305 -15.9466 -1.5768 0.9361
-3.2542 -15.9400 -1.5619 0.9367
-1.9375 -15.9570 -1.5432 0.9374
-1.2824 -15.8855 -1.5301 0.9380
-0.6396 -15.8707 -1.5249 0.9382
0.0000 -15.8560 -1.5223 0.9383
0.6365 -15.7943 -1.5176 0.9385
3.2219 -15.7818 -1.5464 0.9373
3.8861 -15.7665 -1.5590 0.9368
5.9613 -15.7187 -1.6140 0.9347
6.6701 -15.6553 -1.6337 0.9339
7.4424 -15.6846 -1.6667 0.9326
8.2225 -15.6666 -1.6986 0.9314
10.7733 -15.6079 -1.8207 0.9266
11.7123 -15.5862 -1.8717 0.9246
12.6351 -15.4753 -1.9180 0.9229
16.9709 -17.6686 -2.3520 0.9062
20.1242 -13.8907 -2.3476 0.9064
20.8817 -13.2048 -2.3720 0.9055
23.0574 -12.1016 -2.5000 0.9006
23.9564 -10.2069 -2.5000 0.9006
24.3480 -9.2340 -2.5000 0.9006
25.0121 -7.2448 -2.5000 0.9006
25.2835 -6.2318 -2.5000 0.9006
25.5139 -5.2087 -2.5000 0.9006
11.9948 -1.9493 -1.1667 0.9523
12.0628 -1.4647 -1.1666 0.9523
26.0190 -1.0485 -2.5000 0.9006
26.0402 0.0000 -2.5000 0.9006
25.7029 4.1771 -2.5000 0.9006
23.7423 5.8520 -2.3476 0.9064
23.2532 7.7631 -2.3535 0.9062
22.9300 8.6962 -2.3544 0.9062
16.5871 7.0671 -1.7310 0.9301
14.7244 7.7280 -1.5965 0.9354
13.1703 7.6039 -1.4600 0.9407
11.0002 8.2661 -1.3210 0.9462
9.9421 8.8080 -1.2752 0.9480
8.1129 8.4465 -1.1244 0.9540
7.5494 9.2464 -1.1460 0.9532
6.6627 9.6526 -1.1260 0.9540
5.2133 8.2442 -0.9365 0.9616
4.7598 8.2442 -0.9139 0.9625
3.9329 8.2884 -0.8808 0.9638
3.6328 8.5265 -0.8898 0.9634
3.6297 9.5708 -0.9827 0.9597
2.8037 8.3981 -0.8500 0.9650
2.0145 8.1730 -0.8081 0.9667
1.3430 8.2637 -0.8038 0.9669
1.0232 8.4267 -0.8149 0.9665
0.7001 8.6723 -0.8353 0.9656
0.3879 9.6247 -0.9248 0.9620
-0.0000 9.6238 -0.9239 0.9621
-0.7816 9.6811 -0.9325 0.9617
-1.1755 9.6811 -0.9363 0.9616
-1.5733 9.6811 -0.9416 0.9614
-2.0195 8.1935 -0.8102 0.9667
-2.8042 9.6811 -0.9676 0.9603
-3.2320 9.6811 -0.9799 0.9598
-4.6650 8.8883 -0.9637 0.9605
-4.9381 8.5530 -0.9482 0.9611
-5.2653 8.3264 -0.9458 0.9612
-5.6537 8.1908 -0.9555 0.9608
-16.2148 19.8595 -2.4614 0.9021
-17.7602 18.4903 -2.4614 0.9021
-18.4903 17.7602 -2.4614 0.9021
-19.8595 16.2147 -2.4614 0.9021
-20.4963 15.4019 -2.4614 0.9021
-21.0998 14.5642 -2.4614 0.9021
-21.6692 13.7028 -2.4614 0.9021
-22.2033 12.8191 -2.4614 0.9021
-22.7015 11.9147 -2.4614 0.9021
-23.1629 10.9909 -2.4614 0.9021
-23.5866 10.0493 -2.4614 0.9021
-24.8983 6.1369 -2.4619 0.9021
-25.9367 2.0938 -2.4982 0.9007
-26.0071 1.0481 -2.4988 0.9007
-21.0461 0.0000 -2.5000 0.9187
-21.0291 -0.8474 -2.5000 0.9187
-20.8927 -2.5368 -2.5000 0.9187
-20.7736 -3.3760 -2.5000 0.9187
-20.6208 -4.2098 -2.5000 0.9187
-20.4346 -5.0367 -2.5000 0.9187
-20.2152 -5.8554 -2.5000 0.9187
-19.9630 -6.6646 -2.5000 0.9187
-19.3620 -8.2494 -2.5000 0.9187
-18.6354 -9.7806 -2.5000 0.9187
-18.2265 -10.5231 -2.5000 0.9187
-17.3206 -11.9556 -2.5000 0.9187
-16.8252 -12.6433 -2.5000 0.9187
-14.2533 -13.6904 -2.3476 0.9235
-13.1054 -14.7929 -2.3476 0.9235
-11.2300 -16.2695 -2.3483 0.9235
-10.5671 -16.7105 -2.3485 0.9234
-9.1990 -17.5274 -2.3513 0.9234
-6.8226 -16.0132 -2.0676 0.9323
-6.0664 -15.9957 -2.0321 0.9334
-4.6236 -15.9625 -1.9741 0.9352
-3.9305 -15.9466 -1.9509 0.9360
-3.2523 -15.9309 -1.9314 0.9366
-2.5865 -15.9156 -1.9154 0.9371
-1.2824 -15.8855 -1.8931 0.9378
0.0000 -15.8560 -1.8835 0.9381
0.6365 -15.7943 -1.8777 0.9383
2.5672 -15.7969 -1.9011 0.9376
3.2219 -15.7818 -1.9133 0.9372
3.8861 -15.7665 -1.9289 0.9367
9.1945 -17.5185 -2.3501 0.9234
10.5641 -16.7057 -2.3479 0.9235
11.8726 -15.7996 -2.3476 0.9235
13.6904 -14.2532 -2.3476 0.9235
14.9091 -13.2083 -2.3660 0.9229
16.1515 -13.1873 -2.4768 0.9194
16.8252 -12.6433 -2.5000 0.9187
18.2265 -10.5231 -2.5000 0.9187
18.6354 -9.7806 -2.5000 0.9187
19.3620 -8.2494 -2.5000 0.9187
19.6785 -7.4630 -2.5000 0.9187
20.2152 -5.8554 -2.5000 0.9187
11.3274 -1.8409 -1.3632 0.9548
21.0291 -0.8474 -2.5000 0.9187
21.0461 0.0000 -2.5000 0.9187
20.8927 2.5368 -2.5000 0.9187
19.5072 3.1702 -2.3476 0.9235
19.1889 4.7296 -2.3476 0.9235
18.9829 5.4985 -2.3476 0.9235
18.7461 6.2584 -2.3476 0.9235
14.7246 7.7281 -1.9753 0.9352
13.2086 7.6260 -1.8117 0.9404
13.2077 8.3521 -1.8563 0.9390
11.0002 8.2661 -1.6345 0.9461
8.7937 8.4465 -1.4484 0.9521
7.1611 8.0832 -1.2828 0.9574
7.5494 9.2464 -1.4179 0.9531
7.2534 9.6526 -1.4342 0.9525
6.6627 9.6526 -1.3932 0.9539
5.1935 8.2128 -1.1543 0.9616
4.7417 8.2128 -1.1265 0.9625
4.3104 8.2128 -1.1018 0.9633
3.6298 8.5196 -1.1000 0.9634
2.8367 8.4970 -1.0641 0.9646
2.3852 8.2346 -1.0184 0.9661
1.6702 8.1810 -0.9918 0.9669
1.3430 8.2637 -0.9945 0.9668
0.7056 8.7401 -1.0416 0.9653
-0.3238 8.0360 -0.9553 0.9681
-0.7735 9.5818 -1.1419 0.9620
-1.1580 9.5371 -1.1412 0.9620
-1.8085 8.8584 -1.0740 0.9642
-1.9362 7.8553 -0.9610 0.9679
-2.6720 9.2246 -1.1408 0.9621
-3.4096 8.9903 -1.1421 0.9620
-4.6354 8.8321 -1.1848 0.9606
-4.9113 8.5065 -1.1668 0.9612
-5.2653 8.3264 -1.1702 0.9611
-6.1011 8.1191 -1.2064 0.9599
-12.8978 14.5586 -2.3104 0.9246
-14.9442 14.3541 -2.4614 0.9199
-15.5101 13.7408 -2.4614 0.9199
-16.5655 12.4481 -2.4614 0.9199
-17.9452 10.3606 -2.4614 0.9199
-18.7206 8.8830 -2.4614 0.9199
-19.0632 8.1221 -2.4614 0.9199
-19.3775 7.3489 -2.4618 0.9199
-20.0166 5.7979 -2.4754 0.9195
-20.2711 4.9964 -2.4800 0.9193
-20.5468 4.1947 -2.4910 0.9190
-20.7596 3.3738 -2.4983 0.9188
-20.9729 1.6931 -2.4994 0.9187
-21.0287 0.8475 -2.4999 0.9187
-17.6442 0.0000 -2.5000 0.9312
-17.6298 -0.7105 -2.5000 0.9312
-17.5869 -1.4198 -2.5000 0.9312
-17.4156 -2.8303 -2.5000 0.9312
-16.9475 -4.9089 -2.5000 0.9312
-16.4976 -6.2567 -2.5000 0.9312
-15.6231 -8.1996 -2.5000 0.9312
-15.2803 -8.8221 -2.5000 0.9312
-13.6672 -11.1589 -2.5000 0.9312
-12.7251 -12.2225 -2.5000 0.9312
-10.7850 -13.2093 -2.4162 0.9334
-9.9534 -13.2456 -2.3476 0.9353
-9.4120 -13.6356 -2.3476 0.9353
-8.2843 -14.3488 -2.3476 0.9353
-7.6998 -14.6707 -2.3476 0.9353
-6.4943 -15.2427 -2.3476 0.9353
-5.8752 -15.4919 -2.3476 0.9353
-5.2470 -15.7166 -2.3477 0.9353
-1.9975 -16.4513 -2.3481 0.9352
-1.3335 -16.5186 -2.3481 0.9352
-0.6673 -16.5589 -2.3481 0.9352
0.0000 -16.5723 -2.3481 0.9352
0.6348 -15.7517 -2.2337 0.9383
1.9975 -16.4504 -2.3480 0.9352
2.6581 -16.3561 -2.3479 0.9352
3.3144 -16.2350 -2.3478 0.9352
3.9652 -16.0876 -2.3477 0.9353
5.2467 -15.7159 -2.3476 0.9353
5.8753 -15.4918 -2.3476 0.9353
6.4943 -15.2427 -2.3476 0.9353
7.1028 -14.9688 -2.3476 0.9353
7.6998 -14.6707 -2.3476 0.9353
9.4120 -13.6356 -2.3476 0.9353
11.6814 -13.1855 -2.4960 0.9313
12.2225 -12.7250 -2.5000 0.9312
12.7250 -12.2225 -2.5000 0.9312
13.2068 -11.7002 -2.5000 0.9312
14.9125 -9.4302 -2.5000 0.9312
15.6231 -8.1996 -2.5000 0.9312
16.4975 -6.2567 -2.5000 0.9312
16.9475 -4.9089 -2.5000 0.9312
11.0621 -2.2583 -1.5997 0.9554
11.0705 -1.3442 -1.5801 0.9559
11.2432 -0.9076 -1.5982 0.9555
17.6298 -0.7104 -2.5000 0.9312
17.6441 0.0000 -2.5000 0.9312
17.6298 0.7105 -2.5000 0.9312
17.5869 1.4198 -2.5000 0.9312
16.7326 2.7193 -2.4019 0.9338
16.2337 3.3141 -2.3476 0.9353
15.9144 4.6097 -2.3476 0.9353
15.4918 5.8753 -2.3476 0.9353
15.2427 6.4943 -2.3476 0.9353
13.2083 7.6258 -2.1610 0.9402
13.2075 8.3519 -2.2141 0.9388
13.2066 9.1158 -2.2737 0.9372
10.2572 8.3747 -1.8762 0.9479
9.9114 8.7808 -1.8762 0.9479
5.1935 8.2128 -1.3768 0.9615
3.8970 8.2128 -1.2880 0.9639
3.5233 8.2695 -1.2736 0.9643
3.6297 9.5708 -1.4503 0.9595
2.8037 8.3981 -1.2545 0.9649
1.9989 8.1101 -1.1835 0.9668
1.3430 8.2637 -1.1862 0.9667
0.3879 9.6247 -1.3648 0.9618
-0.3169 7.8627 -1.1150 0.9687
-1.4304 8.8018 -1.2635 0.9646
-2.2655 7.8214 -1.1538 0.9676
-3.3217 8.7585 -1.3272 0.9629
-3.5332 8.2928 -1.2772 0.9642
-4.9835 8.6317 -1.4122 0.9605
-5.2653 8.3264 -1.3959 0.9610
-5.7117 8.2749 -1.4246 0.9602
-6.2182 8.2749 -1.4666 0.9590
-10.8313 12.2261 -2.3143 0.9361
-12.2129 10.8197 -2.3118 0.9362
-12.6322 10.3139 -2.3107 0.9362
-13.0310 9.7922 -2.3096 0.9363
-14.6824 9.2846 -2.4614 0.9322
-15.0444 8.6859 -2.4614 0.9322
-16.8467 4.8797 -2.4851 0.9316
-17.4110 2.8296 -2.4993 0.9312
-17.5139 2.1266 -2.4998 0.9312
-17.5869 1.4198 -2.5000 0.9312
-15.0648 -1.8292 -2.5000 0.9403
-14.9789 -2.4343 -2.5000 0.9403
-14.7344 -3.6317 -2.5000 0.9403
-13.9611 -5.9482 -2.5000 0.9403
-13.7102 -6.5056 -2.5000 0.9403
-13.4372 -7.0524 -2.5000 0.9403
-12.8261 -8.1107 -2.5000 0.9403
-12.1319 -9.1165 -2.5000 0.9403
-11.7550 -9.5976 -2.5000 0.9403
-10.9445 -10.5124 -2.5000 0.9403
-9.1165 -12.1319 -2.5000 0.9403
-8.6206 -12.4891 -2.5000 0.9403
-6.2677 -13.2089 -2.4086 0.9425
-3.4104 -13.8362 -2.3476 0.9439
-2.8504 -13.9623 -2.3476 0.9439
-0.5738 -14.2387 -2.3476 0.9439
1.1467 -14.2041 -2.3476 0.9439
2.8504 -13.9623 -2.3476 0.9439
3.4103 -13.8362 -2.3476 0.9439
4.5126 -13.5169 -2.3476 0.9439
5.0532 -13.3243 -2.3476 0.9439
5.6291 -13.2120 -2.3659 0.9434
8.1107 -12.8261 -2.5000 0.9403
9.1165 -12.1319 -2.5000 0.9403
10.0632 -11.3589 -2.5000 0.9403
10.5124 -10.9445 -2.5000 0.9403
10.9445 -10.5124 -2.5000 0.9403
11.3589 -10.0632 -2.5000 0.9403
11.7550 -9.5976 -2.5000 0.9403
12.1319 -9.1165 -2.5000 0.9403
12.8261 -8.1107 -2.5000 0.9403
13.9611 -5.9482 -2.5000 0.9403
14.1893 -5.3813 -2.5000 0.9403
14.3944 -4.8055 -2.5000 0.9403
14.5762 -4.2221 -2.5000 0.9403
10.8838 -1.7688 -1.8165 0.9563
10.9429 -1.3287 -1.8160 0.9563
11.1196 -0.8977 -1.8378 0.9558
15.1631 -0.6110 -2.5000 0.9403
15.1262 1.2211 -2.5000 0.9403
13.9624 2.8504 -2.3476 0.9439
12.6180 6.6224 -2.3476 0.9439
12.2973 7.0999 -2.3393 0.9441
10.8145 8.1266 -2.2285 0.9466
9.8119 8.6926 -2.1595 0.9482
9.5976 9.2186 -2.1923 0.9475
6.7747 8.2975 -1.7647 0.9575
6.0115 8.7091 -1.7433 0.9580
5.1935 8.2128 -1.6008 0.9614
4.3104 8.2128 -1.5280 0.9631
3.6297 9.5708 -1.6863 0.9594
2.8037 8.3981 -1.4586 0.9647
1.6893 8.2749 -1.3913 0.9663
1.3430 8.2637 -1.3792 0.9666
0.7209 8.9306 -1.4760 0.9643
0.3879 9.6247 -1.5869 0.9617
-0.3101 7.6957 -1.2688 0.9693
-1.0420 8.5813 -1.4241 0.9656
-1.3948 8.5827 -1.4325 0.9654
-1.8886 7.6623 -1.3001 0.9685
-3.2541 8.5802 -1.5117 0.9635
-3.5333 8.2929 -1.4850 0.9641
-3.5941 7.5744 -1.3811 0.9666
-4.7204 8.9939 -1.6733 0.9597
-4.9835 8.6317 -1.6420 0.9604
-6.8583 8.3999 -1.7865 0.9570
-9.7317 10.1318 -2.3143 0.9446
-10.1318 9.7317 -2.3143 0.9446
-11.5565 7.9769 -2.3133 0.9447
-12.1425 7.0105 -2.3098 0.9447
-12.7403 6.0453 -2.3231 0.9444
-13.8176 5.8871 -2.4743 0.9409
-14.0980 5.3467 -2.4839 0.9407
-14.7311 3.6309 -2.4994 0.9403
-15.0648 1.8292 -2.5000 0.9403
-15.1262 1.2211 -2.5000 0.9403
-15.1631 0.6111 -2.5000 0.9403
-13.2898 -0.5355 -2.5000 0.9473
-13.2574 -1.0703 -2.5000 0.9473
-13.2036 -1.6032 -2.5000 0.9473
-12.7754 -3.7004 -2.5000 0.9473
-12.4362 -4.7164 -2.5000 0.9473
-12.2362 -5.2134 -2.5000 0.9473
-12.0164 -5.7018 -2.5000 0.9473
-11.5186 -6.6503 -2.5000 0.9473
-11.2415 -7.1087 -2.5000 0.9473
-10.9461 -7.5556 -2.5000 0.9473
-9.9556 -8.8199 -2.5000 0.9473
-9.5924 -9.2136 -2.5000 0.9473
-9.2136 -9.5924 -2.5000 0.9473
-8.4119 -10.3027 -2.5000 0.9473
-7.1087 -11.2415 -2.5000 0.9473
-6.6503 -11.5186 -2.5000 0.9473
-6.1810 -11.7770 -2.5000 0.9473
-4.7165 -12.4362 -2.5000 0.9473
-3.7005 -12.7754 -2.5000 0.9473
-2.6605 -13.0318 -2.5000 0.9473
-2.1335 -13.1283 -2.5000 0.9473
-0.0000 -13.1932 -2.4798 0.9477
1.0649 -13.1913 -2.4875 0.9476
1.6015 -13.1893 -2.4973 0.9474
2.1335 -13.1283 -2.5000 0.9473
2.6604 -13.0317 -2.5000 0.9473
3.7004 -12.7754 -2.5000 0.9473
4.2119 -12.6161 -2.5000 0.9473
4.7164 -12.4362 -2.5000 0.9473
5.7018 -12.0164 -2.5000 0.9473
6.1811 -11.7771 -2.5000 0.9473
7.1087 -11.2415 -2.5000 0.9473
8.4119 -10.3027 -2.5000 0.9473
9.2136 -9.5924 -2.5000 0.9473
9.5923 -9.2136 -2.5000 0.9473
9.9556 -8.8199 -2.5000 0.9473
10.3027 -8.4119 -2.5000 0.9473
10.6330 -7.9902 -2.5000 0.9473
10.9462 -7.5556 -2.5000 0.9473
11.2415 -7.1087 -2.5000 0.9473
12.0164 -5.7018 -2.5000 0.9473
12.2362 -5.2134 -2.5000 0.9473
12.4362 -4.7164 -2.5000 0.9473
12.6161 -4.2119 -2.5000 0.9473
10.8856 -2.2223 -2.0883 0.9558
11.0658 -0.8933 -2.0867 0.9558
13.3006 0.0000 -2.5000 0.9473
12.1268 2.9890 -2.3476 0.9504
11.8470 3.9551 -2.3476 0.9504
11.6781 4.4289 -2.3476 0.9504
11.0591 5.8043 -2.3476 0.9504
10.8164 6.2449 -2.3476 0.9504
10.2528 7.0770 -2.3416 0.9506
9.6256 7.8591 -2.3357 0.9507
8.6160 8.9702 -2.3378 0.9506
7.0126 7.9156 -1.9877 0.9579
6.5445 8.7091 -2.0476 0.9566
6.0115 8.7091 -1.9891 0.9578
4.3104 8.2128 -1.7434 0.9630
3.8970 8.2128 -1.7087 0.9637
2.3852 8.2346 -1.6114 0.9657
1.6893 8.2749 -1.5874 0.9662
1.3430 8.2637 -1.5736 0.9665
1.0232 8.4267 -1.5955 0.9660
-0.0000 9.6243 -1.8090 0.9616
-0.3036 7.5344 -1.4173 0.9698
-0.6778 8.3958 -1.5832 0.9663
-1.0196 8.3972 -1.5899 0.9662
-1.7149 8.4001 -1.6115 0.9657
-1.8481 7.4981 -1.4515 0.9691
-2.8037 8.3982 -1.6642 0.9646
-3.4954 8.2041 -1.6762 0.9644
-3.4931 7.3616 -1.5316 0.9674
-4.9631 8.5963 -1.8657 0.9604
-5.6932 8.2480 -1.8838 0.9600
-6.2182 8.2749 -1.9455 0.9587
-8.1700 9.2220 -2.3158 0.9511
-8.5328 8.8836 -2.3153 0.9511
-8.8817 8.5310 -2.3148 0.9511
-9.2161 8.1647 -2.3143 0.9511
-9.5376 7.7872 -2.3143 0.9511
-10.1379 6.9977 -2.3154 0.9511
-10.4771 6.6253 -2.3300 0.9508
-11.0346 5.7914 -2.3424 0.9505
-11.4837 4.8928 -2.3462 0.9505
-11.6766 4.4283 -2.3473 0.9504
-12.7739 3.7000 -2.4997 0.9473
-13.0318 2.6605 -2.5000 0.9473
-13.1283 2.1336 -2.5000 0.9473
-13.2898 0.5356 -2.5000 0.9473
-11.8270 0.0000 -2.5000 0.9528
-11.7407 -1.4256 -2.5000 0.9528
-11.6738 -1.8972 -2.5000 0.9528
-11.4833 -2.8304 -2.5000 0.9528
-10.6851 -5.0701 -2.5000 0.9528
-10.4723 -5.4963 -2.5000 0.9528
-9.7334 -6.7185 -2.5000 0.9528
-9.4550 -7.1050 -2.5000 0.9528
-9.1612 -7.4799 -2.5000 0.9528
-6.3211 -9.9960 -2.5000 0.9528
-5.9135 -10.2425 -2.5000 0.9528
-5.0702 -10.6851 -2.5000 0.9528
-4.6358 -10.8806 -2.5000 0.9528
-3.2905 -11.3600 -2.5000 0.9528
-2.3657 -11.5880 -2.5000 0.9528
-1.8972 -11.6738 -2.5000 0.9528
-1.4256 -11.7407 -2.5000 0.9528
-0.9517 -11.7886 -2.5000 0.9528
-0.4762 -11.8174 -2.5000 0.9528
0.9517 -11.7886 -2.5000 0.9528
2.3657 -11.5880 -2.5000 0.9528
3.2905 -11.3600 -2.5000 0.9528
4.1939 -11.0584 -2.5000 0.9528
5.4965 -10.4722 -2.5000 0.9528
6.7185 -9.7334 -2.5000 0.9528
7.4800 -9.1612 -2.5000 0.9528
7.8427 -8.8526 -2.5000 0.9528
8.1928 -8.5296 -2.5000 0.9528
8.5296 -8.1928 -2.5000 0.9528
8.8526 -7.8427 -2.5000 0.9528
10.2425 -5.9135 -2.5000 0.9528
10.6851 -5.0701 -2.5000 0.9528
11.2183 -3.7452 -2.5000 0.9528
11.3600 -3.2905 -2.5000 0.9528
11.5879 -2.3657 -2.5000 0.9528
11.7886 -0.9517 -2.5000 0.9528
11.8174 -0.4762 -2.5000 0.9528
11.7886 0.9517 -2.5000 0.9528
11.5879 2.3657 -2.5000 0.9528
10.2173 4.3532 -2.3476 0.9556
10.0337 4.7611 -2.3476 0.9556
9.8339 5.1612 -2.3476 0.9556
9.3867 5.9358 -2.3476 0.9556
8.8786 6.6718 -2.3476 0.9556
8.5834 7.0082 -2.3423 0.9557
8.2624 7.3199 -2.3333 0.9559
7.9603 7.6460 -2.3331 0.9559
7.6479 7.9623 -2.3337 0.9559
7.0237 7.9282 -2.2389 0.9576
6.9854 8.5555 -2.3347 0.9558
6.0951 8.1111 -2.1447 0.9594
5.7737 8.3646 -2.1484 0.9593
5.2782 8.3467 -2.0875 0.9604
4.3104 8.2128 -1.9606 0.9628
3.8970 8.2128 -1.9215 0.9635
3.6298 8.5196 -1.9575 0.9628
3.6297 9.5708 -2.1637 0.9590
2.3852 8.2346 -1.8122 0.9656
1.6893 8.2749 -1.7852 0.9661
1.3430 8.2637 -1.7697 0.9664
0.7159 8.8684 -1.8807 0.9643
0.0000 9.6245 -2.0344 0.9614
-0.2887 7.1652 -1.5158 0.9711
-0.6624 8.2045 -1.7399 0.9669
-1.6758 8.2087 -1.7709 0.9663
-1.7675 7.1709 -1.5612 0.9703
-2.0340 7.0223 -1.5454 0.9706
-2.7205 8.1488 -1.8159 0.9655
-3.5318 7.4430 -1.7414 0.9669
-3.7080 7.0649 -1.6866 0.9679
-4.9835 8.6317 -2.1068 0.9601
-5.2653 8.3264 -2.0824 0.9605
-5.7117 8.2749 -2.1254 0.9597
-6.1193 8.1433 -2.1532 0.9592
-7.2688 8.2048 -2.3170 0.9562
-7.5901 7.9022 -2.3161 0.9562
-7.9014 7.5894 -2.3158 0.9562
-8.1998 7.2644 -2.3156 0.9562
-8.6027 7.0237 -2.3475 0.9556
-8.8786 6.6718 -2.3476 0.9556
-10.0337 4.7611 -2.3476 0.9556
-10.5345 3.5169 -2.3476 0.9556
-11.7886 0.9517 -2.5000 0.9528
-11.8174 0.4762 -2.5000 0.9528
-10.6027 -0.8559 -2.5000 0.9572
-10.5596 -1.2822 -2.5000 0.9572
-10.4995 -1.7063 -2.5000 0.9572
-10.4222 -2.1277 -2.5000 0.9572
-10.0898 -3.3685 -2.5000 0.9572
-9.9459 -3.7720 -2.5000 0.9572
-9.6102 -4.5601 -2.5000 0.9572
-9.4188 -4.9433 -2.5000 0.9572
-9.2121 -5.3186 -2.5000 0.9572
-8.5038 -6.3902 -2.5000 0.9572
-8.2396 -6.7274 -2.5000 0.9572
-7.9621 -7.0538 -2.5000 0.9572
-6.7274 -8.2396 -2.5000 0.9572
-6.0426 -8.7542 -2.5000 0.9572
-5.6852 -8.9904 -2.5000 0.9572
-5.3186 -9.2121 -2.5000 0.9572
-4.5601 -9.6102 -2.5000 0.9572
-3.3685 -10.0898 -2.5000 0.9572
-1.2822 -10.5596 -2.5000 0.9572
-0.8560 -10.6027 -2.5000 0.9572
-0.4283 -10.6286 -2.5000 0.9572
0.4284 -10.6285 -2.5000 0.9572
0.8560 -10.6027 -2.5000 0.9572
1.7063 -10.4994 -2.5000 0.9572
2.5457 -10.3281 -2.5000 0.9572
3.3685 -10.0897 -2.5000 0.9572
4.1695 -9.7860 -2.5000 0.9572
4.5601 -9.6102 -2.5000 0.9572
4.9434 -9.4187 -2.5000 0.9572
5.6852 -8.9904 -2.5000 0.9572
6.0426 -8.7542 -2.5000 0.9572
6.3902 -8.5038 -2.5000 0.9572
6.7274 -8.2396 -2.5000 0.9572
7.0538 -7.9620 -2.5000 0.9572
7.6716 -7.3686 -2.5000 0.9572
8.2396 -6.7274 -2.5000 0.9572
8.5038 -6.3902 -2.5000 0.9572
8.9904 -5.6852 -2.5000 0.9572
9.2121 -5.3186 -2.5000 0.9572
9.4188 -4.9433 -2.5000 0.9572
9.7860 -4.1694 -2.5000 0.9572
9.9460 -3.7720 -2.5000 0.9572
10.0897 -3.3685 -2.5000 0.9572
10.2172 -2.9594 -2.5000 0.9572
10.3281 -2.5456 -2.5000 0.9572
10.4994 -1.7063 -2.5000 0.9572
10.5596 -1.2822 -2.5000 0.9572
10.6286 0.4283 -2.5000 0.9572
10.3281 2.5457 -2.5000 0.9572
9.5944 2.7791 -2.3476 0.9598
9.4747 3.1631 -2.3476 0.9598
9.1894 3.9153 -2.3476 0.9598
8.8446 4.6420 -2.3476 0.9598
8.6505 4.9944 -2.3476 0.9598
8.2206 5.6743 -2.3476 0.9598
7.9854 6.0007 -2.3476 0.9598
7.4767 6.6238 -2.3476 0.9598
6.5783 7.4254 -2.3315 0.9601
5.6365 8.1658 -2.3320 0.9600
5.3037 8.3872 -2.3322 0.9600
4.9622 8.5947 -2.3325 0.9600
3.9059 8.2314 -2.1413 0.9633
3.8594 9.0582 -2.3141 0.9603
3.5191 9.2792 -2.3324 0.9600
1.6893 8.2749 -1.9849 0.9659
0.0000 9.6247 -2.2620 0.9612
-0.2918 7.2410 -1.7032 0.9707
-0.9738 8.0197 -1.8987 0.9673
-1.3036 8.0211 -1.9099 0.9672
-1.6378 8.0224 -1.9243 0.9669
-2.0469 7.0667 -1.7291 0.9702
-2.6275 7.8702 -1.9500 0.9665
-2.9730 7.8392 -1.9704 0.9661
-3.5318 7.4432 -1.9363 0.9667
-5.6045 8.1195 -2.3187 0.9603
-5.9247 7.8844 -2.3179 0.9603
-6.8778 7.1606 -2.3335 0.9600
-7.7373 6.3173 -2.3476 0.9598
-8.2206 5.6742 -2.3476 0.9598
-8.6505 4.9944 -2.3476 0.9598
-8.8446 4.6420 -2.3476 0.9598
-9.0243 4.2821 -2.3476 0.9598
-9.4747 3.1631 -2.3476 0.9598
-9.8106 2.8417 -2.4005 0.9589
-10.4222 2.1277 -2.5000 0.9572
-10.4995 1.7063 -2.5000 0.9572
-10.5596 1.2822 -2.5000 0.9572
-10.6027 0.8559 -2.5000 0.9572
-9.6555 0.0000 -2.5000 0.9609
-9.4604 -1.9313 -2.5000 0.9609
-9.3750 -2.3107 -2.5000 0.9609
-9.2743 -2.6863 -2.5000 0.9609
-9.1586 -3.0576 -2.5000 0.9609
-8.7233 -4.1392 -2.5000 0.9609
-8.5496 -4.4871 -2.5000 0.9609
-8.1608 -5.1605 -2.5000 0.9609
-7.9463 -5.4850 -2.5000 0.9609
-7.7190 -5.8005 -2.5000 0.9609
-7.4792 -6.1066 -2.5000 0.9609
-6.6886 -6.9636 -2.5000 0.9609
-6.4028 -7.2272 -2.5000 0.9609
-5.1605 -8.1607 -2.5000 0.9609
-4.8278 -8.3619 -2.5000 0.9609
-3.4239 -9.0280 -2.5000 0.9609
-3.0576 -9.1586 -2.5000 0.9609
-1.9314 -9.4604 -2.5000 0.9609
-1.1638 -9.5851 -2.5000 0.9609
-0.3888 -9.6477 -2.5000 0.9609
0.3888 -9.6477 -2.5000 0.9609
1.9314 -9.4604 -2.5000 0.9609
2.3107 -9.3749 -2.5000 0.9609
2.6863 -9.2743 -2.5000 0.9609
3.0576 -9.1586 -2.5000 0.9609
3.4239 -9.0281 -2.5000 0.9609
3.7847 -8.8829 -2.5000 0.9609
5.1605 -8.1607 -2.5000 0.9609
6.6886 -6.9636 -2.5000 0.9609
7.2272 -6.4028 -2.5000 0.9609
7.7190 -5.8005 -2.5000 0.9609
8.1607 -5.1605 -2.5000 0.9609
8.3619 -4.8278 -2.5000 0.9609
8.5495 -4.4871 -2.5000 0.9609
9.0281 -3.4239 -2.5000 0.9609
9.3749 -2.3107 -2.5000 0.9609
9.4604 -1.9313 -2.5000 0.9609
9.5851 -1.1638 -2.5000 0.9609
9.6242 -0.7769 -2.5000 0.9609
9.6476 0.3888 -2.5000 0.9609
9.5851 1.1639 -2.5000 0.9609
9.5305 1.5489 -2.5000 0.9609
9.4604 1.9314 -2.5000 0.9609
9.3749 2.3107 -2.5000 0.9609
8.6003 2.8712 -2.3476 0.9632
8.3414 3.5539 -2.3476 0.9632
8.1915 3.8869 -2.3476 0.9632
7.6633 4.8460 -2.3476 0.9632
7.4619 5.1506 -2.3476 0.9632
6.5391 6.2809 -2.3476 0.9632
6.2809 6.5391 -2.3476 0.9632
5.4070 7.1951 -2.3303 0.9635
4.1814 7.9671 -2.3297 0.9635
3.8574 8.1294 -2.3298 0.9635
3.5270 8.2783 -2.3298 0.9635
2.8367 8.4970 -2.3194 0.9637
1.9990 8.1101 -2.1627 0.9661
1.3430 8.2637 -2.1677 0.9660
0.7001 8.6723 -2.2527 0.9647
-0.2917 7.2383 -1.8757 0.9705
-1.2741 7.8400 -2.0566 0.9677
-1.8059 7.3267 -1.9538 0.9693
-2.0493 7.0749 -1.9071 0.9700
-2.9026 7.6534 -2.1193 0.9667
-3.5319 7.4433 -2.1332 0.9665
-4.7874 7.5706 -2.3192 0.9637
-5.3989 7.1847 -2.3269 0.9635
-5.7339 7.0228 -2.3474 0.9632
-6.0125 6.7867 -2.3476 0.9632
-6.2809 6.5391 -2.3476 0.9632
-6.5391 6.2809 -2.3476 0.9632
-6.7867 6.0125 -2.3476 0.9632
-7.0233 5.7343 -2.3476 0.9632
-7.6633 4.8460 -2.3476 0.9632
-8.0284 4.2136 -2.3476 0.9632
-8.1915 3.8869 -2.3476 0.9632
-8.4777 3.2152 -2.3476 0.9632
-9.4604 1.9314 -2.5000 0.9609
-9.5305 1.5489 -2.5000 0.9609
-9.6242 0.7769 -2.5000 0.9609
-9.6477 0.3888 -2.5000 0.9609
-8.8238 -0.3556 -2.5000 0.9640
-8.8023 -0.7106 -2.5000 0.9640
-8.6525 -1.7664 -2.5000 0.9640
-8.5744 -2.1134 -2.5000 0.9640
-8.4823 -2.4569 -2.5000 0.9640
-8.3765 -2.7965 -2.5000 0.9640
-8.1243 -3.4614 -2.5000 0.9640
-7.2678 -5.0166 -2.5000 0.9640
-6.8405 -5.5851 -2.5000 0.9640
-6.6101 -5.8560 -2.5000 0.9640
-6.3689 -6.1174 -2.5000 0.9640
-6.1174 -6.3689 -2.5000 0.9640
-5.8560 -6.6101 -2.5000 0.9640
-5.5851 -6.8405 -2.5000 0.9640
-5.0166 -7.2677 -2.5000 0.9640
-4.4155 -7.6478 -2.5000 0.9640
-2.1134 -8.5743 -2.5000 0.9640
-1.7664 -8.6525 -2.5000 0.9640
-1.4166 -8.7166 -2.5000 0.9640
-1.0645 -8.7666 -2.5000 0.9640
-0.7106 -8.8023 -2.5000 0.9640
0.0000 -8.8310 -2.5000 0.9640
0.3556 -8.8238 -2.5000 0.9640
0.7106 -8.8023 -2.5000 0.9640
1.0645 -8.7666 -2.5000 0.9640
1.4166 -8.7166 -2.5000 0.9640
1.7664 -8.6525 -2.5000 0.9640
2.1134 -8.5744 -2.5000 0.9640
3.1315 -8.2571 -2.5000 0.9640
3.4614 -8.1243 -2.5000 0.9640
4.1039 -7.8194 -2.5000 0.9640
4.4155 -7.6478 -2.5000 0.9640
5.3051 -7.0598 -2.5000 0.9640
5.5851 -6.8405 -2.5000 0.9640
5.8560 -6.6101 -2.5000 0.9640
6.1174 -6.3689 -2.5000 0.9640
6.6101 -5.8560 -2.5000 0.9640
6.8405 -5.5851 -2.5000 0.9640
7.0598 -5.3051 -2.5000 0.9640
7.6478 -4.4155 -2.5000 0.9640
7.9783 -3.7858 -2.5000 0.9640
8.1243 -3.4614 -2.5000 0.9640
8.2571 -3.1315 -2.5000 0.9640
8.3765 -2.7965 -2.5000 0.9640
8.7166 -1.4166 -2.5000 0.9640
8.7666 -1.0645 -2.5000 0.9640
8.8310 0.0000 -2.5000 0.9640
8.8238 0.3556 -2.5000 0.9640
8.8023 0.7106 -2.5000 0.9640
8.7166 1.4166 -2.5000 0.9640
8.6525 1.7664 -2.5000 0.9640
8.5743 2.1134 -2.5000 0.9640
8.1227 2.7118 -2.4242 0.9650
7.7537 2.9406 -2.3476 0.9661
7.4920 3.5550 -2.3476 0.9661
7.3427 3.8538 -2.3476 0.9661
7.1816 4.1463 -2.3476 0.9661
7.0088 4.4321 -2.3476 0.9661
6.4235 5.2446 -2.3476 0.9661
4.7108 6.8247 -2.3476 0.9661
4.4272 7.0011 -2.3450 0.9662
4.1217 7.1389 -2.3336 0.9663
3.5256 7.4301 -2.3282 0.9664
2.9154 7.6872 -2.3274 0.9664
2.6034 7.7980 -2.3273 0.9664
2.2872 7.8962 -2.3272 0.9664
1.9673 7.9815 -2.3271 0.9664
1.6442 8.0537 -2.3270 0.9664
1.3184 8.1127 -2.3268 0.9664
0.9906 8.1583 -2.3265 0.9664
0.6612 8.1905 -2.3262 0.9664
-0.2919 7.2442 -2.0525 0.9703
-0.6177 7.6513 -2.1731 0.9686
-0.9292 7.6526 -2.1823 0.9685
-1.2439 7.6538 -2.1952 0.9683
-1.8059 7.3269 -2.1363 0.9691
-2.4987 7.4845 -2.2338 0.9677
-2.8380 7.4831 -2.2657 0.9673
-3.5142 7.4060 -2.3206 0.9665
-3.7218 7.0912 -2.2672 0.9673
-4.1228 7.1409 -2.3343 0.9663
-4.4318 7.0087 -2.3475 0.9661
-5.4990 6.2071 -2.3476 0.9661
-5.7445 5.9807 -2.3476 0.9661
-6.2071 5.4990 -2.3476 0.9661
-6.4235 5.2446 -2.3476 0.9661
-6.6295 4.9817 -2.3476 0.9661
-7.4920 3.5550 -2.3476 0.9661
-7.6291 3.2504 -2.3476 0.9661
-8.4823 2.4569 -2.5000 0.9640
-8.5744 2.1134 -2.5000 0.9640
-8.7666 1.0645 -2.5000 0.9640
-8.8023 0.7106 -2.5000 0.9640
-8.1280 0.0000 -2.5000 0.9666
-8.1214 -0.3273 -2.5000 0.9666
-7.8918 -1.9451 -2.5000 0.9666
-7.8071 -2.2613 -2.5000 0.9666
-7.7097 -2.5739 -2.5000 0.9666
-7.3432 -3.4844 -2.5000 0.9666
-7.1969 -3.7772 -2.5000 0.9666
-6.8697 -4.3441 -2.5000 0.9666
-6.4978 -4.8828 -2.5000 0.9666
-6.2960 -5.1405 -2.5000 0.9666
-6.0839 -5.3898 -2.5000 0.9666
-5.8619 -5.6304 -2.5000 0.9666
-5.6304 -5.8619 -2.5000 0.9666
-5.3898 -6.0839 -2.5000 0.9666
-4.8828 -6.4978 -2.5000 0.9666
-4.3441 -6.8697 -2.5000 0.9666
-2.2613 -7.8071 -2.5000 0.9666
-1.6258 -7.9637 -2.5000 0.9666
-1.3038 -8.0227 -2.5000 0.9666
-0.9797 -8.0687 -2.5000 0.9666
-0.6540 -8.1016 -2.5000 0.9666
-0.0000 -8.1280 -2.5000 0.9666
0.6540 -8.1016 -2.5000 0.9666
1.3038 -8.0227 -2.5000 0.9666
1.9452 -7.8918 -2.5000 0.9666
2.5738 -7.7097 -2.5000 0.9666
3.1859 -7.4775 -2.5000 0.9666
3.4844 -7.3432 -2.5000 0.9666
3.7772 -7.1969 -2.5000 0.9666
4.3441 -6.8697 -2.5000 0.9666
4.8828 -6.4978 -2.5000 0.9666
5.1405 -6.2960 -2.5000 0.9666
5.6304 -5.8619 -2.5000 0.9666
5.8619 -5.6304 -2.5000 0.9666
6.0839 -5.3898 -2.5000 0.9666
6.2960 -5.1405 -2.5000 0.9666
6.6892 -4.6172 -2.5000 0.9666
6.8697 -4.3441 -2.5000 0.9666
7.0390 -4.0640 -2.5000 0.9666
7.3432 -3.4844 -2.5000 0.9666
7.5998 -2.8822 -2.5000 0.9666
7.7096 -2.5739 -2.5000 0.9666
7.9637 -1.6258 -2.5000 0.9666
8.0687 -0.9797 -2.5000 0.9666
8.1016 -0.6540 -2.5000 0.9666
8.1280 0.0000 -2.5000 0.9666
8.1214 0.3273 -2.5000 0.9666
8.0687 0.9797 -2.5000 0.9666
7.9637 1.6258 -2.5000 0.9666
7.8918 1.9451 -2.5000 0.9666
7.8070 2.2613 -2.5000 0.9666
7.7097 2.5739 -2.5000 0.9666
7.1809 2.7234 -2.3622 0.9684
7.0217 2.9917 -2.3476 0.9686
6.8956 3.2720 -2.3476 0.9686
6.7582 3.5470 -2.3476 0.9686
6.4509 4.0793 -2.3476 0.9686
6.1017 4.5852 -2.3476 0.9686
5.9121 4.8271 -2.3476 0.9686
5.5045 5.2872 -2.3476 0.9686
5.0613 5.7130 -2.3476 0.9686
4.8271 5.9122 -2.3476 0.9686
4.5851 6.1017 -2.3476 0.9686
4.0793 6.4509 -2.3476 0.9686
2.6950 7.1060 -2.3376 0.9687
2.3957 7.1764 -2.3271 0.9688
2.1046 7.2659 -2.3267 0.9688
1.8101 7.3437 -2.3264 0.9688
1.5127 7.4096 -2.3260 0.9688
0.3043 7.5519 -2.3247 0.9689
-0.2922 7.2503 -2.2318 0.9701
-0.6039 7.4807 -2.3084 0.9691
-1.2116 7.4550 -2.3231 0.9689
-1.5106 7.3992 -2.3228 0.9689
-2.3951 7.1743 -2.3264 0.9688
-2.6947 7.1053 -2.3373 0.9687
-3.2720 6.8956 -2.3476 0.9686
-4.8271 5.9122 -2.3476 0.9686
-5.0613 5.7130 -2.3476 0.9686
-5.2872 5.5046 -2.3476 0.9686
-5.5046 5.2872 -2.3476 0.9686
-5.7130 5.0613 -2.3476 0.9686
-6.2814 4.3358 -2.3476 0.9686
-6.4509 4.0793 -2.3476 0.9686
-6.6099 3.8162 -2.3476 0.9686
-6.7582 3.5470 -2.3476 0.9686
-7.1728 2.7203 -2.3595 0.9684
-7.7097 2.5739 -2.5000 0.9666
-7.8071 2.2613 -2.5000 0.9666
-7.9637 1.6258 -2.5000 0.9666
-8.0227 1.3038 -2.5000 0.9666
-8.1214 0.3273 -2.5000 0.9666
-7.5209 0.0000 -2.5000 0.9688
-7.5148 -0.3028 -2.5000 0.9688
-7.4660 -0.9065 -2.5000 0.9688
-7.4235 -1.2064 -2.5000 0.9688
-7.3689 -1.5044 -2.5000 0.9688
-7.3023 -1.7999 -2.5000 0.9688
-7.0322 -2.6669 -2.5000 0.9688
-6.7948 -3.2241 -2.5000 0.9688
-6.3566 -4.0197 -2.5000 0.9688
-5.8257 -4.7565 -2.5000 0.9688
-5.4241 -5.2099 -2.5000 0.9688
-4.9873 -5.6295 -2.5000 0.9688
-4.7565 -5.8257 -2.5000 0.9688
-4.5181 -6.0125 -2.5000 0.9688
-3.2241 -6.7947 -2.5000 0.9688
-2.6669 -7.0321 -2.5000 0.9688
-2.3816 -7.1338 -2.5000 0.9688
-1.5044 -7.3689 -2.5000 0.9688
-0.6052 -7.4965 -2.5000 0.9688
-0.3029 -7.5148 -2.5000 0.9688
0.0000 -7.5209 -2.5000 0.9688
1.2064 -7.4235 -2.5000 0.9688
2.6669 -7.0321 -2.5000 0.9688
2.9479 -6.9191 -2.5000 0.9688
3.2242 -6.7947 -2.5000 0.9688
3.4951 -6.6594 -2.5000 0.9688
4.2723 -6.1896 -2.5000 0.9688
4.7566 -5.8257 -2.5000 0.9688
4.9873 -5.6294 -2.5000 0.9688
6.1896 -4.2723 -2.5000 0.9688
6.3566 -4.0197 -2.5000 0.9688
6.5133 -3.7604 -2.5000 0.9688
6.6594 -3.4951 -2.5000 0.9688
6.7947 -3.2241 -2.5000 0.9688
6.9191 -2.9479 -2.5000 0.9688
7.1338 -2.3816 -2.5000 0.9688
7.2240 -2.0924 -2.5000 0.9688
7.4235 -1.2064 -2.5000 0.9688
7.4661 -0.9065 -2.5000 0.9688
7.5148 0.3028 -2.5000 0.9688
7.4965 0.6052 -2.5000 0.9688
7.4235 1.2065 -2.5000 0.9688
7.3689 1.5044 -2.5000 0.9688
7.3023 1.7999 -2.5000 0.9688
7.1338 2.3816 -2.5000 0.9688
6.3805 3.0276 -2.3476 0.9707
6.1162 3.5312 -2.3476 0.9707
5.9691 3.7746 -2.3476 0.9707
5.6460 4.2427 -2.3476 0.9707
5.4706 4.4666 -2.3476 0.9707
5.2863 4.6833 -2.3476 0.9707
4.8923 5.0934 -2.3476 0.9707
4.4666 5.4706 -2.3476 0.9707
4.2427 5.6460 -2.3476 0.9707
4.0119 5.8123 -2.3476 0.9707
3.7746 5.9691 -2.3476 0.9707
3.5312 6.1162 -2.3476 0.9707
3.2821 6.2535 -2.3476 0.9707
3.0276 6.3805 -2.3476 0.9707
2.7682 6.4973 -2.3476 0.9707
2.5043 6.6035 -2.3476 0.9707
2.2364 6.6989 -2.3476 0.9707
1.6901 6.8572 -2.3476 0.9707
1.1325 6.9709 -2.3475 0.9707
0.5674 7.0285 -2.3439 0.9707
0.2838 7.0418 -2.3426 0.9707
-0.2838 7.0424 -2.3428 0.9707
-0.8510 7.0082 -2.3467 0.9707
-1.1330 6.9709 -2.3476 0.9707
-1.4127 6.9197 -2.3476 0.9707
-2.2364 6.6990 -2.3476 0.9707
-2.5044 6.6035 -2.3476 0.9707
-2.7682 6.4973 -2.3476 0.9707
-3.0276 6.3806 -2.3476 0.9707
-3.2821 6.2535 -2.3476 0.9707
-3.5312 6.1162 -2.3476 0.9707
-4.6833 5.2863 -2.3476 0.9707
-4.8923 5.0934 -2.3476 0.9707
-5.0934 4.8923 -2.3476 0.9707
-5.8123 4.0119 -2.3476 0.9707
-6.1162 3.5312 -2.3476 0.9707
-6.3805 3.0276 -2.3476 0.9707
-6.4973 2.7682 -2.3476 0.9707
-7.1338 2.3816 -2.5000 0.9688
-7.2239 2.0925 -2.5000 0.9688
-7.3024 1.7999 -2.5000 0.9688
-7.3689 1.5044 -2.5000 0.9688
-7.4235 1.2064 -2.5000 0.9688
-7.4661 0.9065 -2.5000 0.9688
-7.4965 0.6052 -2.5000 0.9688
-7.5148 0.3028 -2.5000 0.9688
-6.9852 -0.2815 -2.5000 0.9707
-6.9399 -0.8426 -2.5000 0.9707
-6.7878 -1.6730 -2.5000 0.9707
-6.6311 -2.2138 -2.5000 0.9707
-6.4314 -2.7402 -2.5000 0.9707
-5.7534 -3.9713 -2.5000 0.9707
-5.5888 -4.1997 -2.5000 0.9707
-5.2327 -4.6358 -2.5000 0.9707
-4.8428 -5.0418 -2.5000 0.9707
-4.4214 -5.4152 -2.5000 0.9707
-4.1997 -5.5888 -2.5000 0.9707
-3.9713 -5.7534 -2.5000 0.9707
-3.4954 -6.0543 -2.5000 0.9707
-2.7402 -6.4314 -2.5000 0.9707
-2.4790 -6.5366 -2.5000 0.9707
-2.2138 -6.6311 -2.5000 0.9707
-1.6730 -6.7877 -2.5000 0.9707
-1.1214 -6.9003 -2.5000 0.9707
-0.5625 -6.9682 -2.5000 0.9707
-0.2815 -6.9852 -2.5000 0.9707
0.2815 -6.9852 -2.5000 0.9707
0.5625 -6.9682 -2.5000 0.9707
1.1214 -6.9003 -2.5000 0.9707
1.3983 -6.8496 -2.5000 0.9707
2.2138 -6.6311 -2.5000 0.9707
2.4790 -6.5366 -2.5000 0.9707
2.7402 -6.4314 -2.5000 0.9707
2.9969 -6.3159 -2.5000 0.9707
3.2488 -6.1901 -2.5000 0.9707
3.7364 -5.9086 -2.5000 0.9707
3.9713 -5.7534 -2.5000 0.9707
4.1997 -5.5888 -2.5000 0.9707
4.6358 -5.2327 -2.5000 0.9707
4.8427 -5.0418 -2.5000 0.9707
5.2328 -4.6358 -2.5000 0.9707
5.4152 -4.4213 -2.5000 0.9707
5.5888 -4.1997 -2.5000 0.9707
5.7534 -3.9712 -2.5000 0.9707
5.9086 -3.7364 -2.5000 0.9707
6.1901 -3.2488 -2.5000 0.9707
6.5366 -2.4790 -2.5000 0.9707
6.9003 -1.1214 -2.5000 0.9707
6.9399 -0.8426 -2.5000 0.9707
6.9682 -0.5625 -2.5000 0.9707
6.9852 0.2815 -2.5000 0.9707
6.9682 0.5625 -2.5000 0.9707
6.9399 0.8427 -2.5000 0.9707
6.7877 1.6730 -2.5000 0.9707
6.7149 1.9450 -2.5000 0.9707
6.6311 2.2138 -2.5000 0.9707
6.3448 2.7033 -2.4663 0.9711
5.6852 3.2824 -2.3476 0.9725
5.0850 4.1518 -2.3476 0.9725
4.7345 4.5475 -2.3476 0.9725
4.5475 4.7345 -2.3476 0.9725
4.3532 4.9137 -2.3476 0.9725
3.7292 5.4026 -2.3476 0.9725
3.2823 5.6852 -2.3476 0.9725
3.0508 5.8128 -2.3476 0.9725
2.5731 6.0394 -2.3476 0.9725
2.3279 6.1381 -2.3476 0.9725
1.8264 6.3055 -2.3476 0.9725
1.0531 6.4797 -2.3476 0.9725
0.7913 6.5168 -2.3476 0.9725
-0.2643 6.5594 -2.3476 0.9725
-0.5282 6.5434 -2.3476 0.9725
-1.0531 6.4797 -2.3476 0.9725
-1.3131 6.4321 -2.3476 0.9725
-1.8264 6.3055 -2.3476 0.9725
-3.9437 5.2481 -2.3476 0.9725
-4.1518 5.0850 -2.3476 0.9725
-4.5475 4.7345 -2.3476 0.9725
-4.7345 4.5475 -2.3476 0.9725
-5.4026 3.7292 -2.3476 0.9725
-5.5484 3.5086 -2.3476 0.9725
-5.8128 3.0508 -2.3476 0.9725
-5.9309 2.8142 -2.3476 0.9725
-6.3346 2.6989 -2.4623 0.9712
-6.5366 2.4790 -2.5000 0.9707
-6.7149 1.9450 -2.5000 0.9707
-6.7877 1.6730 -2.5000 0.9707
-6.9003 1.1214 -2.5000 0.9707
-3.5589 -0.1434 -1.3649 0.9849
-3.5687 -0.2881 -1.3720 0.9848
-6.4392 -1.0465 -2.5000 0.9724
-6.3918 -1.3049 -2.5000 0.9724
-6.3342 -1.5612 -2.5000 0.9724
