ply
format ascii 1.0
element vertex 1526
property float32 x
property float32 y
property float32 z
property float32 I
end_header
14.8154 -23.4287 -2.0325 0.8948
13.9150 -14.4870 -1.4728 0.9226
15.0627 -14.4679 -1.5314 0.9196
16.3075 -14.4472 -1.5974 0.9163
17.6669 -14.4245 -1.6723 0.9126
19.1624 -14.3996 -1.7575 0.9083
25.3149 -16.0082 -2.1961 0.8868
28.5124 -14.9644 -2.3610 0.8788
29.0761 -13.7968 -2.3598 0.8789
29.5916 -12.6078 -2.3584 0.8790
30.0401 -11.3927 -2.3557 0.8791
30.4384 -10.1618 -2.3529 0.8792
30.7860 -8.9173 -2.3501 0.8794
33.4257 -6.8239 -2.5014 0.8721
33.6734 -5.4725 -2.5014 0.8721
33.8664 -4.1121 -2.5014 0.8721
34.0875 1.3737 -2.5014 0.8721
34.0045 2.7451 -2.5014 0.8721
33.8664 4.1121 -2.5014 0.8721
31.4605 6.4227 -2.3543 0.8792
17.0396 5.6887 -1.3172 0.9305
13.4777 5.7423 -1.0742 0.9429
12.0005 5.6943 -0.9739 0.9481
9.1789 5.2994 -0.7771 0.9584
7.4299 5.5832 -0.6814 0.9634
3.3391 2.7263 -0.3161 0.9829
3.1075 2.7530 -0.3044 0.9835
4.6163 5.6539 -0.5352 0.9711
4.3820 5.8313 -0.5348 0.9712
4.0618 5.8845 -0.5243 0.9717
3.6462 5.7659 -0.5002 0.9730
30.9327
1.37 -0.4839 0.9739
4.6655 9.8322 -0.7980 0.9573
2.4164 5.6714 -0.4520 0.9756
1.9558 5.8582 -0.4528 0.9755
1.1736 5.7482 -0.4302 0.9767
0.9566 5.8857 -0.4372 0.9764
0.0001 7.6312 -0.5595 0.9699
-0.4742 5.8746 -0.4321 0.9766
-0.9953 8.1972 -0.6054 0.9674
-1.4702 5.9650 -0.4505 0.9757
-2.6087 9.0065 -0.6875 0.9631
-2.2647 5.9715 -0.4683 0.9747
-2.5041 5.8774 -0.4684 0.9747
-3.4408 5.4412 -0.4720 0.9745
-4.0283 5.8359 -0.5199 0.9720
-4.4313 5.4273 -0.5137 0.9723
-5.0415 5.6906 -0.5574 0.9700
-2.4153 2.3200 -0.2456 0.9867
-4.0028 3.5462 -0.3921 0.9788
-3.9981 3.2644 -0.3785 0.9795
-23.0445 17.3168 -2.1136 0.8908
-28.6610 13.5998 -2.3261 0.8805
-28.5959 12.1835 -2.2791 0.8828
-28.4728 9.5056 -2.2010 0.8866
-31.7818 7.8336 -2.4000 0.8770
-32.0890 6.5510 -2.4014 0.8769
-28.1319 1.1337 -2.0644 0.8932
-25.8148 0.0000 -2.4783 0.9015
-25.7701 -1.0385 -2.4761 0.9016
-25.7247 -2.0767 -2.4777 0.9015
-25.5330 -6.2933 -2.5247 0.8997
-25.4122 -7.3607 -2.5400 0.8991
-25.0952 -8.3780 -2.5400 0.8991
-24.3397 -10.3702 -2.5400 0.8991
-23.9024 -11.3418 -2.5400 0.8991
-23.4263 -12.2951 -2.5400 0.8991
-22.9123 -13.2284 -2.5400 0.8991
-22.3610 -14.1402 -2.5400 0.8991
-21.7735 -15.0292 -2.5400 0.8991
-15.8937 -21.1507 -2.5400 0.8991
-14.1403 -22.3610 -2.5400 0.8991
-13.2284 -22.9123 -2.5400 0.8991
-12.2951 -23.4263 -2.5400 0.8991
-11.3418 -23.9024 -2.5400 0.8991
-4.2653 -14.7256 -1.4718 0.9403
-3.0151 -14.7689 -1.4471 0.9412
-1.8409 -11.3274 -1.1018 0.9549
-1.4049 -11.5705 -1.1190 0.9542
-1.1898 -14.7385 -1.4196 0.9423
-0.5935 -14.7286 -1.4152 0.9425
-0.0000 -14.7187 -1.4131 0.9426
1.1819 -14.6402 -1.4101 0.9427
1.7836 -14.6890 -1.4206 0.9423
2.3856 -14.6790 -1.4277 0.9420
2.9947 -14.6688 -1.4373 0.9416
4.2429 -14.6481 -1.4641 0.9406
9.6752 -22.7084 -2.3698 0.9056
10.5795 -22.2958 -2.3693 0.9056
11.4662 -21.8470 -2.3687 0.9056
13.1804 -20.8432 -2.3676 0.9057
14.7522 -19.6316 -2.3576 0.9060
14.7256 -18.0356 -2.2353 0.9107
13.9150 -14.4870 -1.9285 0.9225
15.0627 -14.4679 -2.0051 0.9195
16.3075 -14.4472 -2.0916 0.9162
20.2246 -13.9601 -2.3593 0.9060
21.2510 -12.2693 -2.3558 0.9061
22.1305 -10.5011 -2.3517 0.9063
22.5151 -9.5928 -2.3496 0.9063
25.0261 -7.2489 -2.5014 0.9006
25.7174 -4.1795 -2.5014 0.9006
25.8649 -3.1406 -2.5014 0.9006
25.9703 -2.0965 -2.5014 0.9006
26.0548 0.0001 -2.5014 0.9006
25.9703 2.0965 -2.5014 0.9006
25.6890 3.1192 -2.4844 0.9012
24.0210 4.9039 -2.3537 0.9062
22.7346 6.5851 -2.2724 0.9093
18.1865 6.0715 -1.8407 0.9258
9.2901 5.3636 -1.0299 0.9578
8.7843 5.5549 -0.9978 0.9591
7.7847 5.3734 -0.9081 0.9627
7.4077 5.5665 -0.8896 0.9634
3.3379 2.7253 -0.4137 0.9828
3.0185 2.8994 -0.4018 0.9833
5.3604 5.5807 -0.7429 0.9694
3.9747 5.7583 -0.6717 0.9723
3.4359 5.4334 -0.6172 0.9745
3.0827 5.3393 -0.5919 0.9755
2.9297 5.5820 -0.6052 0.9750
2.7002 5.6905 -0.6047 0.9750
2.0785 5.4805 -0.5627 0.9767
1.3944 5.6570 -0.5594 0.9769
0.8656 5.3260 -0.5180 0.9786
0.4690 5.8091 -0.5595 0.9769
-0.4337 5.3732 -0.5175 0.9786
-1.1074 5.4245 -0.5315 0.9780
-1.3407 5.4395 -0.5379 0.9777
-1.6291 5.6243 -0.5622 0.9767
-2.2700 5.3279 -0.5560 0.9770
-2.8952 5.5164 -0.5981 0.9753
-3.0536 5.2889 -0.5863 0.9758
-3.3222 5.2536 -0.5968 0.9753
-4.2223 5.6188 -0.6748 0.9722
-4.6446 5.2426 -0.6724 0.9722
-2.4153 2.3200 -0.3215 0.9866
-21.7735 15.0292 -2.5400 0.8991
-22.3610 14.1403 -2.5400 0.8991
-23.4263 12.2951 -2.5400 0.8991
-23.9024 11.3418 -2.5400 0.8991
-24.3397 10.3703 -2.5400 0.8991
-25.0952 8.3781 -2.5400 0.8991
-25.4122 7.3608 -2.5400 0.8991
-25.8589 1.0421 -2.4846 0.9012
-21.3655 -0.8610 -2.5400 0.9175
-21.3135 -1.7206 -2.5400 0.9175
-21.2270 -2.5774 -2.5400 0.9175
-20.9507 -4.2771 -2.5400 0.9175
-20.7615 -5.1173 -2.5400 0.9175
-18.9336 -9.9371 -2.5400 0.9175
-18.5181 -10.6914 -2.5400 0.9175
-16.0053 -14.1795 -2.5400 0.9175
-14.1795 -16.0053 -2.5400 0.9175
-13.5235 -16.5633 -2.5400 0.9175
-11.4284 -18.0726 -2.5400 0.9175
-9.9371 -18.9336 -2.5400 0.9175
-7.1292 -18.7982 -2.3882 0.9222
-6.3670 -19.0716 -2.3883 0.9222
-4.2653 -14.7256 -1.8211 0.9401
-3.6428 -14.7793 -1.8081 0.9405
-1.4044 -11.5662 -1.3840 0.9542
2.3856 -14.6790 -1.7665 0.9419
6.30560.9312
-1-2.3653 0.9229
7.8026 -18.3135 -2.3646 0.9229
9.2475 -17.6196 -2.3637 0.9230
9.9474 -17.2293 -2.3632 0.9230
10.6306 -16.8110 -2.3627 0.9230
11.2962 -16.3653 -2.3621 0.9230
11.9429 -15.8930 -2.3615 0.9230
12.5696 -15.3950 -2.3608 0.9231
13.7595 -14.3251 -2.3594 0.9231
14.3187 -13.7533 -2.3584 0.9231
15.8425 -11.9049 -2.3540 0.9233
16.2982 -11.2499 -2.3524 0.9233
19.3729 -8.2540 -2.5014 0.9187
19.6896 -7.4673 -2.5014 0.9187
20.2266 -5.8587 -2.5014 0.9187
20.6324 -4.2121 -2.5014 0.9187
20.9045 -2.5383 -2.5014 0.9187
20.9897 -1.6945 -2.5014 0.9187
21.0409 -0.8479 -2.5014 0.9187
21.0580 0.0000 -2.5014 0.9187
20.9897 1.6945 -2.5014 0.9187
19.5295 3.1739 -2.3503 0.9234
19.2440 4.7432 -2.3543 0.9233
19.0374 5.5143 -2.3543 0.9233
13.5203 5.7605 -1.7457 0.9425
10.3480 5.4310 -1.3882 0.9540
9.3069 5.3733 -1.2766 0.9576
7.9495 5.4872 -1.1474 0.9618
3.0178 2.8987 -0.4971 0.9833
4.8173 5.4376 -0.8629 0.9712
4.1990 5.5878 -0.8303 0.9722
3.1047 5.3773 -0.7376 0.9753
2.9216 5.5665 -0.7468 0.9750
2.2773 5.3449 -0.6901 0.9769
2.0240 5.3367 -0.6780 0.9773
1.6745 5.7808 -0.7149 0.9760
0.6585 5.4229 -0.6489 0.9782
0.2231 5.5354 -0.6581 0.9779
-0.2153 5.3437 -0.6353 0.9787
-0.8948 5.5058 -0.6626 0.9778
-1.6058 5.5438 -0.6856 0.9770
-1.8544 5.5545 -0.6956 0.9767
-3.0234 5.2366 -0.7183 0.9759
-3.2789 5.1852 -0.7287 0.9756
-3.6502 5.2883 -0.7633 0.9744
-4.7079 5.3140 -0.8433 0.9718
-5.3879 5.6093 -0.9239 0.9692
-2.4153 2.3200 -0.3978 0.9866
-3.9981 3.2644 -0.6131 0.9794
-17.5978 12.1469 -2.5400 0.9175
-18.0726 11.4284 -2.5400 0.9175
-19.3184 9.1667 -2.5400 0.9175
-19.6718 8.3814 -2.5400 0.9175
-20.7615 5.1173 -2.5400 0.9175
-21.1060 3.4301 -2.5400 0.9175
-21.3135 1.7206 -2.5400 0.9175
-21.3655 0.8610 -2.5400 0.9175
-17.9264 0.0000 -2.5400 0.9301
-17.9119 -0.7218 -2.5400 0.9301
-17.2187 -4.9875 -2.5400 0.9301
-17.0039 -5.6767 -2.5400 0.9301
-16.7615 -6.3568 -2.5400 0.9301
-16.4920 -7.0265 -2.5400 0.9301
-16.1956 -7.6849 -2.5400 0.9301
-15.5247 -8.9632 -2.5400 0.9301
-14.7532 -10.1834 -2.5400 0.9301
-14.3312 -10.7692 -2.5400 0.9301
-13.8859 -11.3374 -2.5400 0.9301
-13.4181 -11.8874 -2.5400 0.9301
-12.4181 -12.9286 -2.5400 0.9301
-11.3375 -13.8859 -2.5400 0.9301
-10.7692 -14.3312 -2.5400 0.9301
-8.4254 -14.5932 -2.3876 0.9342
-6.4687 -15.1827 -2.3383 0.9355
-5.9761 -15.7577 -2.3879 0.9342
-5.3365 -15.9848 -2.3878 0.9342
-3.6286 -14.7218 -2.1484 0.9406
-3.0038 -14.7135 -2.1277 0.9411
-1.4039 -11.5619 -1.6502 0.9540
-1.1898 -14.7385 -2.0951 0.9420
0.5927 -14.7088 -2.0858 0.9423
1.1819 -14.6402 -2.0811 0.9424
1.7836 -14.6890 -2.0966 0.9420
2.9873 -14.6327 -2.1161 0.9414
5.2769 -15.8064 -2.3611 0.9349
7.7396 -14.7466 -2.3597 0.9349
8.8967 -14.0690 -2.3585 0.9350
9.9920 -13.2970 -2.3567 0.9350
10.5149 -12.8784 -2.3557 0.9350
11.0200 -12.4390 -2.3546 0.9351
11.5065 -11.9795 -2.3535 0.9351
12.4208 -11.0038 -2.3512 0.9352
13.2536 -9.9594 -2.3490 0.9352
14.9210 -9.4355 -2.5014 0.9312
15.2889 -8.8270 -2.5014 0.9312
15.6319 -8.2042 -2.5014 0.9312
15.9496 -7.5682 -2.5014 0.9312
16.2414 -6.9198 -2.5014 0.9312
7.3672 -1.8158 -1.0751 0.9698
7.4721 -1.5254 -1.0806 0.9697
17.6541 0.0000 -2.5014 0.9312
17.6398 0.7109 -2.5014 0.9312
17.5254 2.1280 -2.5014 0.9312
16.3680 2.6601 -2.3496 0.9352
16.2598 3.3195 -2.3514 0.9352
14.8787 5.6427 -2.2547 0.9377
13.4582 5.7340 -2.0727 0.9426
9.3484 5.3973 -1.5295 0.9573
7.3733 5.5407 -1.3068 0.9634
3.1053 2.7511 -0.5878 0.9834
5.3260 5.5449 -1.0894 0.9694
4.4850 5.4930 -1.0048 0.9718
4.2052 5.5961 -0.9918 0.9721
3.9476 5.7191 -0.9846 0.9723
3.4740 5.4936 -0.9210 0.9741
3.1176 5.3998 -0.8835 0.9751
1.6289 5.6235 -0.8295 0.9766
1.3620 5.5258 -0.8064 0.9773
1.0911 5.3444 -0.7729 0.9782
0.6425 5.2909 -0.7552 0.9787
0.4557 5.6440 -0.8023 0.9774
0.2196 5.4492 -0.7727 0.9782
0.0000 5.3413 -0.7568 0.9787
-0.6593 5.4301 -0.7750 0.9781
-0.8892 5.4712 -0.7854 0.9779
-1.0800 5.2900 -0.7650 0.9784
-1.3081 5.3071 -0.7745 0.9782
-1.9974 5.2668 -0.7981 0.9775
-2.2194 5.2092 -0.8023 0.9774
-2.5140 5.2980 -0.8309 0.9766
-2.8829 5.4929 -0.8790 0.9752
-3.0292 5.2467 -0.8584 0.9758
-3.8248 5.5412 -0.9540 0.9732
-4.1760 5.5573 -0.9849 0.972476 0.9504
.3038 -0.9702 0.9727
-4.6101 5.2037 -0.9850 0.9723
-3.9981 3.2644 -0.7313 0.9794
-14.7532 10.1834 -2.5400 0.9301
-15.5247 8.9632 -2.5400 0.9301
-15.8731 8.3308 -2.5400 0.9301
-16.7615 6.3568 -2.5400 0.9301
-17.2187 4.9875 -2.5400 0.9301
-17.4055 4.2901 -2.5400 0.9301
-17.5642 3.5858 -2.5400 0.9301
-17.6943 2.8756 -2.5400 0.9301
-15.4182 0.0000 -2.5400 0.9394
-15.4057 -0.6208 -2.5400 0.9394
-15.3682 -1.2407 -2.5400 0.9394
-15.3058 -1.8585 -2.5400 0.9394
-15.2185 -2.4732 -2.5400 0.9394
-14.4163 -5.4674 -2.5400 0.9394
-14.1844 -6.0434 -2.5400 0.9394
-13.9296 -6.6097 -2.5400 0.9394
-13.3526 -7.7091 -2.5400 0.9394
-12.3260 -9.2624 -2.5400 0.9394
-11.9430 -9.7512 -2.5400 0.9394
-10.6806 -11.1197 -2.5400 0.9394
-9.7512 -11.9430 -2.5400 0.9394
-9.2516 -12.3116 -2.5370 0.9395
-7.6539 -12.1037 -2.3592 0.9436
-7.1554 -12.3935 -2.3576 0.9436
-5.5893 -13.1185 -2.3491 0.9438
-4.5301 -13.5693 -2.3567 0.9437
-3.9808 -13.7434 -2.3571 0.9436
-3.4248 -13.8948 -2.3575 0.9436
-1.4033 -11.5576 -1.9180 0.9539
-1.1520 -14.2703 -2.3585 0.9436
-0.5765 -14.3057 -2.3586 0.9436
0.0000 -14.3176 -2.3587 0.9436
0.5765 -14.3059 -2.3587 0.9436
1.1520 -14.2706 -2.3586 0.9436
2.8631 -14.0243 -2.3580 0.9436
3.9812 -13.7446 -2.3573 0.9436
4.5306 -13.5707 -2.3569 0.9437
6.1292 -12.9171 -2.3554 0.9437
6.6426 -12.6564 -2.3547 0.9437
7.6350 -12.0737 -2.3533 0.9437
9.0252 -11.0538 -2.3509 0.9438
9.4593 -10.6774 -2.3500 0.9438
9.8776 -10.2837 -2.3490 0.9438
10.4784 -10.0646 -2.3935 0.9428
11.2916 -10.0035 -2.4852 0.9407
11.7616 -9.6030 -2.5014 0.9403
12.8333 -8.1153 -2.5014 0.9403
13.1497 -7.5920 -2.5014 0.9403
13.4447 -7.0563 -2.5014 0.9403
14.1973 -5.3843 -2.5014 0.9403
6.9642 -2.0172 -1.1944 0.9710
8.9829 -1.0907 -1.4907 0.9640
15.1347 -1.2218 -2.5014 0.9403
15.1717 -0.6114 -2.5014 0.9403
15.1840 0.0000 -2.5014 0.9403
15.1717 0.6114 -2.5014 0.9403
14.0745 2.2873 -2.3490 0.9438
13.5375 2.7637 -2.2762 0.9455
13.7227 3.9748 -2.3536 0.9437
13.3626 5.0677 -2.3543 0.9437
12.0097 5.6987 -2.1899 0.9475
10.3582 5.4364 -1.9271 0.9537
3.0164 2.8973 -0.6890 0.9832
4.8096 5.4289 -1.1949 0.9710
4.4766 5.4828 -1.1661 0.9717
4.2320 5.6317 -1.1605 0.9718
3.8831 5.6256 -1.1261 0.9727
3.4398 5.4395 -1.0602 0.9742
3.1170 5.3987 -1.0270 0.9750
2.9099 5.5442 -1.0315 0.9749
2.6114 5.5033 -1.0035 0.9756
2.2992 5.3963 -0.9663 0.9765
2.0284 5.3484 -0.9423 0.9771
1.8003 5.3924 -0.9365 0.9772
1.6433 5.6731 -0.9730 0.9763
1.3777 5.5894 -0.9483 0.9769
0.8535 5.2515 -0.8765 0.9787
0.6450 5.3117 -0.8815 0.9785
0.4431 5.4883 -0.9071 0.9779
0.2247 5.5746 -0.9191 0.9776
0.0000 5.3706 -0.8847 0.9785
-0.2142 5.3158 -0.8764 0.9787
-0.4285 5.3078 -0.8772 0.9786
-1.0744 5.2626 -0.8848 0.9785
-1.3054 5.2961 -0.8986 0.9781
-2.2259 5.2244 -0.9355 0.9772
-2.5187 5.3080 -0.9679 0.9765
-3.2075 5.0723 -0.9887 0.9760
-3.6262 5.2534 -1.0516 0.9745
-4.6730 5.2747 -1.1609 0.9718
-5.3447 5.5644 -1.2710 0.9692
-5.7327 5.0787 -1.2617 0.9694
-12.3260 9.2624 -2.5400 0.9394
-12.6889 8.7586 -2.5400 0.9394
-13.0313 8.2405 -2.5400 0.9394
-13.6521 7.1652 -2.5400 0.9394
-13.9296 6.6097 -2.5400 0.9394
-14.4163 5.4674 -2.5400 0.9394
-14.8095 4.2896 -2.5400 0.9394
-15.1066 3.0841 -2.5400 0.9394
-15.2185 2.4733 -2.5400 0.9394
-15.3058 1.8585 -2.5400 0.9394
-15.3682 1.2407 -2.5400 0.9394
-15.4057 0.6208 -2.5400 0.9394
-13.4696 -1.0874 -2.5400 0.9465
-13.4148 -1.6288 -2.5400 0.9465
-12.9798 -3.7597 -2.5400 0.9465
-12.8179 -4.2793 -2.5400 0.9465
-12.2087 -5.7931 -2.5400 0.9465
-11.9655 -6.2800 -2.5400 0.9465
-11.4214 -7.2224 -2.5400 0.9465
-11.1213 -7.6765 -2.5400 0.9465
-10.1149 -8.9610 -2.5400 0.9465
-8.0187 -10.6709 -2.5089 0.9471
-7.5669 -10.9626 -2.5037 0.9472
-6.2486 -10.8229 -2.3490 0.9504
-5.8078 -11.0658 -2.3490 0.9504
-5.3575 -11.2907 -2.3490 0.9504
-4.8985 -11.4972 -2.3490 0.9504
-2.9959 -12.1546 -2.3530 0.9503
0.0000 -12.5239 -2.3540 0.9503
0.5043 -12.5137 -2.3540 0.9503
1.5095 -12.4316 -2.3538 0.9503
2.0087 -12.3599 -2.3537 0.9503
2.5045 -12.2679 -2.3534 0.9503
2.9961 -12.1558 -2.3532 0.9503
4.9040 -11.5102 -2.3516 0.9504
5.8117 -11.0733 -2.3506 0.9504
6.2513 -10.8276 -2.3500 0.9504
7.0993 -10.2850 -2.34905000 0.95726633 -10.1980 -2.3977 0.9494
8.2942 -10.1586 -2.4650 0.9480
8.8249 -9.9612 -2.5014 0.9473
9.5978 -9.2188 -2.5014 0.9473
10.3085 -8.4166 -2.5014 0.9473
10.6390 -7.9947 -2.5014 0.9473
11.2478 -7.1127 -2.5014 0.9473
11.5251 -6.6540 -2.5014 0.9473
11.7837 -6.1845 -2.5014 0.9473
12.0232 -5.7051 -2.5014 0.9473
6.6431 -1.9242 -1.3000 0.9722
6.6988 -1.6511 -1.2968 0.9723
7.2716 -1.1817 -1.3847 0.9705
9.7242 -1.1807 -1.8412 0.9609
13.2649 -1.0708 -2.5014 0.9473
13.2973 -0.5358 -2.5014 0.9473
13.3081 0.0000 -2.5014 0.9473
13.2973 0.5359 -2.5014 0.9473
13.2110 1.6041 -2.5014 0.9473
12.3354 2.0047 -2.3490 0.9504
12.2496 2.5008 -2.3499 0.9504
12.0221 3.4823 -2.3526 0.9503
11.8788 3.9657 -2.3539 0.9503
11.5233 4.9096 -2.3543 0.9503
9.9051 5.7187 -2.1498 0.9545
8.0173 5.5340 -1.8311 0.9611
3.1039 2.7498 -0.7794 0.9833
5.3151 5.5336 -1.4422 0.9693
3.4597 5.4710 -1.2167 0.9740
2.5814 5.4400 -1.1318 0.9758
2.2769 5.3439 -1.0918 0.9766
2.0350 5.3658 -1.0787 0.9769
1.6298 5.6265 -1.1010 0.9764
1.0897 5.3374 -1.0239 0.9781
0.8661 5.3288 -1.0147 0.9783
0.2225 5.5198 -1.0384 0.9778
-0.6472 5.3302 -1.0092 0.9784
-1.0692 5.2371 -1.0047 0.9785
-1.2964 5.2598 -1.0182 0.9782
-1.5705 5.4220 -1.0610 0.9773
-2.5108 5.2915 -1.1009 0.9764
-2.8434 5.4176 -1.1500 0.9754
-3.0186 5.2284 -1.1348 0.9757
-3.7829 5.4804 -1.2517 0.9733
-4.6416 5.2392 -1.3156 0.9719
-5.2793 5.4963 -1.4325 0.9695
-2.4153 2.3200 -0.6295 0.9865
-9.8395 8.0337 -2.3876 0.9496
-10.1550 7.6310 -2.3876 0.9496
-11.4214 7.2225 -2.5400 0.9465
-11.7029 6.7567 -2.5400 0.9465
-12.4320 5.2968 -2.5400 0.9465
-12.8179 4.2793 -2.5400 0.9465
-13.2403 2.7030 -2.5400 0.9465
-13.3384 2.1677 -2.5400 0.9465
-13.4696 1.0874 -2.5400 0.9465
-13.5024 0.5442 -2.5400 0.9465
-12.0065 -0.4838 -2.5400 0.9521
-11.7734 -2.4035 -2.5400 0.9521
-11.2354 -4.2610 -2.5400 0.9521
-11.0547 -4.7099 -2.5400 0.9521
-10.6398 -5.5842 -2.5400 0.9521
-10.1560 -6.4222 -2.5400 0.9521
-9.8891 -6.8260 -2.5400 0.9521
-9.6056 -7.2182 -2.5398 0.9521
-9.2918 -7.5867 -2.5356 0.9521
-8.9518 -7.9305 -2.5280 0.9523
-8.5980 -8.2585 -2.5200 0.9524
-8.2352 -8.5737 -2.5129 0.9526
-4.9665 -10.4667 -2.4489 0.9537
-3.5190 -10.5408 -2.3490 0.9556
-3.0919 -10.6744 -2.3491 0.9556
-2.6599 -10.7916 -2.3494 0.9556
-1.7833 -10.9730 -2.3499 0.9556
-0.8947 -11.0824 -2.3502 0.9556
-0.4477 -11.1098 -2.3503 0.9556
0.0000 -11.1190 -2.3503 0.9556
1.7834 -10.9737 -2.3501 0.9556
2.2236 -10.8921 -2.3499 0.9556
3.0922 -10.6756 -2.3494 0.9556
3.5191 -10.5410 -2.3490 0.9556
3.9406 -10.3905 -2.3490 0.9556
4.3996 -10.3262 -2.3726 0.9551
5.3935 -10.2765 -2.4533 0.9537
5.9168 -10.2482 -2.5014 0.9528
6.3247 -10.0017 -2.5014 0.9528
6.7223 -9.7389 -2.5014 0.9528
7.1090 -9.4603 -2.5014 0.9528
8.5345 -8.1975 -2.5014 0.9528
9.7389 -6.7223 -2.5014 0.9528
10.0017 -6.3247 -2.5014 0.9528
10.2482 -5.9168 -2.5014 0.9528
10.8867 -4.6384 -2.5014 0.9528
6.2047 -2.0714 -1.3827 0.9736
6.3301 -1.5602 -1.3781 0.9737
6.7846 -1.1026 -1.4530 0.9723
11.7953 -0.9522 -2.5014 0.9528
11.7474 1.4264 -2.5014 0.9528
10.8900 2.2232 -2.3494 0.9556
10.7970 2.6612 -2.3506 0.9556
10.6864 3.0954 -2.3518 0.9555
10.5584 3.5249 -2.3529 0.9555
10.4130 3.9491 -2.3541 0.9555
9.8621 5.1760 -2.3543 0.9555
9.4230 5.4404 -2.3000 0.9565
8.7921 5.5598 -2.1989 0.9584
7.9335 5.4761 -2.0377 0.9614
7.4120 5.5697 -1.9598 0.9628
5.3089 5.5271 -1.6200 0.9692
4.7685 5.3825 -1.5200 0.9710
3.0552 5.2917 -1.2916 0.9753
2.6360 5.5552 -1.2998 0.9752
2.0562 5.4217 -1.2257 0.9766
1.8006 5.3935 -1.2019 0.9770
1.1053 5.4140 -1.1680 0.9777
0.8637 5.3145 -1.1381 0.9782
0.4446 5.5064 -1.1677 0.9777
0.0000 5.4097 -1.1435 0.9781
-0.2172 5.3897 -1.1402 0.9782
-0.4317 5.3482 -1.1342 0.9783
-0.6695 5.5139 -1.1741 0.9775
-1.6150 5.5757 -1.2270 0.9765
-1.9516 5.1459 -1.1633 0.9778
-2.5233 5.3177 -1.2442 0.9762
-2.8879 5.5024 -1.3135 0.9749
-3.6946 5.3525 -1.3748 0.9738
-4.3077 5.2759 -1.4397 0.9725
-5.7388 5.0841 -1.6206 0.9691
-9.7820 5.6476 -2.3876 0.9549
-10.8560 5.1512 -2.5400 0.9521
-11.0547 4.7100 -2.5400 0.9521
-11.2353 4.2610 -2.5400 0.9521
-11.3978 3.8051 -2.5400 0.9521
-11.5418 3.3431 -2.5400 0.9521
-11.7734 2.4035 -2.5400 05000 0.96098606 1.9276 -2.5400 0.9521
-11.9772 0.9669 -2.5400 0.9521
-10.7986 -0.4352 -2.5400 0.9566
-10.7723 -0.8696 -2.5400 0.9566
-10.7286 -1.3027 -2.5400 0.9566
-10.5890 -2.1618 -2.5400 0.9566
-10.3807 -3.0068 -2.5400 0.9566
-10.2512 -3.4224 -2.5400 0.9566
-10.1051 -3.8324 -2.5400 0.9566
-9.9426 -4.2361 -2.5400 0.9566
-8.5712 -6.4408 -2.5198 0.9569
-7.3794 -7.6828 -2.5036 0.9572
-7.0619 -7.9712 -2.5029 0.9572
-6.7344 -8.2481 -2.5026 0.9572
-5.6890 -8.9964 -2.5016 0.9572
-5.3216 -9.2173 -2.5014 0.9572
-4.5627 -9.6156 -2.5014 0.9572
-4.1718 -9.7915 -2.5014 0.9572
-3.3704 -10.0955 -2.5014 0.9572
-2.9611 -10.2230 -2.5014 0.9572
-2.5471 -10.3339 -2.5014 0.9572
-2.1289 -10.4281 -2.5014 0.9572
-1.2666 -10.4312 -2.4696 0.9577
-0.8418 -10.4281 -2.4588 0.9579
1.2617 -10.3914 -2.4602 0.9579
1.6871 -10.3809 -2.4718 0.9577
2.1168 -10.3687 -2.4871 0.9574
3.3704 -10.0955 -2.5014 0.9572
4.5627 -9.6156 -2.5014 0.9572
5.3216 -9.2173 -2.5014 0.9572
5.6884 -8.9955 -2.5014 0.9572
6.0460 -8.7592 -2.5014 0.9572
6.3938 -8.5086 -2.5014 0.9572
6.7312 -8.2443 -2.5014 0.9572
7.0577 -7.9665 -2.5014 0.9572
7.3728 -7.6759 -2.5014 0.9572
7.6759 -7.3728 -2.5014 0.9572
7.9665 -7.0577 -2.5014 0.9572
8.2443 -6.7312 -2.5014 0.9572
9.2173 -5.3216 -2.5014 0.9572
9.4241 -4.9461 -2.5014 0.9572
9.6156 -4.5627 -2.5014 0.9572
6.0917 -2.3103 -1.5312 0.9736
6.0814 -2.0303 -1.5068 0.9740
6.1596 -1.5182 -1.4910 0.9743
6.2486 -1.2757 -1.4989 0.9741
6.4901 -1.0547 -1.5453 0.9733
10.6087 -0.8564 -2.5014 0.9572
10.6346 -0.4286 -2.5014 0.9572
10.6432 0.0000 -2.5014 0.9572
10.6087 0.8564 -2.5014 0.9572
10.5054 1.7073 -2.5014 0.9572
9.8096 2.0026 -2.3530 0.9597
9.7086 2.3929 -2.3500 0.9597
9.6086 2.7832 -2.3511 0.9597
9.4930 3.1692 -2.3521 0.9597
9.0503 4.2944 -2.3543 0.9597
8.8700 4.6553 -2.3543 0.9597
8.6754 5.0087 -2.3543 0.9597
8.4666 5.3540 -2.3543 0.9597
3.3304 2.7192 -1.0105 0.9825
3.1024 2.7485 -0.9741 0.9831
4.1911 5.5774 -1.6397 0.9717
3.9261 5.6879 -1.6243 0.9720
3.0993 5.3680 -1.4568 0.9749
2.8611 5.4513 -1.4469 0.9750
2.5952 5.4693 -1.4228 0.9754
2.3092 5.4199 -1.3846 0.9761
2.0106 5.3014 -1.3325 0.9770
1.6377 5.6539 -1.3834 0.9761
1.3521 5.4854 -1.3278 0.9771
1.1007 5.3912 -1.2932 0.9776
0.6420 5.2873 -1.2518 0.9784
0.4475 5.5433 -1.3070 0.9774
-0.2167 5.3777 -1.2649 0.9781
-0.4287 5.3109 -1.2522 0.9783
-0.6515 5.3660 -1.2704 0.9780
-1.0785 5.2827 -1.2672 0.9781
-1.3051 5.2950 -1.2817 0.9778
-1.6044 5.5389 -1.3553 0.9766
-1.8044 5.4048 -1.3392 0.9769
-2.0167 5.3177 -1.3366 0.9769
-2.2351 5.2460 -1.3402 0.9768
-2.5234 5.3179 -1.3834 0.9761
-2.8807 5.4886 -1.4568 0.9749
-3.3052 5.2267 -1.4534 0.9749
-3.7504 5.4334 -1.5516 0.9732
-4.3300 5.3032 -1.6091 0.9723
-2.4153 2.3200 -0.7871 0.9863
-5.7342 5.0801 -1.8005 0.9690
-7.8692 6.4250 -2.3876 0.9591
-8.3606 5.7709 -2.3876 0.9591
-8.5862 5.4296 -2.3876 0.9591
-9.1781 4.3551 -2.3876 0.9591
-9.3460 3.9820 -2.3876 0.9591
-10.2512 3.4224 -2.5400 0.9566
-10.3807 3.0068 -2.5400 0.9566
-10.4933 2.5864 -2.5400 0.9566
-10.5890 2.1618 -2.5400 0.9566
-10.6674 1.7336 -2.5400 0.9566
-10.7286 1.3027 -2.5400 0.9566
-10.7723 0.8696 -2.5400 0.9566
-10.7986 0.4352 -2.5400 0.9566
-9.8008 -0.3951 -2.5397 0.9603
-9.7769 -0.7892 -2.5396 0.9603
-9.6065 -1.9612 -2.5386 0.9603
-9.4084 -2.7253 -2.5361 0.9603
-9.2855 -3.1000 -2.5346 0.9604
-8.9860 -3.8286 -2.5290 0.9604
-8.8121 -4.1814 -2.5254 0.9605
-8.6225 -4.5254 -2.5213 0.9606
-8.4198 -4.8612 -2.5173 0.9606
-8.2064 -5.1898 -2.5140 0.9607
-6.6967 -6.9720 -2.5030 0.9608
-6.1126 -7.4866 -2.5025 0.9609
-5.8056 -7.7258 -2.5022 0.9609
-5.1639 -8.1661 -2.5016 0.9609
-4.8305 -8.3666 -2.5014 0.9609
-4.4897 -8.5543 -2.5014 0.9609
-3.7868 -8.8879 -2.5014 0.9609
-3.4258 -9.0331 -2.5014 0.9609
-3.0593 -9.1638 -2.5014 0.9609
-2.3120 -9.3802 -2.5014 0.9609
-1.5497 -9.5358 -2.5014 0.9609
1.1645 -9.5905 -2.5014 0.9609
1.9324 -9.4657 -2.5014 0.9609
2.6879 -9.2795 -2.5014 0.9609
3.7868 -8.8879 -2.5014 0.9609
5.4881 -7.9508 -2.5014 0.9609
5.8037 -7.7234 -2.5014 0.9609
6.1100 -7.4834 -2.5014 0.9609
6.6924 -6.9675 -2.5014 0.9609
7.2313 -6.4064 -2.5014 0.9609
7.7234 -5.8038 -2.5014 0.9609
7.9508 -5.4881 -2.5014000 0.9668.3666 -4.8305 -2.5014 0.9609
6.0744 -2.5881 -1.7096 0.9731
6.0072 -2.2782 -1.6635 0.9738
6.0350 -1.7481 -1.6268 0.9744
6.0882 -1.5006 -1.6235 0.9744
6.1636 -1.2583 -1.6288 0.9743
6.3262 -1.0281 -1.6595 0.9739
9.5905 -1.1645 -2.5014 0.9609
9.6296 -0.7774 -2.5014 0.9609
9.6531 -0.3890 -2.5014 0.9609
9.6610 0.0000 -2.5014 0.9609
9.6531 0.3890 -2.5014 0.9609
9.6296 0.7774 -2.5014 0.9609
9.5905 1.1645 -2.5014 0.9609
8.8890 1.8147 -2.3490 0.9632
8.7198 2.5257 -2.3505 0.9632
8.3617 3.5626 -2.3533 0.9631
7.6853 4.8599 -2.3543 0.9631
7.4834 5.1654 -2.3543 0.9631
7.2693 5.4625 -2.3543 0.9631
3.3291 2.7182 -1.1128 0.9824
3.0135 2.8945 -1.0819 0.9829
5.2834 5.5006 -1.9748 0.9690
4.7459 5.3570 -1.8531 0.9709
4.4344 5.4312 -1.8154 0.9714
3.4475 5.4517 -1.6701 0.9737
3.1050 5.3780 -1.6079 0.9747
2.6013 5.4821 -1.5711 0.9752
2.2903 5.3756 -1.5129 0.9761
2.0097 5.2990 -1.4674 0.9769
1.7840 5.3437 -1.4586 0.9770
1.6227 5.6022 -1.5101 0.9762
1.3700 5.5580 -1.4821 0.9766
1.1003 5.3895 -1.4242 0.9775
0.6540 5.3861 -1.4048 0.9778
0.2205 5.4702 -1.4175 0.9776
-0.4352 5.3911 -1.4004 0.9779
-0.6813 5.6111 -1.4635 0.9769
-0.8727 5.3698 -1.4086 0.9778
-1.6187 5.5883 -1.5064 0.9762
-2.0093 5.2981 -1.4671 0.9769
-2.2423 5.2629 -1.4812 0.9766
-2.5233 5.3177 -1.5240 0.9760
-2.8547 5.4392 -1.5905 0.9749
-3.2476 5.1357 -1.5733 0.9752
-3.6431 5.2779 -1.6605 0.9738
-4.6974 5.3022 -1.8341 0.9712
-5.3273 5.5463 -1.9912 0.9687
-5.7506 5.0946 -1.9892 0.9688
-7.1429 5.8320 -2.3876 0.9626
-7.3720 5.5397 -2.3876 0.9626
-7.5891 5.2384 -2.3876 0.9626
-7.7938 4.9285 -2.3876 0.9626
-8.7198 2.9111 -2.3802 0.9627
-9.4127 2.7264 -2.5373 0.9603
-9.5187 2.3462 -2.5383 0.9603
-9.6075 1.9611 -2.5389 0.9603
-9.6802 1.5732 -2.5393 0.9603
-9.7774 0.7893 -2.5398 0.9603
-9.8011 0.3950 -2.5397 0.9603
-8.9246 -0.3596 -2.5285 0.9635
-8.9008 -0.7186 -2.5280 0.9636
-8.8616 -1.0755 -2.5271 0.9636
-8.6516 -2.1324 -2.5225 0.9636
-8.5515 -2.4770 -2.5204 0.9637
-8.1681 -3.4801 -2.5135 0.9638
-7.8469 -4.1183 -2.5088 0.9638
-6.8505 -5.5932 -2.5036 0.9639
-6.6191 -5.8640 -2.5034 0.9639
-6.3770 -6.1252 -2.5031 0.9639
-5.8622 -6.6171 -2.5026 0.9639
-5.5905 -6.8471 -2.5024 0.9639
-5.3097 -7.0659 -2.5021 0.9639
-4.7225 -7.4680 -2.5014 0.9639
-4.4180 -7.6521 -2.5014 0.9639
-4.1063 -7.8238 -2.5014 0.9639
-3.7879 -7.9829 -2.5014 0.9639
-3.4634 -8.1289 -2.5014 0.9639
-2.7981 -8.3812 -2.5014 0.9639
-2.4583 -8.4871 -2.5014 0.9639
-1.7674 -8.6574 -2.5014 0.9639
-1.4174 -8.7215 -2.5014 0.9639
-1.0651 -8.7715 -2.5014 0.9639
-0.7110 -8.8073 -2.5014 0.9639
-0.3558 -8.8288 -2.5014 0.9639
0.0000 -8.8360 -2.5014 0.9639
0.7110 -8.8073 -2.5014 0.9639
2.4583 -8.4871 -2.5014 0.9639
2.7981 -8.3812 -2.5014 0.9639
3.1333 -8.2617 -2.5014 0.9639
4.1063 -7.8238 -2.5014 0.9639
4.4180 -7.6521 -2.5014 0.9639
4.7225 -7.4681 -2.5014 0.9639
5.0194 -7.2718 -2.5014 0.9639
5.5883 -6.8444 -2.5014 0.9639
5.8593 -6.6138 -2.5014 0.9639
6.1209 -6.3725 -2.5014 0.9639
6.3725 -6.1209 -2.5014 0.9639
6.6138 -5.8593 -2.5014 0.9639
6.8444 -5.5883 -2.5014 0.9639
7.0638 -5.3081 -2.5014 0.9639
7.4681 -4.7225 -2.5014 0.9639
7.6522 -4.4180 -2.5014 0.9639
7.9828 -3.7879 -2.5014 0.9639
5.9416 -2.2534 -1.7989 0.9739
5.9398 -1.9830 -1.7727 0.9743
5.9695 -1.7291 -1.7594 0.9745
6.2516 -1.0160 -1.7930 0.9740
8.7715 -1.0651 -2.5014 0.9639
8.8288 0.3558 -2.5014 0.9639
8.6336 1.7626 -2.4945 0.9640
8.0571 1.9859 -2.3492 0.9661
7.7675 2.9458 -2.3517 0.9661
7.5106 3.5638 -2.3534 0.9660
7.3636 3.8647 -2.3542 0.9660
7.0290 4.4449 -2.3543 0.9660
6.8443 4.7243 -2.3543 0.9660
3.1009 2.7471 -1.1728 0.9829
4.8110 5.4305 -2.0539 0.9703
4.4857 5.4940 -2.0079 0.9709
4.1650 5.5426 -1.9627 0.9716
3.9165 5.6740 -1.9518 0.9717
3.4831 5.5080 -1.8449 0.9733
3.0660 5.3104 -1.7359 0.9748
2.5952 5.4691 -1.7137 0.9751
2.2956 5.3879 -1.6580 0.9759
1.8093 5.4196 -1.6175 0.9765
1.6093 5.5559 -1.6375 0.9762
1.3535 5.4911 -1.6010 0.9768
0.0000 5.3574 -1.5166 0.9780
-0.2140 5.3106 -1.5046 0.9781
-0.4304 5.3319 -1.5143 0.9780
-1.2800 5.1934 -1.5142 0.9780
-1.5967 5.5125 -1.6247 0.9764
-1.8185 5.4471 -1.6257 0.9764
-1.9825 5.2275 -1.5827 0.9770
-2.2131 5.1942 -1.5983 0.976872 -2.3475.2920 -1.7299 0.9749
-4.1094 5.4686 -1.9365 0.9720
-4.3411 5.3168 -1.9431 0.9719
-5.3735 5.5944 -2.1960 0.9683
-5.7555 5.0989 -2.1768 0.9685
-6.7232 5.0522 -2.3808 0.9656
-7.2750 4.2003 -2.3781 0.9657
-7.5793 3.5964 -2.3749 0.9657
-7.7084 3.2842 -2.3720 0.9658
-7.8252 2.9677 -2.3692 0.9658
-8.0253 2.3246 -2.3653 0.9659
-8.7398 1.7842 -2.5252 0.9636
-8.8092 1.4316 -2.5265 0.9636
-8.9020 0.7187 -2.5283 0.9636
-8.1740 0.0000 -2.5142 0.9664
-8.0630 -1.3104 -2.5125 0.9664
-8.0002 -1.6333 -2.5114 0.9664
-7.9236 -1.9530 -2.5101 0.9664
-7.7343 -2.5821 -2.5080 0.9665
-7.6192 -2.8896 -2.5064 0.9665
-7.4924 -3.1922 -2.5049 0.9665
-7.2100 -3.7841 -2.5045 0.9665
-6.6997 -4.6244 -2.5039 0.9665
-6.3047 -5.1476 -2.5035 0.9665
-6.0918 -5.3968 -2.5032 0.9665
-5.8690 -5.6372 -2.5030 0.9665
-5.3954 -6.0901 -2.5025 0.9665
-5.1436 -6.2999 -2.5015 0.9665
-4.8856 -6.5014 -2.5014 0.9665
-4.3466 -6.8735 -2.5014 0.9665
-4.0663 -7.0430 -2.5014 0.9665
-3.7794 -7.2010 -2.5014 0.9665
-2.8838 -7.6041 -2.5014 0.9665
-1.3046 -8.0272 -2.5014 0.9665
-0.6544 -8.1062 -2.5014 0.9665
-0.0000 -8.1325 -2.5014 0.9665
0.3275 -8.1259 -2.5014 0.9665
0.9803 -8.0733 -2.5014 0.9665
1.3045 -8.0272 -2.5014 0.9665
2.2626 -7.8115 -2.5014 0.9665
2.5753 -7.7140 -2.5014 0.9665
2.8838 -7.6041 -2.5014 0.9665
3.4863 -7.3473 -2.5014 0.9665
4.0663 -7.0430 -2.5014 0.9665
4.3466 -6.8735 -2.5014 0.9665
5.1434 -6.2995 -2.5014 0.9665
5.3929 -6.0873 -2.5014 0.9665
5.8652 -5.6336 -2.5014 0.9665
6.5015 -4.8856 -2.5014 0.9665
7.0430 -4.0663 -2.5014 0.9665
7.2010 -3.7794 -2.5014 0.9665
5.9695 -2.5434 -1.9958 0.9732
8.1062 -0.6544 -2.5014 0.9665
8.1325 0.0000 -2.5014 0.9665
8.1259 0.3275 -2.5014 0.9665
8.0732 0.9803 -2.5014 0.9665
7.9682 1.6267 -2.5014 0.9665
7.4151 1.8277 -2.3490 0.9685
7.2484 2.4199 -2.3504 0.9685
6.9107 3.2792 -2.3527 0.9685
6.6286 3.8270 -2.3542 0.9685
6.2995 4.3482 -2.3543 0.9685
3.1001 2.7465 -1.2739 0.9828
3.0120 2.8931 -1.2846 0.9827
5.2865 5.5038 -2.3473 0.9686
4.5428 5.5639 -2.2093 0.9704
3.4602 5.4717 -1.9913 0.9733
2.8764 5.4803 -1.9037 0.9744
2.0443 5.3903 -1.7732 0.9762
1.6376 5.6535 -1.8104 0.9757
1.3738 5.5734 -1.7656 0.9763
0.8672 5.3359 -1.6628 0.9776
0.4516 5.5937 -1.7261 0.9768
0.2204 5.4693 -1.6836 0.9774
-0.2174 5.3963 -1.6611 0.9777
-0.4357 5.3973 -1.6655 0.9776
-0.6758 5.5660 -1.7246 0.9768
-0.8668 5.3336 -1.6620 0.9776
-1.3057 5.2974 -1.6781 0.9774
-1.5663 5.4074 -1.7316 0.9767
-1.8148 5.4360 -1.7627 0.9763
-2.0079 5.2945 -1.7416 0.9766
-2.5163 5.3030 -1.8054 0.9757
-3.3042 5.2252 -1.9015 0.9745
-3.8225 5.5379 -2.0697 0.9722
-5.3024 5.5204 -2.3543 0.9685
-2.4153 2.3200 -1.0301 0.9861
-5.9172 4.8313 -2.3496 0.9685
-6.1222 4.6005 -2.3555 0.9685
-6.4763 4.0954 -2.3568 0.9684
-6.7864 3.5618 -2.3574 0.9684
-7.1623 2.7163 -2.3561 0.9685
-7.3512 2.1293 -2.3540 0.9685
-7.9999 1.6332 -2.5114 0.9664
-8.0628 1.3104 -2.5125 0.9664
-8.1471 0.6577 -2.5140 0.9664
-8.1676 0.3292 -2.5142 0.9664
-7.5330 -0.3036 -2.5060 0.9687
-7.4403 -1.2092 -2.5056 0.9687
-7.1482 -2.3864 -2.5050 0.9687
-7.0458 -2.6721 -2.5049 0.9687
-6.8070 -3.2300 -2.5045 0.9687
-6.5240 -3.7667 -2.5041 0.9687
-6.3666 -4.0260 -2.5039 0.9687
-6.1988 -4.2787 -2.5037 0.9687
-6.0210 -4.5245 -2.5035 0.9688
-5.8335 -4.7629 -2.5033 0.9688
-5.6360 -4.9931 -2.5029 0.9688
-5.4275 -5.2131 -2.5016 0.9688
-4.2748 -6.1930 -2.5014 0.9688
-3.7626 -6.5170 -2.5014 0.9688
-3.2260 -6.7986 -2.5014 0.9688
-1.8009 -7.3065 -2.5014 0.9688
-1.5052 -7.3731 -2.5014 0.9688
-0.9071 -7.4703 -2.5014 0.9688
-0.6055 -7.5007 -2.5014 0.9688
-0.3030 -7.5190 -2.5014 0.9688
0.9071 -7.4703 -2.5014 0.9688
1.5052 -7.3730 -2.5014 0.9688
1.8009 -7.3065 -2.5014 0.9688
2.0936 -7.2280 -2.5014 0.9688
2.9496 -6.9230 -2.5014 0.9688
3.2260 -6.7986 -2.5014 0.9688
3.4971 -6.6632 -2.5014 0.9688
4.0219 -6.3602 -2.5014 0.9688
4.5207 -6.0159 -2.5014 0.9688
5.2128 -5.4271 -2.5014 0.9688
5.6326 -4.9901 -2.5014 0.9688
5.8290 -4.7592 -2.5014 0.9688
6.0159 -4.5206 -2.5014 0.9688
6.1931 -4.2748 -2.5014 0.9688
6.3602 -4.0219 -2.5014 0.9688
5.9291 -2.5261 -2.1423 0.9732
5.8968 -2.2364 -2.0964 0.9738
5.9271 -1.7168 -2.0512 0.9743
5.9716 -1.4719 -2.0444 0.9.0998 -2.88 -1.2328 -2.0487 0.9744
6.1638 -1.0017 -2.0758 0.9740
7.4703 -0.9071 -2.5014 0.9688
7.5190 -0.3030 -2.5014 0.9688
7.4703 0.9071 -2.5014 0.9688
6.7058 2.2387 -2.3500 0.9706
6.2674 3.2894 -2.3528 0.9706
6.1317 3.5401 -2.3535 0.9706
5.6622 4.2549 -2.3543 0.9706
3.0993 2.7458 -1.3764 0.9827
3.0113 2.8924 -1.3879 0.9826
4.6967 5.3015 -2.3543 0.9706
4.4794 5.4863 -2.3543 0.9706
3.9764 5.7608 -2.3268 0.9709
3.4511 5.4574 -2.1463 0.9731
2.8930 5.5121 -2.0693 0.9741
1.6284 5.6219 -1.9456 0.9756
0.2193 5.4412 -1.8102 0.9773
-0.2175 5.3970 -1.7955 0.9775
-0.8761 5.3908 -1.8154 0.9772
-1.3177 5.3460 -1.8302 0.9771
-1.8125 5.4292 -1.9026 0.9762
-2.0095 5.2986 -1.8837 0.9764
-2.6290 5.5405 -2.0385 0.9745
-3.3521 5.3010 -2.0848 0.9739
-3.9091 5.6633 -2.2874 0.9714
-4.1100 5.4693 -2.2742 0.9716
-4.3812 5.3660 -2.3027 0.9712
-2.4153 2.3200 -1.1132 0.9860
-5.3015 4.6967 -2.3543 0.9706
-5.4863 4.4794 -2.3543 0.9706
-5.6494 4.2452 -2.3490 0.9707
-5.8157 4.0143 -2.3490 0.9707
-6.2572 3.2841 -2.3490 0.9707
-6.5018 2.7702 -2.3492 0.9706
-6.7040 2.2382 -2.3494 0.9706
-6.7888 1.9664 -2.3494 0.9706
-6.8624 1.6914 -2.3494 0.9706
-7.3810 1.5069 -2.5041 0.9687
-7.0002 0.0000 -2.5033 0.9707
-6.9965 -0.2820 -2.5040 0.9707
-6.8639 -1.4013 -2.5052 0.9707
-6.8015 -1.6764 -2.5051 0.9707
-6.7281 -1.9488 -2.5049 0.9707
-6.6438 -2.2180 -2.5048 0.9707
-6.5487 -2.4836 -2.5046 0.9707
-6.3268 -3.0021 -2.5043 0.9707
-5.9141 -3.7399 -2.5023 0.9707
-5.5920 -4.2021 -2.5014 0.9707
-5.0447 -4.8454 -2.5014 0.9707
-4.8455 -5.0447 -2.5014 0.9707
-3.7385 -5.9119 -2.5014 0.9707
-3.4974 -6.0577 -2.5014 0.9707
-2.9986 -6.3195 -2.5014 0.9707
-2.7417 -6.4351 -2.5014 0.9707
-2.2150 -6.6348 -2.5014 0.9707
-1.9461 -6.7186 -2.5014 0.9707
-1.6740 -6.7916 -2.5014 0.9707
-1.3992 -6.8534 -2.5014 0.9707
-0.8431 -6.9438 -2.5014 0.9707
-0.2817 -6.9891 -2.5014 0.9707
0.0000 -6.9948 -2.5014 0.9707
0.5628 -6.9721 -2.5014 0.9707
0.8431 -6.9438 -2.5014 0.9707
1.3991 -6.8534 -2.5014 0.9707
2.4804 -6.5403 -2.5014 0.9707
2.7417 -6.4351 -2.5014 0.9707
3.2506 -6.1936 -2.5014 0.9707
3.7385 -5.9119 -2.5014 0.9707
3.9735 -5.7566 -2.5014 0.9707
4.2021 -5.5920 -2.5014 0.9707
5.4182 -4.4238 -2.5014 0.9707
5.5919 -4.2021 -2.5014 0.9707
5.9119 -3.7385 -2.5014 0.9707
6.0577 -3.4974 -2.5014 0.9707
6.1936 -3.2506 -2.5014 0.9707
6.3195 -2.9986 -2.5014 0.9707
6.4351 -2.7417 -2.5014 0.9707
6.7186 -1.9461 -2.5014 0.9707
6.9721 -0.5628 -2.5014 0.9707
6.9891 -0.2816 -2.5014 0.9707
6.9042 1.1220 -2.5014 0.9707
6.0481 2.5769 -2.3510 0.9725
5.6981 3.2898 -2.3529 0.9724
5.2632 3.9550 -2.3543 0.9724
3.0985 2.7451 -1.4803 0.9826
3.0105 2.8916 -1.4927 0.9824
3.7399 5.4182 -2.3543 0.9724
2.9004 5.5261 -2.2318 0.9738
2.3612 5.5419 -2.1542 0.9747
2.0519 5.4105 -2.0693 0.9757
1.6495 5.6948 -2.1202 0.9751
1.3792 5.5953 -2.0608 0.9758
1.0991 5.3834 -1.9649 0.9769
0.8580 5.2795 -1.9128 0.9775
0.4520 5.5989 -2.0087 0.9764
0.2218 5.5044 -1.9700 0.9769
0.0000 5.4380 -1.9447 0.9772
-0.2175 5.3973 -1.9317 0.9773
-0.8777 5.4009 -1.9567 0.9770
-1.0894 5.3362 -1.9476 0.9771
-1.6257 5.6126 -2.0896 0.9755
-3.1177 5.4000 -2.2298 0.9739
-3.3842 5.3517 -2.2643 0.9735
-3.7399 5.4182 -2.3543 0.9724
-3.9550 5.2632 -2.3543 0.9724
-4.3657 4.9279 -2.3543 0.9724
-4.5606 4.7481 -2.3543 0.9724
-4.9279 4.3657 -2.3543 0.9724
-5.0997 4.1637 -2.3543 0.9724
-5.8162 3.0526 -2.3490 0.9725
-5.9344 2.8159 -2.3490 0.9725
-6.0430 2.5747 -2.3490 0.9725
-6.1418 2.3293 -2.3490 0.9725
-6.2306 2.0801 -2.3490 0.9725
-6.3093 1.8275 -2.3490 0.9725
-6.3778 1.5720 -2.3490 0.9725
-6.8540 1.3993 -2.5016 0.9707
-6.9048 1.1221 -2.5016 0.9707
-6.9450 0.8433 -2.5018 0.9707
-6.9743 0.5630 -2.5022 0.9707
-3.5687 -0.2881 -1.3720 0.9848
-3.5921 -0.4362 -1.3867 0.9846
-6.3962 -1.3058 -2.5017 0.9724
-6.3385 -1.5623 -2.5017 0.9724
-6.1921 -2.0672 -2.5017 0.9724
-6.1036 -2.3148 -2.5016 0.9724
-6.0053 -2.5586 -2.5015 0.9724
-5.8971 -2.7982 -2.5014 0.9724
-5.6528 -3.2637 -2.5014 0.9724
-5.5168 -3.4886 -2.5014 0.9724
-5.3719 -3.7079 -2.5014 0.9724
-5.0561 -4.1282 -2.5014 0.9724
-4.8858 -4.3284 -2.5014 0.9724
-4.7075 -4.5217 -2.5014 0.9724
-4.5217 -4.7075 -2.5014 0.9724
-4.32842.3476 0 -2.5014 0.9724
-4.1282 -5.0561 -2.5014 0.9724
-3.4886 -5.5169 -2.5014 0.9724
-3.0334 -5.7797 -2.5014 0.9724
-2.3146 -6.1032 -2.5014 0.9724
-1.5621 -6.3377 -2.5014 0.9724
-1.3056 -6.3954 -2.5014 0.9724
-0.7868 -6.4798 -2.5014 0.9724
-0.5252 -6.5062 -2.5014 0.9724
-0.2628 -6.5221 -2.5014 0.9724
0.0000 -6.5273 -2.5014 0.9724
0.2628 -6.5221 -2.5014 0.9724
0.5252 -6.5062 -2.5014 0.9724
1.5621 -6.3377 -2.5014 0.9724
2.3146 -6.1032 -2.5014 0.9724
2.7982 -5.8971 -2.5014 0.9724
3.0334 -5.7797 -2.5014 0.9724
4.1282 -5.0561 -2.5014 0.9724
4.3284 -4.8858 -2.5014 0.9724
4.5217 -4.7075 -2.5014 0.9724
4.7075 -4.5217 -2.5014 0.9724
5.2182 -3.9212 -2.5014 0.9724
5.7797 -3.0334 -2.5014 0.9724
5.8971 -2.7982 -2.5014 0.9724
6.0050 -2.5585 -2.5014 0.9724
6.2696 -1.8160 -2.5014 0.9724
6.4428 -1.0471 -2.5014 0.9724
6.4797 -0.7868 -2.5014 0.9724
6.5062 -0.5252 -2.5014 0.9724
6.5273 0.0000 -2.5014 0.9724
6.5220 0.2628 -2.5014 0.9724
6.4798 0.7868 -2.5014 0.9724
6.4428 1.0471 -2.5014 0.9724
6.3954 1.3056 -2.5014 0.9724
5.8876 1.7054 -2.3490 0.9741
5.5429 2.6301 -2.3512 0.9741
5.4339 2.8519 -2.3518 0.9741
5.3160 3.0692 -2.3523 0.9740
5.1894 3.2816 -2.3529 0.9740
4.9108 3.6902 -2.3540 0.9740
3.0977 2.7443 -1.5859 0.9824
3.8855 4.7588 -2.3543 0.9740
3.2835 5.1925 -2.3543 0.9740
3.0718 5.3205 -2.3543 0.9740
2.8551 5.4399 -2.3543 0.9740
2.6337 5.5504 -2.3543 0.9740
2.3484 5.5119 -2.2960 0.9747
2.0610 5.4343 -2.2273 0.9754
1.7895 5.3601 -2.1656 0.9761
1.6633 5.7422 -2.2910 0.9747
0.6381 5.2551 -2.0287 0.9776
0.2219 5.5047 -2.1112 0.9767
-0.2163 5.3673 -2.0585 0.9773
-1.0856 5.3175 -2.0798 0.9770
-1.3291 5.3923 -2.1283 0.9765
-2.2949 5.3862 -2.2436 0.9752
-2.6337 5.5504 -2.3543 0.9740
-2.8551 5.4399 -2.3543 0.9740
-3.0718 5.3205 -2.3543 0.9740
-3.2835 5.1925 -2.3543 0.9740
-3.6907 4.9114 -2.3543 0.9740
-4.0739 4.5985 -2.3543 0.9740
-2.4153 2.3200 -1.2834 0.9858
-4.5985 4.0740 -2.3543 0.9740
-4.9114 3.6907 -2.3543 0.9740
-5.0553 3.4894 -2.3540 0.9740
-5.1904 3.2822 -2.3534 0.9740
-5.4351 2.8525 -2.3523 0.9740
-5.5441 2.6307 -2.3517 0.9741
-5.8876 1.7054 -2.3490 0.9741
-6.0126 1.4820 -2.3731 0.9738
-3.5589 0.1434 -1.3649 0.9849
-2.8160 0.0000 -1.1525 0.9879
-2.8204 -0.1137 -1.1552 0.9879
-2.9323 -0.3560 -1.2089 0.9873
-3.0246 -0.4915 -1.2541 0.9868
-3.0070 -0.6139 -1.2561 0.9868
-5.8705 -1.7004 -2.5014 0.9739
-5.7972 -1.9354 -2.5014 0.9739
-5.7146 -2.1673 -2.5014 0.9739
-5.1656 -3.2665 -2.5014 0.9739
-4.8860 -3.6716 -2.5014 0.9739
-4.5747 -4.0529 -2.5014 0.9739
-4.2338 -4.4078 -2.5014 0.9739
-3.8654 -4.7342 -2.5014 0.9739
-3.2665 -5.1656 -2.5014 0.9739
-2.6201 -5.5217 -2.5014 0.9739
-2.1673 -5.7146 -2.5014 0.9739
-1.9354 -5.7972 -2.5014 0.9739
-0.9804 -6.0326 -2.5014 0.9739
-0.0000 -6.1118 -2.5014 0.9739
0.4918 -6.0919 -2.5014 0.9739
0.7367 -6.0672 -2.5014 0.9739
0.9804 -6.0326 -2.5014 0.9739
1.2225 -5.9883 -2.5014 0.9739
1.7004 -5.8705 -2.5014 0.9739
1.9354 -5.7972 -2.5014 0.9739
2.8403 -5.4117 -2.5014 0.9739
3.2665 -5.1656 -2.5014 0.9739
3.4719 -5.0299 -2.5014 0.9739
3.6716 -4.8860 -2.5014 0.9739
4.2338 -4.4078 -2.5014 0.9739
4.4078 -4.2338 -2.5014 0.9739
4.5747 -4.0529 -2.5014 0.9739
4.7342 -3.8654 -2.5014 0.9739
5.1656 -3.2665 -2.5014 0.9739
5.4117 -2.8403 -2.5014 0.9739
5.8705 -1.7004 -2.5014 0.9739
5.9342 -1.4626 -2.5014 0.9739
5.9883 -1.2225 -2.5014 0.9739
6.0326 -0.9804 -2.5014 0.9739
6.1068 0.2461 -2.5014 0.9739
6.0919 0.4918 -2.5014 0.9739
6.0672 0.7367 -2.5014 0.9739
5.9883 1.2225 -2.5014 0.9739
5.9342 1.4627 -2.5014 0.9739
5.6899 1.6481 -2.4244 0.9747
5.2828 2.2508 -2.3502 0.9755
5.1891 2.4623 -2.3507 0.9755
4.9765 2.8732 -2.3519 0.9755
4.7313 3.2658 -2.3529 0.9755
4.5970 3.4544 -2.3534 0.9755
3.6381 4.4559 -2.3543 0.9754
3.4557 4.5987 -2.3543 0.9754
3.2678 4.7342 -2.3543 0.9754
3.0745 4.8619 -2.3543 0.9754
2.6733 5.0935 -2.3543 0.9754
2.2548 5.2921 -2.3543 0.9754
2.0398 5.3786 -2.3543 0.9754
1.8204 5.4526 -2.3527 0.9755
1.6004 5.5253 -2.3543 0.9754
1.1130 5.4517 -2.2773 0.9762
0.6638 5.4669 -2.2539 0.9765
0.4639 5.7463 -2.3595 0.9754
0.0000 5.5165 -2.2578 0.9764
-0.2173 5.3941 -2.2095 0.9769
-0.4277 5.2979 -2.1754 0.9773
-0.6417 5.2 -4.4449 91 0.9773
-1.8216 5.4564 -2.3543 0.9754
-2.0229 5.3339 -2.3347 0.9756
-2.8762 4.9818 -2.3543 0.9754
-3.4557 4.5988 -2.3543 0.9754
-3.6381 4.4559 -2.3543 0.9754
-2.4153 2.3200 -1.3707 0.9856
-4.4559 3.6381 -2.3543 0.9754
-5.0880 2.6704 -2.3518 0.9755
-5.5128 1.5968 -2.3490 0.9755
-5.8821 1.4498 -2.4794 0.9742
-3.0070 0.6139 -1.2561 0.9868
-2.8096 0.2268 -1.1537 0.9879
-2.8204 0.1137 -1.1552 0.9879
-2.3650 0.0000 -1.0307 0.9897
-2.4021 -0.3904 -1.0606 0.9894
-5.5129 -1.5968 -2.5014 0.9753
-5.4442 -1.8175 -2.5014 0.9753
-5.3666 -2.0353 -2.5014 0.9753
-5.2803 -2.2497 -2.5014 0.9753
-5.0821 -2.6673 -2.5014 0.9753
-4.4459 -3.6300 -2.5014 0.9753
-4.1394 -3.9759 -2.5014 0.9753
-3.9759 -4.1394 -2.5014 0.9753
-3.8060 -4.2961 -2.5014 0.9753
-3.2604 -4.7236 -2.5014 0.9753
-2.8698 -4.9706 -2.5014 0.9753
-2.6673 -5.0821 -2.5014 0.9753
-2.0353 -5.3666 -2.5014 0.9753
-1.8175 -5.4442 -2.5014 0.9753
-0.6918 -5.6977 -2.5014 0.9753
-0.2311 -5.7349 -2.5014 0.9753
0.2311 -5.7349 -2.5014 0.9753
0.4618 -5.7209 -2.5014 0.9753
0.6918 -5.6977 -2.5014 0.9753
0.9207 -5.6652 -2.5014 0.9753
1.1481 -5.6236 -2.5014 0.9753
1.8175 -5.4442 -2.5014 0.9753
2.0353 -5.3666 -2.5014 0.9753
2.2497 -5.2803 -2.5014 0.9753
2.4605 -5.1854 -2.5014 0.9753
2.6673 -5.0821 -2.5014 0.9753
2.8698 -4.9706 -2.5014 0.9753
3.2604 -4.7235 -2.5014 0.9753
3.4480 -4.5884 -2.5014 0.9753
3.8060 -4.2961 -2.5014 0.9753
4.2961 -3.8060 -2.5014 0.9753
4.5885 -3.4480 -2.5014 0.9753
4.8510 -3.0676 -2.5014 0.9753
4.9706 -2.8698 -2.5014 0.9753
5.1854 -2.4605 -2.5014 0.9753
5.3666 -2.0353 -2.5014 0.9753
5.4442 -1.8175 -2.5014 0.9753
5.5129 -1.5969 -2.5014 0.9753
5.5728 -1.3736 -2.5014 0.9753
5.6652 -0.9207 -2.5014 0.9753
5.6977 -0.6918 -2.5014 0.9753
5.7209 -0.4618 -2.5014 0.9753
5.7349 -0.2311 -2.5014 0.9753
5.7396 0.0000 -2.5014 0.9753
5.7349 0.2311 -2.5014 0.9753
5.7209 0.4619 -2.5014 0.9753
5.6977 0.6918 -2.5014 0.9753
5.6652 0.9207 -2.5014 0.9753
5.6236 1.1481 -2.5014 0.9753
5.5728 1.3736 -2.5014 0.9753
5.5129 1.5969 -2.5014 0.9753
5.0402 1.9115 -2.3493 0.9768
4.9603 2.1134 -2.3498 0.9767
4.3161 3.2433 -2.3529 0.9767
3.0961 2.7429 -1.8027 0.9821
3.5823 4.0435 -2.3543 0.9767
3.2453 4.3187 -2.3543 0.9767
3.0687 4.4458 -2.3543 0.9767
2.8872 4.5658 -2.3543 0.9767
2.7011 4.6784 -2.3543 0.9767
2.5105 4.7833 -2.3543 0.9767
2.1174 4.9698 -2.3543 0.9767
1.9156 5.0511 -2.3543 0.9767
1.7107 5.1241 -2.3543 0.9767
0.6512 5.3627 -2.3543 0.9767
0.4347 5.3846 -2.3543 0.9767
0.2175 5.3977 -2.3543 0.9767
0.0000 5.4021 -2.3543 0.9767
-0.2175 5.3977 -2.3543 0.9767
-0.4347 5.3846 -2.3543 0.9767
-0.6512 5.3627 -2.3543 0.9767
-0.8666 5.3322 -2.3543 0.9767
-1.7107 5.1241 -2.3543 0.9767
-3.0687 4.4458 -2.3543 0.9767
-3.4165 4.1845 -2.3543 0.9767
-3.5823 4.0436 -2.3543 0.9767
-3.7422 3.8960 -2.3543 0.9767
-4.1835 3.4157 -2.3538 0.9767
-4.3168 3.2439 -2.3533 0.9767
-4.4430 3.0668 -2.3528 0.9767
-4.5620 2.8848 -2.3523 0.9767
-5.5728 1.3736 -2.5014 0.9753
-2.4021 0.3904 -1.0606 0.9894
-2.2030 0.0000 -1.0198 0.9903
-2.3851 -0.5879 -1.1371 0.9892
-4.8822 -2.3166 -2.5014 0.9765
-4.7849 -2.5113 -2.5014 0.9765
-4.6799 -2.7020 -2.5014 0.9765
-4.5673 -2.8882 -2.5014 0.9765
-4.4473 -3.0698 -2.5014 0.9765
-4.0449 -3.5835 -2.5014 0.9765
-3.4177 -4.1859 -2.5014 0.9765
-3.0698 -4.4473 -2.5014 0.9765
-2.7020 -4.6799 -2.5014 0.9765
-2.3166 -4.8822 -2.5014 0.9765
-2.1182 -4.9715 -2.5014 0.9765
-1.7112 -5.1258 -2.5014 0.9765
-1.0809 -5.2947 -2.5014 0.9765
-0.6514 -5.3645 -2.5014 0.9765
-0.2176 -5.3995 -2.5014 0.9765
0.4348 -5.3864 -2.5014 0.9765
0.6514 -5.3645 -2.5014 0.9765
0.8668 -5.3339 -2.5014 0.9765
1.0809 -5.2947 -2.5014 0.9765
1.2932 -5.2469 -2.5014 0.9765
1.5035 -5.1906 -2.5014 0.9765
1.7112 -5.1258 -2.5014 0.9765
1.9163 -5.0528 -2.5014 0.9765
2.1182 -4.9715 -2.5014 0.9765
2.3166 -4.8822 -2.5014 0.9765
2.5113 -4.7849 -2.5014 0.9765
2.8882 -4.5673 -2.5014 0.9765
3.0698 -4.4473 -2.5014 0.9765
3.4177 -4.1859 -2.5014 0.9765
4.1859 -3.4177 -2.5014 0.9765
4.4473 -3.0698 -2.5014 0.9765
4.8822 -2.3166 -2.5014 0.9765
4.9715 -2.1182 -2.5014 0.9765
5.0528 -1.9162 -2.5014 0.9765
5.1258 -1.7112 -2.5014 0.9765
5.3645 -0.6514 -2.50476 0.975
5.3864 -0.4348 -2.5014 0.9765
5.3995 -0.2176 -2.5014 0.9765
5.3864 0.4348 -2.5014 0.9765
5.3340 0.8669 -2.5014 0.9765
5.2947 1.0809 -2.5014 0.9765
5.1906 1.5035 -2.5014 0.9765
4.8763 1.6279 -2.3796 0.9776
4.4963 2.3599 -2.3505 0.9779
4.3986 2.5395 -2.3510 0.9779
4.2936 2.7151 -2.3515 0.9779
4.0628 3.0530 -2.3524 0.9778
3.3183 2.7093 -1.9829 0.9813
3.3728 3.8071 -2.3543 0.9778
3.2167 3.9398 -2.3543 0.9778
2.8893 4.1859 -2.3543 0.9778
2.3637 4.5036 -2.3543 0.9778
2.1804 4.5951 -2.3543 0.9778
1.9936 4.6792 -2.3543 0.9778
1.8036 4.7557 -2.3543 0.9778
1.2172 4.9384 -2.3543 0.9778
1.0174 4.9834 -2.3543 0.9778
0.8159 5.0203 -2.3543 0.9778
0.6131 5.0491 -2.3543 0.9778
0.4093 5.0697 -2.3543 0.9778
0.2048 5.0821 -2.3543 0.9778
0.0000 5.0862 -2.3543 0.9778
-0.4093 5.0697 -2.3543 0.9778
-1.8036 4.7557 -2.3543 0.9778
-1.9936 4.6792 -2.3543 0.9778
-2.1804 4.5951 -2.3543 0.9778
-2.3637 4.5036 -2.3543 0.9778
-2.5431 4.4048 -2.3543 0.9778
-2.7184 4.2988 -2.3543 0.9778
-2.8893 4.1859 -2.3543 0.9778
-3.3728 3.8071 -2.3543 0.9778
-3.5233 3.6682 -2.3543 0.9778
-2.4153 2.3200 -1.5502 0.9853
-3.9379 3.2152 -2.3532 0.9778
-4.1823 2.8869 -2.3523 0.9778
-4.2944 2.7156 -2.3519 0.9779
-4.5876 2.1768 -2.3505 0.9779
-4.7458 1.7999 -2.3495 0.9779
-5.0115 1.4516 -2.4151 0.9773
-2.2466 0.4586 -1.0614 0.9899
-2.0595 -0.0830 -1.0111 0.9909
-2.0571 -0.1661 -1.0123 0.9908
-2.0750 -0.3372 -1.0312 0.9907
-2.9436 -0.8526 -1.5032 0.9864
-4.7681 -1.8083 -2.5014 0.9775
-4.4162 -2.5497 -2.5014 0.9775
-4.3100 -2.7255 -2.5014 0.9775
-4.1968 -2.8968 -2.5014 0.9775
-3.9501 -3.2251 -2.5014 0.9775
-3.6777 -3.5325 -2.5014 0.9775
-3.3816 -3.8170 -2.5014 0.9775
-3.2251 -3.9501 -2.5014 0.9775
-2.5497 -4.4162 -2.5014 0.9775
-2.1861 -4.6071 -2.5014 0.9775
-1.8083 -4.7681 -2.5014 0.9775
-1.4188 -4.8981 -2.5014 0.9775
-1.2204 -4.9513 -2.5014 0.9775
-0.8180 -5.0334 -2.5014 0.9775
0.0000 -5.0994 -2.5014 0.9775
0.2053 -5.0953 -2.5014 0.9775
0.4103 -5.0829 -2.5014 0.9775
1.2204 -4.9513 -2.5014 0.9775
1.4187 -4.8981 -2.5014 0.9775
1.6148 -4.8370 -2.5014 0.9775
1.8083 -4.7681 -2.5014 0.9775
2.7255 -4.3100 -2.5014 0.9775
2.8968 -4.1968 -2.5014 0.9775
3.0634 -4.0767 -2.5014 0.9775
3.3816 -3.8170 -2.5014 0.9775
3.5325 -3.6777 -2.5014 0.9775
3.6777 -3.5325 -2.5014 0.9775
3.9501 -3.2251 -2.5014 0.9775
4.1968 -2.8968 -2.5014 0.9775
4.3100 -2.7255 -2.5014 0.9775
4.7681 -1.8083 -2.5014 0.9775
4.9513 -1.2204 -2.5014 0.9775
5.0623 -0.6147 -2.5014 0.9775
5.0829 -0.4103 -2.5014 0.9775
5.0994 0.0000 -2.5014 0.9775
5.0953 0.2053 -2.5014 0.9775
5.0829 0.4103 -2.5014 0.9775
5.0623 0.6147 -2.5014 0.9775
4.9513 1.2204 -2.5014 0.9775
4.8096 1.6057 -2.4872 0.9777
4.4776 1.6981 -2.3490 0.9789
4.3278 2.0536 -2.3497 0.9789
4.1501 2.3961 -2.3507 0.9789
4.0510 2.5617 -2.3511 0.9789
3.8332 2.8805 -2.3520 0.9789
3.3168 2.7081 -2.1004 0.9811
3.0944 2.7414 -2.0278 0.9818
3.0903 3.2173 -2.1882 0.9803
3.0354 3.7177 -2.3543 0.9788
2.8833 3.8370 -2.3543 0.9788
2.5652 4.0566 -2.3543 0.9788
2.2305 4.2499 -2.3543 0.9788
2.0576 4.3362 -2.3543 0.9788
1.7020 4.4877 -2.3543 0.9788
1.3353 4.6101 -2.3543 0.9788
0.9600 4.7026 -2.3543 0.9788
0.7699 4.7375 -2.3543 0.9788
-0.1933 4.7957 -2.3543 0.9788
-0.3862 4.7841 -2.3543 0.9788
-0.7699 4.7375 -2.3543 0.9788
-1.3353 4.6101 -2.3543 0.9788
-1.5199 4.5526 -2.3543 0.9788
-2.2305 4.2499 -2.3543 0.9788
-2.5652 4.0566 -2.3543 0.9788
-3.0355 3.7178 -2.3543 0.9788
-3.3242 3.4608 -2.3539 0.9788
-3.8338 2.8809 -2.3523 0.9789
-4.0517 2.5621 -2.3515 0.9789
-4.1508 2.3965 -2.3510 0.9789
-4.2431 2.2270 -2.3506 0.9789
-4.3285 2.0539 -2.3501 0.9789
-4.4068 1.8776 -2.3497 0.9789
-4.4779 1.6983 -2.3492 0.9789
-2.1007 0.5178 -1.0613 0.9904
-2.0898 0.4266 -1.0462 0.9905
-2.0750 0.3372 -1.0312 0.9907
-2.0571 0.1661 -1.0123 0.9908
-1.9494 -0.0786 -1.0121 0.9912
-1.9473 -0.1572 -1.0135 0.9912
-1.9520 -0.3172 -1.0259 0.9911
-2.3248 -0.6734 -1.2557 0.9892
-4.5084 -1.7098 -2.5014 0.9785
-4.4359 -1.8899 -2.5014 0.9785
-4.3562 -2.0670 -2.5014 0.9785
-4.2694 -2.2408 -2.5014 0.9785
-4.1757 -2.4108 -2.5014 0.9785
-4.0752 -2.5770 -2.5014 0.9785
-3.9682 -2.7390 -2.5014 0.9785
-3.8547 -2.8966 -2.5014.8579 -2.53.7349 -3.0495 -2.5014 0.9785
-3.6091 -3.1974 -2.5014 0.9785
-3.1974 -3.6091 -2.5014 0.9785
-3.0495 -3.7349 -2.5014 0.9785
-2.8966 -3.8547 -2.5014 0.9785
-2.4108 -4.1757 -2.5014 0.9785
-2.2408 -4.2694 -2.5014 0.9785
-1.7098 -4.5084 -2.5014 0.9785
-1.5269 -4.5735 -2.5014 0.9785
-1.3415 -4.6313 -2.5014 0.9785
