ply
format ascii 1.0
element vertex 1582
property float32 x
property float32 y
property float32 z
property float32 I
end_header
10.3450 8.4464 -1.2822 0.9477
9.5341 8.4464 -1.2229 0.9501
8.8527 8.5032 -1.1785 0.9519
8.7850 9.1461 -1.2175 0.9503
7.8811 9.6526 -1.1963 0.9512
5.6905 8.2442 -0.9617 0.9605
4.9838 8.6323 -0.9570 0.9607
3.9609 8.3475 -0.8871 0.9636
3.4628 8.1275 -0.8482 0.9651
3.0794 8.1198 -0.8337 0.9657
2.7498 8.2368 -0.8337 0.9657
2.4326 8.3984 -0.8394 0.9655
2.1210 8.6054 -0.8509 0.9650
1.8434 9.0296 -0.8848 0.9636
1.5641 9.6243 -0.9361 0.9616
-0.3863 9.5862 -0.9211 0.9622
-1.1755 9.6811 -0.9363 0.9616
-1.5733 9.6811 -0.9416 0.9614
-2.1797 8.8434 -0.8744 0.9641
-3.6043 8.4595 -0.8828 0.9637
-3.9432 8.3102 -0.8831 0.9637
-4.2735 8.1425 -0.8828 0.9637
-4.6816 8.1087 -0.8989 0.9631
-17.0013 19.1905 -2.4614 0.9021
-17.7602 18.4903 -2.4614 0.9021
-18.4903 17.7602 -2.4614 0.9021
-19.1904 17.0012 -2.4614 0.9021
-19.8595 16.2147 -2.4614 0.9021
-21.0998 14.5642 -2.4614 0.9021
-22.2033 12.8191 -2.4614 0.9021
-22.7015 11.9147 -2.4614 0.9021
-23.1629 10.9909 -2.4614 0.9021
-23.9100 7.9823 -2.4200 0.9037
-24.5249 5.0068 -2.4031 0.9043
-25.2450 4.1027 -2.4554 0.9023
-25.8498 3.1387 -2.4999 0.9007
-25.9340 2.0936 -2.4979 0.9007
-26.0044 1.0479 -2.4986 0.9007
-21.0461 0.0000 -2.5000 0.9187
-21.0289 -0.8474 -2.5000 0.9187
-20.9779 -1.6935 -2.5000 0.9187
-20.6208 -4.2098 -2.5000 0.9187
-20.2152 -5.8554 -2.5000 0.9187
-17.3206 -11.9556 -2.5000 0.9187
-16.1674 -13.2003 -2.4793 0.9194
-14.2532 -13.6904 -2.3476 0.9235
-13.6904 -14.2533 -2.3476 0.9235
-12.4991 -15.3087 -2.3476 0.9235
-10.1374 -16.0310 -2.2530 0.9264
-9.1988 -17.5269 -2.3513 0.9234
-6.0783 -16.0272 -2.0361 0.9333
-5.3450 -16.0103 -2.0050 0.9343
-3.9382 -15.9779 -1.9548 0.9359
-3.2587 -15.9623 -1.9352 0.9365
-2.5916 -15.9469 -1.9191 0.9370
-1.9345 -15.9318 -1.9064 0.9374
-1.2849 -15.9168 -1.8968 0.9377
-0.6408 -15.9020 -1.8905 0.9379
0.0000 -15.8872 -1.8872 0.9380
0.6396 -15.8725 -1.8870 0.9380
1.9180 -15.7960 -1.8901 0.9379
2.5723 -15.8279 -1.9048 0.9374
4.5713 -15.7819 -1.9517 0.9360
5.9730 -15.7496 -2.0009 0.9344
9.8837 -17.1191 -2.3481 0.9235
10.5642 -16.7060 -2.3479 0.9235
11.2270 -16.2648 -2.3476 0.9235
12.4991 -15.3086 -2.3476 0.9235
13.1054 -14.7929 -2.3476 0.9235
14.2532 -13.6904 -2.3476 0.9235
14.9097 -13.2088 -2.3661 0.9229
16.8252 -12.6433 -2.5000 0.9187
17.7880 -11.2484 -2.5000 0.9187
19.3620 -8.2494 -2.5000 0.9187
19.9630 -6.6646 -2.5000 0.9187
20.2152 -5.8554 -2.5000 0.9187
9.8235 -1.5965 -1.1822 0.9607
21.0461 0.0000 -2.5000 0.9187
20.8927 2.5368 -2.5000 0.9187
18.9829 5.4985 -2.3476 0.9235
18.4612 7.0014 -2.3453 0.9235
16.0785 7.6294 -2.1140 0.9308
14.5616 8.4071 -1.9973 0.9345
13.2862 8.4017 -1.8673 0.9386
11.4463 8.6013 -1.7008 0.9440
10.3450 8.4464 -1.5864 0.9476
8.5514 9.6526 -1.5318 0.9494
6.7814 8.3057 -1.2737 0.9577
4.9330 8.5442 -1.1719 0.9610
5.0232 9.5708 -1.2839 0.9574
3.4868 8.1838 -1.0567 0.9648
3.0982 8.1692 -1.0378 0.9654
2.7498 8.2368 -1.0315 0.9656
0.9562 7.8755 -0.9424 0.9685
0.7738 9.5848 -1.1422 0.9620
0.3870 9.6022 -1.1415 0.9620
-0.3863 9.5862 -1.1396 0.9621
-0.6486 8.0337 -0.9574 0.9681
-1.1573 9.5313 -1.1405 0.9621
-1.5411 9.4828 -1.1412 0.9620
-3.3453 8.8208 -1.1206 0.9627
-11.0559 16.0172 -2.3119 0.9246
-13.1051 16.0508 -2.4614 0.9199
-13.7407 15.5101 -2.4614 0.9199
-14.3541 14.9442 -2.4614 0.9199
-14.9442 14.3541 -2.4614 0.9199
-15.5101 13.7407 -2.4614 0.9199
-17.5134 11.0748 -2.4614 0.9199
-18.3478 9.6296 -2.4614 0.9199
-21.0265 0.8473 -2.4997 0.9187
-17.6298 -0.7105 -2.5000 0.9312
-17.5155 -2.1268 -2.5000 0.9312
-17.4156 -2.8303 -2.5000 0.9312
-16.9475 -4.9089 -2.5000 0.9312
-16.7361 -5.5873 -2.5000 0.9312
-16.4975 -6.2567 -2.5000 0.9312
-15.9406 -7.5639 -2.5000 0.9312
-14.5208 -10.0230 -2.5000 0.9312
-14.1055 -10.5996 -2.5000 0.9312
-12.2225 -12.7250 -2.5000 0.9312
-9.9534 -13.2456 -2.3476 0.9353
-8.2843 -14.3488 -2.3476 0.9353
-7.1028 -14.9689 -2.3476 0.9353
-6.4943 -15.2427 -2.3476 0.9353
-5.8753 -15.4920 -2.3476 0.9353
-4.6102 -15.9162 -2.3479 0.9352
-3.3148 -16.2368 -2.3480 0.9352
-2.6583 -16.3576 -2.3481 0.9352
-1.9976 -16.4516 -2.3481 0.9352
-0.6673 -16.5592 -2.3482 0.9352
0.6673 -16.5589 -2.3481 0.9352
3.3145 -16.2354 -2.3478 0.9352
3.9653 -16.0879 -2.3477 0.9353
5.2467 -15.7159 -2.3476 0.9353
5.8753 -15.4919 -2.3476 0.9353
6.4943 -15.2427 -2.3476 0.9353
8.2843 -14.3488 -2.3476 0.9353
8.8553 -14.0036 -2.3476 0.9353
9.9534 -13.2456 -2.3476 0.9353
10.7787 -13.2015 -2.4148 0.9335
11.6818 -13.1861 -2.4961 0.9313
12.2225 -12.7250 -2.5000 0.9312
12.7250 -12.2225 -2.5000 0.9312
13.6672 -11.1589 -2.5000 0.9312
14.1055 -10.5996 -2.5000 0.9312
14.5208 -10.0230 -2.5000 0.9312
14.9127 -9.4302 -2.5000 0.9312
15.6231 -8.1996 -2.5000 0.9312
15.9406 -7.5639 -2.5000 0.9312
16.2322 -6.9159 -2.5000 0.9312
16.4975 -6.2567 -2.5000 0.9312
16.9475 -4.9089 -2.5000 0.9312
10.0837 -2.0586 -1.4582 0.9593
9.3128 -1.5135 -1.3368 0.9626
17.6441 0.0000 -2.5000 0.9312
16.7297 2.7188 -2.4015 0.9338
16.2337 3.3141 -2.3476 0.9353
16.0871 3.9651 -2.3476 0.9353
15.9144 4.6096 -2.3476 0.9353
15.7159 5.2467 -2.3476 0.9353
15.4918 5.8753 -2.3476 0.9353
15.2427 6.4943 -2.3476 0.9353
14.9403 7.0892 -2.3431 0.9354
14.5622 7.6428 -2.3302 0.9357
11.9113 8.2218 -2.0507 0.9432
8.3980 8.7432 -1.7177 0.9522
7.8940 8.9105 -1.6867 0.9530
5.1935 8.2128 -1.3768 0.9615
3.9609 8.3475 -1.3092 0.9634
2.7498 8.2368 -1.2304 0.9655
1.5641 9.6243 -1.3816 0.9614
0.7182 8.8971 -1.2647 0.9646
0.3592 8.9148 -1.2642 0.9646
-0.6346 7.8602 -1.1173 0.9686
-1.0746 8.8502 -1.2632 0.9646
-3.3956 8.9536 -1.3568 0.9621
-3.6043 8.4595 -1.3029 0.9635
-4.3430 8.2749 -1.3241 0.9629
-4.7775 8.2749 -1.3538 0.9621
-5.2693 8.3328 -1.3969 0.9610
-11.2974 11.7619 -2.3108 0.9362
-11.7554 11.2912 -2.3095 0.9363
-13.4563 10.9867 -2.4614 0.9322
-14.2967 9.8683 -2.4614 0.9322
-14.6825 9.2846 -2.4614 0.9322
-15.6967 7.4482 -2.4617 0.9322
-16.0024 6.8180 -2.4646 0.9321
-16.3350 6.1950 -2.4754 0.9319
-16.6000 5.5419 -2.4796 0.9317
-16.8351 4.8763 -2.4834 0.9316
-17.2784 3.5274 -2.4987 0.9312
-17.4092 2.8293 -2.4991 0.9312
-17.5867 1.4197 -2.5000 0.9312
-17.6298 0.7105 -2.5000 0.9312
-15.1631 -0.6111 -2.5000 0.9403
-15.0648 -1.8292 -2.5000 0.9403
-14.9789 -2.4343 -2.5000 0.9403
-14.8687 -3.0355 -2.5000 0.9403
-14.7344 -3.6317 -2.5000 0.9403
-13.4372 -7.0524 -2.5000 0.9403
-12.8261 -8.1108 -2.5000 0.9403
-11.7550 -9.5976 -2.5000 0.9403
-10.9446 -10.5124 -2.5000 0.9403
-9.5976 -11.7549 -2.5000 0.9403
-8.6206 -12.4891 -2.5000 0.9403
-8.1108 -12.8261 -2.5000 0.9403
-5.6312 -13.2169 -2.3667 0.9434
-3.9647 -13.6877 -2.3476 0.9439
-3.4104 -13.8362 -2.3476 0.9439
-2.2859 -14.0658 -2.3476 0.9439
-1.7177 -14.1464 -2.3476 0.9439
-0.0000 -14.2503 -2.3476 0.9439
1.1467 -14.2041 -2.3476 0.9439
2.2859 -14.0658 -2.3476 0.9439
2.8504 -13.9623 -2.3476 0.9439
3.4103 -13.8362 -2.3476 0.9439
3.9647 -13.6877 -2.3476 0.9439
4.5126 -13.5169 -2.3476 0.9439
5.0532 -13.3243 -2.3476 0.9439
5.6293 -13.2126 -2.3660 0.9434
7.5877 -13.1423 -2.5000 0.9403
8.1107 -12.8261 -2.5000 0.9403
9.5976 -11.7550 -2.5000 0.9403
10.0632 -11.3590 -2.5000 0.9403
10.9445 -10.5124 -2.5000 0.9403
12.1318 -9.1165 -2.5000 0.9403
12.4891 -8.6206 -2.5000 0.9403
12.8261 -8.1107 -2.5000 0.9403
13.9611 -5.9483 -2.5000 0.9403
14.3944 -4.8056 -2.5000 0.9403
9.0579 -1.8492 -1.5230 0.9632
8.9056 -1.4473 -1.4864 0.9641
9.0001 -0.7266 -1.4875 0.9641
15.1754 -0.0000 -2.5000 0.9403
15.1631 0.6110 -2.5000 0.9403
15.1262 1.2211 -2.5000 0.9403
13.8362 3.4103 -2.3476 0.9439
13.5169 4.5126 -2.3476 0.9439
13.3243 5.0532 -2.3476 0.9439
12.8745 6.1090 -2.3476 0.9439
12.6180 6.6224 -2.3476 0.9439
11.9849 7.5788 -2.3360 0.9441
11.6754 8.0589 -2.3371 0.9441
11.3463 8.5262 -2.3381 0.9441
10.9983 8.9798 -2.3391 0.9441
8.2328 7.9077 -1.8806 0.9548
8.3980 8.7432 -1.9972 0.9520
6.8153 8.3472 -1.7752 0.9573
5.1935 8.2128 -1.6008 0.9614
4.9838 8.6323 -1.6421 0.9604
3.9609 8.3475 -1.5221 0.9632
3.1382 8.2749 -1.4579 0.9648
1.8502 9.0630 -1.5238 0.9632
0.9335 7.6884 -1.2759 0.9691
0.6926 8.5797 -1.4180 0.9657
0.3458 8.5811 -1.4148 0.9658
0.0000 8.5825 -1.4139 0.9658
-0.6211 7.6929 -1.2715 0.9692
-1.0423 8.5837 -1.4245 0.9656
-2.1146 8.5793 -1.4557 0.9648
-2.2157 7.6495 -1.3120 0.9682
-3.1314 9.3796 -1.6290 0.9607
-3.3956 8.9536 -1.5775 0.9619
-4.7775 8.2749 -1.5741 0.9620
-9.3159 10.5154 -2.3143 0.9446
-9.7317 10.1318 -2.3143 0.9446
-10.1289 9.7289 -2.3137 0.9447
-10.5076 9.3089 -2.3126 0.9447
-11.2131 8.4260 -2.3106 0.9447
-11.5387 7.9646 -2.3097 0.9447
-12.9394 7.4706 -2.4614 0.9412
-13.2354 6.9465 -2.4625 0.9412
-14.0989 5.3470 -2.4841 0.9407
-14.7295 3.6305 -2.4992 0.9404
-14.8653 3.0348 -2.4994 0.9403
-15.1631 0.6110 -2.5000 0.9403
-13.2036 -1.6032 -2.5000 0.9473
-13.1283 -2.1336 -2.5000 0.9473
-13.0318 -2.6605 -2.5000 0.9473
-12.7754 -3.7004 -2.5000 0.9473
-12.6161 -4.2118 -2.5000 0.9473
-12.4362 -4.7164 -2.5000 0.9473
-10.6331 -7.9902 -2.5000 0.9473
-9.5924 -9.2136 -2.5000 0.9473
-8.4119 -10.3027 -2.5000 0.9473
-7.9902 -10.6330 -2.5000 0.9473
-7.1087 -11.2415 -2.5000 0.9473
-6.6503 -11.5186 -2.5000 0.9473
-6.1811 -11.7771 -2.5000 0.9473
-5.2132 -12.2362 -2.5000 0.9473
-4.7164 -12.4362 -2.5000 0.9473
-3.7005 -12.7754 -2.5000 0.9473
-3.1830 -12.9141 -2.5000 0.9473
-1.6017 -13.1911 -2.4976 0.9474
-1.0650 -13.1927 -2.4878 0.9476
-0.5317 -13.1936 -2.4819 0.9477
0.0000 -13.1937 -2.4799 0.9477
2.1335 -13.1283 -2.5000 0.9473
3.7004 -12.7754 -2.5000 0.9473
5.2145 -12.2362 -2.5000 0.9473
5.7018 -12.0164 -2.5000 0.9473
6.6503 -11.5186 -2.5000 0.9473
7.5556 -10.9461 -2.5000 0.9473
7.9902 -10.6330 -2.5000 0.9473
9.5924 -9.2136 -2.5000 0.9473
10.3027 -8.4119 -2.5000 0.9473
10.6330 -7.9902 -2.5000 0.9473
10.9461 -7.5556 -2.5000 0.9473
11.5186 -6.6503 -2.5000 0.9473
11.7771 -6.1811 -2.5000 0.9473
12.2362 -5.2134 -2.5000 0.9473
12.7754 -3.7005 -2.5000 0.9473
12.9141 -3.1830 -2.5000 0.9473
8.8941 -0.7180 -1.6772 0.9643
13.3006 0.0000 -2.5000 0.9473
13.0317 2.6605 -2.5000 0.9473
11.9966 3.4749 -2.3476 0.9504
11.8470 3.9551 -2.3476 0.9504
11.2839 5.3543 -2.3476 0.9504
10.8164 6.2449 -2.3476 0.9504
10.5562 6.6754 -2.3476 0.9504
10.2496 7.0748 -2.3409 0.9506
9.6190 7.8537 -2.3341 0.9507
9.2980 8.2373 -2.3349 0.9507
7.1851 8.1103 -2.0366 0.9569
6.1715 8.2128 -1.9310 0.9590
5.6689 8.2128 -1.8757 0.9602
5.1935 8.2128 -1.8264 0.9612
3.9609 8.3475 -1.7367 0.9631
2.4326 8.3984 -1.6435 0.9650
0.6778 8.3958 -1.5832 0.9663
0.0000 8.3986 -1.5786 0.9664
-0.6080 7.5315 -1.4202 0.9697
-1.3649 8.3985 -1.5993 0.9660
-2.0693 8.3956 -1.6253 0.9654
-2.1678 7.4841 -1.4645 0.9688
-3.1314 9.3796 -1.8587 0.9606
-3.6043 8.4595 -1.7284 0.9633
-4.7775 8.2749 -1.7960 0.9619
-5.2693 8.3328 -1.8531 0.9607
-6.9982 10.1387 -2.3156 0.9511
-7.3990 9.8463 -2.3150 0.9511
-8.5294 8.8800 -2.3143 0.9511
-9.5376 7.7872 -2.3143 0.9511
-10.4186 6.5883 -2.3170 0.9511
-10.7097 6.1833 -2.3244 0.9509
-11.2275 5.3275 -2.3359 0.9507
-12.1665 5.1837 -2.4857 0.9476
-12.3934 4.7002 -2.4914 0.9475
-12.5975 4.2057 -2.4963 0.9474
-12.7715 3.6993 -2.4992 0.9473
-13.2574 1.0702 -2.5000 0.9473
-11.8174 -0.4762 -2.5000 0.9528
-11.7886 -0.9517 -2.5000 0.9528
-11.7407 -1.4256 -2.5000 0.9528
-11.5879 -2.3657 -2.5000 0.9528
-11.0584 -4.1939 -2.5000 0.9528
-10.8806 -4.6358 -2.5000 0.9528
-10.4723 -5.4963 -2.5000 0.9528
-10.2425 -5.9135 -2.5000 0.9528
-9.7334 -6.7185 -2.5000 0.9528
-9.1612 -7.4799 -2.5000 0.9528
-8.8526 -7.8427 -2.5000 0.9528
-7.1050 -9.4550 -2.5000 0.9528
-6.7185 -9.7334 -2.5000 0.9528
-6.3211 -9.9961 -2.5000 0.9528
-5.0701 -10.6851 -2.5000 0.9528
-4.6358 -10.8806 -2.5000 0.9528
-2.8303 -11.4833 -2.5000 0.9528
-0.9517 -11.7886 -2.5000 0.9528
-0.4762 -11.8174 -2.5000 0.9528
0.4762 -11.8174 -2.5000 0.9528
1.8972 -11.6738 -2.5000 0.9528
2.3657 -11.5879 -2.5000 0.9528
2.8304 -11.4833 -2.5000 0.9528
3.2905 -11.3600 -2.5000 0.9528
3.7452 -11.2183 -2.5000 0.9528
4.1939 -11.0584 -2.5000 0.9528
4.6358 -10.8806 -2.5000 0.9528
5.0702 -10.6851 -2.5000 0.9528
6.7184 -9.7334 -2.5000 0.9528
7.1050 -9.4550 -2.5000 0.9528
8.5296 -8.1928 -2.5000 0.9528
9.4550 -7.1050 -2.5000 0.9528
10.2425 -5.9135 -2.5000 0.9528
10.4723 -5.4963 -2.5000 0.9528
10.6851 -5.0701 -2.5000 0.9528
11.2183 -3.7452 -2.5000 0.9528
11.3600 -3.2905 -2.5000 0.9528
8.7805 -1.7926 -1.8943 0.9640
8.7165 -1.4166 -1.8667 0.9645
8.7335 -1.0604 -1.8597 0.9647
8.8100 -0.7112 -1.8683 0.9645
8.9689 -0.3614 -1.8974 0.9640
11.5880 2.3657 -2.5000 0.9528
10.6675 3.0899 -2.3476 0.9556
10.2173 4.3532 -2.3476 0.9556
9.1400 6.3089 -2.3476 0.9556
8.8786 6.6718 -2.3476 0.9556
7.6426 7.9568 -2.3321 0.9559
7.2290 8.1599 -2.3044 0.9564
6.6318 8.8254 -2.3335 0.9559
5.1991 8.2217 -2.0562 0.9610
5.0232 9.5708 -2.2848 0.9568
3.9609 8.3475 -1.9531 0.9629
3.5256 8.2749 -1.9013 0.9639
3.1281 8.2481 -1.8647 0.9646
2.7498 8.2368 -1.8356 0.9651
2.1692 8.8008 -1.9160 0.9636
0.6623 8.2046 -1.7399 0.9669
-0.0000 8.2074 -1.7349 0.9670
-0.3308 8.2087 -1.7366 0.9670
-0.5771 7.1480 -1.5159 0.9711
-2.0223 8.2046 -1.7862 0.9660
-2.3445 7.0225 -1.5650 0.9702
-3.3956 8.9536 -2.0241 0.9616
-4.3430 8.2749 -1.9754 0.9625
-6.2256 9.0193 -2.3166 0.9562
-6.5823 8.7594 -2.3161 0.9562
-6.9282 8.4855 -2.3156 0.9562
-7.2627 8.1979 -2.3151 0.9562
-8.5257 6.9610 -2.3266 0.9560
-8.8259 6.6323 -2.3337 0.9559
-9.3709 5.9258 -2.3436 0.9557
-9.6096 5.5481 -2.3455 0.9556
-9.8281 5.1582 -2.3462 0.9556
-10.0323 4.7604 -2.3472 0.9556
-10.2169 4.3530 -2.3475 0.9556
-10.3843 3.9382 -2.3476 0.9556
-11.2169 3.7447 -2.4997 0.9528
-11.3597 3.2904 -2.4999 0.9528
-11.4833 2.8304 -2.5000 0.9528
-11.5880 2.3657 -2.5000 0.9528
-11.7407 1.4256 -2.5000 0.9528
-10.6372 0.0000 -2.5000 0.9572
-10.6286 -0.4283 -2.5000 0.9572
-10.6027 -0.8559 -2.5000 0.9572
-10.5596 -1.2822 -2.5000 0.9572
-10.4994 -1.7063 -2.5000 0.9572
-10.3281 -2.5457 -2.5000 0.9572
-10.2172 -2.9595 -2.5000 0.9572
-10.0898 -3.3685 -2.5000 0.9572
-9.7860 -4.1694 -2.5000 0.9572
-9.6102 -4.5601 -2.5000 0.9572
-9.4188 -4.9434 -2.5000 0.9572
-9.2121 -5.3186 -2.5000 0.9572
-8.5038 -6.3902 -2.5000 0.9572
-8.2396 -6.7274 -2.5000 0.9572
-7.9621 -7.0538 -2.5000 0.9572
-7.0538 -7.9621 -2.5000 0.9572
-6.7274 -8.2396 -2.5000 0.9572
-6.3902 -8.5038 -2.5000 0.9572
-6.0426 -8.7542 -2.5000 0.9572
-5.6852 -8.9905 -2.5000 0.9572
-4.9433 -9.4188 -2.5000 0.9572
-4.5601 -9.6102 -2.5000 0.9572
-4.1694 -9.7860 -2.5000 0.9572
-3.3684 -10.0898 -2.5000 0.9572
-2.9595 -10.2172 -2.5000 0.9572
-2.5457 -10.3281 -2.5000 0.9572
-2.1277 -10.4222 -2.5000 0.9572
-0.8560 -10.6027 -2.5000 0.9572
-0.0000 -10.6372 -2.5000 0.9572
0.8560 -10.6027 -2.5000 0.9572
1.2822 -10.5596 -2.5000 0.9572
2.1277 -10.4222 -2.5000 0.9572
2.5456 -10.3281 -2.5000 0.9572
2.9595 -10.2172 -2.5000 0.9572
4.1694 -9.7860 -2.5000 0.9572
4.5600 -9.6102 -2.5000 0.9572
4.9433 -9.4188 -2.5000 0.9572
5.3186 -9.2121 -2.5000 0.9572
6.0426 -8.7542 -2.5000 0.9572
6.3902 -8.5038 -2.5000 0.9572
6.7274 -8.2396 -2.5000 0.9572
7.3686 -7.6716 -2.5000 0.9572
7.6716 -7.3686 -2.5000 0.9572
8.5038 -6.3902 -2.5000 0.9572
9.6102 -4.5601 -2.5000 0.9572
9.9459 -3.7720 -2.5000 0.9572
10.2172 -2.9595 -2.5000 0.9572
8.7338 -1.7830 -2.0950 0.9640
8.7955 -0.7100 -2.0739 0.9644
10.4222 2.1277 -2.5000 0.9572
10.3281 2.5456 -2.5000 0.9572
9.5944 2.7791 -2.3476 0.9598
9.3396 3.5421 -2.3476 0.9598
9.1894 3.9152 -2.3476 0.9598
8.4424 5.3386 -2.3476 0.9598
7.7373 6.3173 -2.3476 0.9598
6.8690 7.1513 -2.3305 0.9601
6.5742 7.4207 -2.3300 0.9601
5.9558 7.9257 -2.3300 0.9601
5.6326 8.1602 -2.3304 0.9601
4.6092 8.7822 -2.3310 0.9601
3.9609 8.3475 -2.1715 0.9627
3.1382 8.2749 -2.0800 0.9643
1.8434 9.0296 -2.1659 0.9628
1.5642 9.6247 -2.2917 0.9607
0.8579 7.0650 -1.6726 0.9712
-0.3233 8.0226 -1.8870 0.9675
-0.5703 7.0642 -1.6657 0.9713
-0.8579 7.0650 -1.6726 0.9712
-1.3036 8.0214 -1.9100 0.9672
-3.6043 8.4595 -2.1611 0.9629
-4.2735 8.1425 -2.1612 0.9629
-5.2693 8.3328 -2.3171 0.9603
-5.6006 8.1139 -2.3171 0.9603
-6.5345 7.3759 -2.3159 0.9603
-7.2039 6.9194 -2.3476 0.9598
-7.7373 6.3173 -2.3476 0.9598
-8.2206 5.6743 -2.3476 0.9598
-8.6505 4.9944 -2.3476 0.9598
-9.0243 4.2821 -2.3476 0.9598
-9.1894 3.9153 -2.3476 0.9598
-10.0898 3.3684 -2.5000 0.9572
-10.2172 2.9594 -2.5000 0.9572
-10.3281 2.5457 -2.5000 0.9572
-10.4222 2.1277 -2.5000 0.9572
-10.4995 1.7063 -2.5000 0.9572
-10.5596 1.2821 -2.5000 0.9572
-10.6286 0.4283 -2.5000 0.9572
-9.6555 0.0000 -2.5000 0.9609
-9.6477 -0.3888 -2.5000 0.9609
-9.5851 -1.1638 -2.5000 0.9609
-9.4604 -1.9314 -2.5000 0.9609
-9.1586 -3.0576 -2.5000 0.9609
-9.0281 -3.4239 -2.5000 0.9609
-8.8829 -3.7846 -2.5000 0.9609
-8.5495 -4.4871 -2.5000 0.9609
-8.3619 -4.8278 -2.5000 0.9609
-8.1608 -5.1606 -2.5000 0.9609
-7.9463 -5.4850 -2.5000 0.9609
-7.2272 -6.4028 -2.5000 0.9609
-6.9636 -6.6886 -2.5000 0.9609
-6.6886 -6.9636 -2.5000 0.9609
-5.4850 -7.9463 -2.5000 0.9609
-4.8278 -8.3619 -2.5000 0.9609
-4.4871 -8.5495 -2.5000 0.9609
-4.1392 -8.7233 -2.5000 0.9609
-3.7846 -8.8829 -2.5000 0.9609
-3.4239 -9.0281 -2.5000 0.9609
-1.9314 -9.4604 -2.5000 0.9609
-1.5488 -9.5305 -2.5000 0.9609
-0.3888 -9.6477 -2.5000 0.9609
0.3888 -9.6477 -2.5000 0.9609
3.0576 -9.1586 -2.5000 0.9609
3.7846 -8.8829 -2.5000 0.9609
4.4871 -8.5495 -2.5000 0.9609
4.8278 -8.3619 -2.5000 0.9609
5.4850 -7.9463 -2.5000 0.9609
5.8005 -7.7190 -2.5000 0.9609
6.4028 -7.2273 -2.5000 0.9609
6.9636 -6.6886 -2.5000 0.9609
7.2273 -6.4028 -2.5000 0.9609
7.7190 -5.8005 -2.5000 0.9609
8.1607 -5.1606 -2.5000 0.9609
8.3619 -4.8278 -2.5000 0.9609
8.8829 -3.7846 -2.5000 0.9609
9.0281 -3.4239 -2.5000 0.9609
9.2743 -2.6863 -2.5000 0.9609
9.4604 -1.9313 -2.5000 0.9609
9.6477 -0.3888 -2.5000 0.9609
9.6555 0.0000 -2.5000 0.9609
9.6242 0.7769 -2.5000 0.9609
9.5851 1.1638 -2.5000 0.9609
9.5305 1.5489 -2.5000 0.9609
9.3749 2.3107 -2.5000 0.9609
8.6003 2.8712 -2.3476 0.9632
8.4777 3.2152 -2.3476 0.9632
8.1915 3.8869 -2.3476 0.9632
8.0283 4.2136 -2.3476 0.9632
7.8522 4.5335 -2.3476 0.9632
6.5391 6.2809 -2.3476 0.9632
6.2809 6.5391 -2.3476 0.9632
6.0125 6.7867 -2.3476 0.9632
5.7252 7.0121 -2.3438 0.9633
4.4955 7.7864 -2.3279 0.9635
4.1786 7.9616 -2.3281 0.9635
3.4868 8.1838 -2.3032 0.9639
3.0794 8.1198 -2.2485 0.9648
2.7498 8.2368 -2.2484 0.9648
2.4326 8.3984 -2.2639 0.9645
2.1355 8.6641 -2.3104 0.9638
1.7984 8.8089 -2.3278 0.9635
1.4420 8.8730 -2.3275 0.9635
0.8588 7.0729 -1.8447 0.9710
0.3159 7.8391 -2.0313 0.9681
-0.3160 7.8417 -2.0320 0.9681
-0.5709 7.0720 -1.8370 0.9711
-1.6004 7.8393 -2.0716 0.9675
-3.8398 8.0921 -2.3191 0.9637
-4.1610 7.9282 -2.3183 0.9637
-5.0846 7.3663 -2.3175 0.9637
-6.0125 6.7867 -2.3476 0.9632
-7.0233 5.7343 -2.3476 0.9632
-7.8522 4.5335 -2.3476 0.9632
-8.1915 3.8869 -2.3476 0.9632
-8.3414 3.5539 -2.3476 0.9632
-8.4777 3.2152 -2.3476 0.9632
-9.2743 2.6863 -2.5000 0.9609
-9.4604 1.9314 -2.5000 0.9609
-9.5305 1.5488 -2.5000 0.9609
-9.6477 0.3888 -2.5000 0.9609
-8.8310 0.0000 -2.5000 0.9640
-8.8238 -0.3556 -2.5000 0.9640
-8.8023 -0.7106 -2.5000 0.9640
-8.7666 -1.0645 -2.5000 0.9640
-8.7166 -1.4166 -2.5000 0.9640
-8.2571 -3.1315 -2.5000 0.9640
-8.1243 -3.4614 -2.5000 0.9640
-7.6479 -4.4155 -2.5000 0.9640
-7.4639 -4.7199 -2.5000 0.9640
-7.0598 -5.3051 -2.5000 0.9640
-6.8405 -5.5851 -2.5000 0.9640
-6.3689 -6.1174 -2.5000 0.9640
-6.1174 -6.3689 -2.5000 0.9640
-5.5851 -6.8405 -2.5000 0.9640
-5.3051 -7.0599 -2.5000 0.9640
-5.0166 -7.2677 -2.5000 0.9640
-4.4155 -7.6479 -2.5000 0.9640
-4.1040 -7.8195 -2.5000 0.9640
-3.7858 -7.9784 -2.5000 0.9640
-3.4615 -8.1243 -2.5000 0.9640
-2.7965 -8.3765 -2.5000 0.9640
-2.1134 -8.5744 -2.5000 0.9640
-1.4166 -8.7166 -2.5000 0.9640
-1.0645 -8.7666 -2.5000 0.9640
-0.7106 -8.8023 -2.5000 0.9640
-0.3556 -8.8238 -2.5000 0.9640
0.0000 -8.8310 -2.5000 0.9640
0.7106 -8.8023 -2.5000 0.9640
1.4166 -8.7166 -2.5000 0.9640
1.7664 -8.6525 -2.5000 0.9640
2.1134 -8.5744 -2.5000 0.9640
3.1315 -8.2571 -2.5000 0.9640
3.4614 -8.1243 -2.5000 0.9640
3.7858 -7.9784 -2.5000 0.9640
4.1040 -7.8194 -2.5000 0.9640
5.0166 -7.2678 -2.5000 0.9640
5.3051 -7.0599 -2.5000 0.9640
5.8560 -6.6101 -2.5000 0.9640
6.3689 -6.1174 -2.5000 0.9640
6.8405 -5.5851 -2.5000 0.9640
7.0599 -5.3051 -2.5000 0.9640
7.2677 -5.0166 -2.5000 0.9640
7.4639 -4.7199 -2.5000 0.9640
7.6478 -4.4155 -2.5000 0.9640
7.8195 -4.1040 -2.5000 0.9640
7.9783 -3.7858 -2.5000 0.9640
8.2571 -3.1315 -2.5000 0.9640
8.7166 -1.4166 -2.5000 0.9640
8.8023 -0.7106 -2.5000 0.9640
8.8310 0.0000 -2.5000 0.9640
8.7666 1.0645 -2.5000 0.9640
8.6525 1.7664 -2.5000 0.9640
8.4823 2.4569 -2.5000 0.9640
7.6291 3.2504 -2.3476 0.9661
6.2071 5.4990 -2.3476 0.9661
5.9807 5.7445 -2.3476 0.9661
5.4990 6.2071 -2.3476 0.9661
4.1236 7.1423 -2.3347 0.9663
3.8201 7.2787 -2.3271 0.9664
3.5234 7.4254 -2.3267 0.9664
3.2211 7.5601 -2.3264 0.9664
2.9136 7.6824 -2.3260 0.9664
2.6016 7.7926 -2.3257 0.9664
2.2856 7.8908 -2.3257 0.9664
1.9659 7.9760 -2.3255 0.9664
1.3175 8.1071 -2.3252 0.9664
0.8598 7.0808 -2.0192 0.9708
0.6177 7.6518 -2.1732 0.9686
-0.0000 7.6543 -2.1669 0.9687
-0.5716 7.0799 -2.0108 0.9709
-2.1783 7.5202 -2.2164 0.9680
-2.3651 7.0843 -2.1143 0.9694
-3.2115 7.5376 -2.3194 0.9665
-3.5120 7.4013 -2.3192 0.9665
-3.8067 7.2530 -2.3189 0.9665
-4.1236 7.1423 -2.3347 0.9663
-4.4321 7.0087 -2.3475 0.9661
-4.7108 6.8247 -2.3476 0.9661
-4.9817 6.6295 -2.3476 0.9661
-5.4990 6.2071 -2.3476 0.9661
-5.7445 5.9807 -2.3476 0.9661
-5.9807 5.7445 -2.3476 0.9661
-6.4235 5.2446 -2.3476 0.9661
-6.6295 4.9817 -2.3476 0.9661
-6.8247 4.7108 -2.3476 0.9661
-7.1816 4.1463 -2.3476 0.9661
-7.3428 3.8538 -2.3476 0.9661
-7.4920 3.5550 -2.3476 0.9661
-7.6291 3.2504 -2.3476 0.9661
-8.5744 2.1134 -2.5000 0.9640
-8.7666 1.0644 -2.5000 0.9640
-8.8238 0.3556 -2.5000 0.9640
-8.1214 -0.3273 -2.5000 0.9666
-8.1016 -0.6540 -2.5000 0.9666
-8.0227 -1.3038 -2.5000 0.9666
-7.8918 -1.9452 -2.5000 0.9666
-7.5998 -2.8822 -2.5000 0.9666
-7.4776 -3.1859 -2.5000 0.9666
-7.1970 -3.7773 -2.5000 0.9666
-7.0390 -4.0640 -2.5000 0.9666
-6.8697 -4.3441 -2.5000 0.9666
-6.6892 -4.6172 -2.5000 0.9666
-6.4978 -4.8828 -2.5000 0.9666
-6.2960 -5.1405 -2.5000 0.9666
-6.0839 -5.3898 -2.5000 0.9666
-5.8619 -5.6304 -2.5000 0.9666
-5.3898 -6.0839 -2.5000 0.9666
-4.8828 -6.4979 -2.5000 0.9666
-4.6172 -6.6892 -2.5000 0.9666
-4.3441 -6.8697 -2.5000 0.9666
-4.0640 -7.0390 -2.5000 0.9666
-2.8822 -7.5998 -2.5000 0.9666
-1.9451 -7.8918 -2.5000 0.9666
-0.9797 -8.0687 -2.5000 0.9666
0.0000 -8.1280 -2.5000 0.9666
0.6540 -8.1016 -2.5000 0.9666
0.9797 -8.0687 -2.5000 0.9666
1.3038 -8.0227 -2.5000 0.9666
1.9451 -7.8918 -2.5000 0.9666
2.5739 -7.7097 -2.5000 0.9666
2.8822 -7.5998 -2.5000 0.9666
3.1859 -7.4775 -2.5000 0.9666
4.0640 -7.0390 -2.5000 0.9666
4.6172 -6.6892 -2.5000 0.9666
4.8828 -6.4978 -2.5000 0.9666
5.1405 -6.2960 -2.5000 0.9666
5.3898 -6.0839 -2.5000 0.9666
5.6304 -5.8619 -2.5000 0.9666
6.6892 -4.6172 -2.5000 0.9666
7.4776 -3.1859 -2.5000 0.9666
7.8070 -2.2613 -2.5000 0.9666
7.8918 -1.9452 -2.5000 0.9666
8.0227 -1.3038 -2.5000 0.9666
8.1016 -0.6540 -2.5000 0.9666
8.1016 0.6540 -2.5000 0.9666
8.0687 0.9797 -2.5000 0.9666
7.8918 1.9452 -2.5000 0.9666
7.7097 2.5739 -2.5000 0.9666
7.1801 2.7231 -2.3619 0.9684
7.0217 2.9917 -2.3476 0.9686
6.8955 3.2720 -2.3476 0.9686
6.7582 3.5470 -2.3476 0.9686
6.2814 4.3357 -2.3476 0.9686
6.1017 4.5851 -2.3476 0.9686
5.7130 5.0613 -2.3476 0.9686
5.5046 5.2872 -2.3476 0.9686
5.2872 5.5046 -2.3476 0.9686
4.5851 6.1017 -2.3476 0.9686
4.3357 6.2814 -2.3476 0.9686
3.5470 6.7582 -2.3476 0.9686
3.2720 6.8955 -2.3476 0.9686
2.9883 7.0138 -2.3449 0.9686
2.1033 7.2614 -2.3253 0.9689
0.8607 7.0888 -2.1964 0.9706
0.6039 7.4813 -2.3086 0.9691
-0.0000 7.4837 -2.3018 0.9692
-0.3017 7.4850 -2.3041 0.9691
-1.2108 7.4503 -2.3216 0.9689
-1.5096 7.3946 -2.3213 0.9689
-1.8059 7.3268 -2.3210 0.9689
-2.3679 7.0927 -2.2999 0.9692
-2.6952 7.1068 -2.3378 0.9687
-2.9910 7.0201 -2.3470 0.9686
-3.5470 6.7582 -2.3476 0.9686
-4.3358 6.2814 -2.3476 0.9686
-4.5852 6.1017 -2.3476 0.9686
-4.8271 5.9122 -2.3476 0.9686
-5.0613 5.7130 -2.3476 0.9686
-5.5046 5.2872 -2.3476 0.9686
-5.7130 5.0613 -2.3476 0.9686
-6.2814 4.3357 -2.3476 0.9686
-6.7582 3.5470 -2.3476 0.9686
-7.1721 2.7200 -2.3593 0.9684
-7.7097 2.5739 -2.5000 0.9666
-7.8070 2.2613 -2.5000 0.9666
-7.9637 1.6258 -2.5000 0.9666
-8.0687 0.9797 -2.5000 0.9666
-8.1214 0.3273 -2.5000 0.9666
-7.5148 -0.3028 -2.5000 0.9688
-7.4965 -0.6052 -2.5000 0.9688
-7.3024 -1.7999 -2.5000 0.9688
-7.2240 -2.0925 -2.5000 0.9688
-7.1338 -2.3816 -2.5000 0.9688
-7.0321 -2.6669 -2.5000 0.9688
-6.9190 -2.9479 -2.5000 0.9688
-6.6594 -3.4951 -2.5000 0.9688
-6.5133 -3.7604 -2.5000 0.9688
-6.3566 -4.0197 -2.5000 0.9688
-6.0125 -4.5181 -2.5000 0.9688
-5.8257 -4.7565 -2.5000 0.9688
-5.6295 -4.9873 -2.5000 0.9688
-5.4241 -5.2099 -2.5000 0.9688
-4.7566 -5.8257 -2.5000 0.9688
-4.5181 -6.0125 -2.5000 0.9688
-3.4951 -6.6594 -2.5000 0.9688
-2.9479 -6.9191 -2.5000 0.9688
-2.3816 -7.1338 -2.5000 0.9688
-1.7999 -7.3023 -2.5000 0.9688
-1.5044 -7.3689 -2.5000 0.9688
-1.2064 -7.4235 -2.5000 0.9688
-0.6052 -7.4965 -2.5000 0.9688
0.3029 -7.5148 -2.5000 0.9688
0.6052 -7.4965 -2.5000 0.9688
1.2064 -7.4235 -2.5000 0.9688
1.7999 -7.3023 -2.5000 0.9688
2.9479 -6.9191 -2.5000 0.9688
3.4951 -6.6594 -2.5000 0.9688
3.7604 -6.5133 -2.5000 0.9688
4.5181 -6.0125 -2.5000 0.9688
4.7566 -5.8257 -2.5000 0.9688
4.9873 -5.6295 -2.5000 0.9688
5.6295 -4.9873 -2.5000 0.9688
5.8257 -4.7566 -2.5000 0.9688
6.0125 -4.5181 -2.5000 0.9688
6.1896 -4.2724 -2.5000 0.9688
7.0321 -2.6669 -2.5000 0.9688
7.1338 -2.3816 -2.5000 0.9688
7.3023 -1.7999 -2.5000 0.9688
7.4661 -0.9065 -2.5000 0.9688
7.4965 -0.6052 -2.5000 0.9688
7.5148 -0.3028 -2.5000 0.9688
7.5148 0.3028 -2.5000 0.9688
7.4965 0.6052 -2.5000 0.9688
7.4235 1.2064 -2.5000 0.9688
7.3689 1.5044 -2.5000 0.9688
7.1338 2.3816 -2.5000 0.9688
6.3805 3.0276 -2.3476 0.9707
6.2534 3.2821 -2.3476 0.9707
6.1162 3.5312 -2.3476 0.9707
5.9691 3.7746 -2.3476 0.9707
5.6460 4.2427 -2.3476 0.9707
5.2863 4.6832 -2.3476 0.9707
5.0934 4.8923 -2.3476 0.9707
4.8923 5.0934 -2.3476 0.9707
4.4666 5.4706 -2.3476 0.9707
4.2427 5.6460 -2.3476 0.9707
3.7746 5.9691 -2.3476 0.9707
3.2821 6.2534 -2.3476 0.9707
2.2364 6.6989 -2.3476 0.9707
1.4127 6.9197 -2.3476 0.9707
1.1323 6.9708 -2.3475 0.9707
0.8509 7.0079 -2.3466 0.9707
0.5675 7.0299 -2.3444 0.9707
0.0000 7.0479 -2.3427 0.9707
-1.4127 6.9197 -2.3476 0.9707
-1.6901 6.8572 -2.3476 0.9707
-2.2364 6.6989 -2.3476 0.9707
-2.7682 6.4973 -2.3476 0.9707
-3.2821 6.2534 -2.3476 0.9707
-3.5312 6.1162 -2.3476 0.9707
-4.4666 5.4706 -2.3476 0.9707
-4.6832 5.2863 -2.3476 0.9707
-5.0934 4.8923 -2.3476 0.9707
-5.6460 4.2427 -2.3476 0.9707
-6.1162 3.5312 -2.3476 0.9707
-7.4965 0.6052 -2.5000 0.9688
-7.5148 0.3029 -2.5000 0.9688
-6.9909 0.0000 -2.5000 0.9707
-6.9852 -0.2815 -2.5000 0.9707
-6.9004 -1.1214 -2.5000 0.9707
-6.7877 -1.6730 -2.5000 0.9707
-6.6311 -2.2138 -2.5000 0.9707
-6.1901 -3.2488 -2.5000 0.9707
-6.0543 -3.4954 -2.5000 0.9707
-5.9086 -3.7364 -2.5000 0.9707
-5.7534 -3.9713 -2.5000 0.9707
-5.5888 -4.1997 -2.5000 0.9707
-5.2328 -4.6358 -2.5000 0.9707
-4.8428 -5.0418 -2.5000 0.9707
-4.6358 -5.2327 -2.5000 0.9707
-4.4213 -5.4152 -2.5000 0.9707
-4.1997 -5.5888 -2.5000 0.9707
-3.7364 -5.9086 -2.5000 0.9707
-3.2488 -6.1901 -2.5000 0.9707
-2.9969 -6.3159 -2.5000 0.9707
-1.9450 -6.7149 -2.5000 0.9707
-1.3984 -6.8496 -2.5000 0.9707
-1.1214 -6.9003 -2.5000 0.9707
-0.2815 -6.9852 -2.5000 0.9707
0.2815 -6.9852 -2.5000 0.9707
0.8427 -6.9399 -2.5000 0.9707
1.1214 -6.9003 -2.5000 0.9707
1.3983 -6.8496 -2.5000 0.9707
1.9450 -6.7149 -2.5000 0.9707
2.2138 -6.6311 -2.5000 0.9707
2.4790 -6.5366 -2.5000 0.9707
2.7402 -6.4314 -2.5000 0.9707
2.9969 -6.3159 -2.5000 0.9707
3.2488 -6.1901 -2.5000 0.9707
3.4954 -6.0543 -2.5000 0.9707
3.9713 -5.7534 -2.5000 0.9707
4.1997 -5.5888 -2.5000 0.9707
4.4213 -5.4152 -2.5000 0.9707
4.6358 -5.2327 -2.5000 0.9707
5.0418 -4.8427 -2.5000 0.9707
5.4152 -4.4213 -2.5000 0.9707
5.5888 -4.1997 -2.5000 0.9707
5.7534 -3.9713 -2.5000 0.9707
6.1901 -3.2488 -2.5000 0.9707
6.3159 -2.9969 -2.5000 0.9707
6.4315 -2.7402 -2.5000 0.9707
6.8496 -1.3984 -2.5000 0.9707
6.9003 -1.1214 -2.5000 0.9707
6.9682 -0.5625 -2.5000 0.9707
6.9852 -0.2815 -2.5000 0.9707
6.9909 0.0000 -2.5000 0.9707
6.9852 0.2815 -2.5000 0.9707
6.9682 0.5625 -2.5000 0.9707
6.9399 0.8426 -2.5000 0.9707
6.9003 1.1214 -2.5000 0.9707
6.8496 1.3983 -2.5000 0.9707
6.7877 1.6730 -2.5000 0.9707
6.7149 1.9450 -2.5000 0.9707
6.6311 2.2138 -2.5000 0.9707
6.3437 2.7028 -2.4659 0.9711
5.6852 3.2824 -2.3476 0.9725
5.4026 3.7292 -2.3476 0.9725
5.0850 4.1518 -2.3476 0.9725
4.9138 4.3532 -2.3476 0.9725
4.7345 4.5475 -2.3476 0.9725
4.5475 4.7345 -2.3476 0.9725
4.3532 4.9137 -2.3476 0.9725
4.1518 5.0850 -2.3476 0.9725
3.2823 5.6852 -2.3476 0.9725
3.0508 5.8127 -2.3476 0.9725
2.5731 6.0394 -2.3476 0.9725
1.3131 6.4320 -2.3476 0.9725
1.0531 6.4797 -2.3476 0.9725
0.5282 6.5434 -2.3476 0.9725
-0.0000 6.5647 -2.3476 0.9725
-1.0531 6.4797 -2.3476 0.9725
-1.3131 6.4320 -2.3476 0.9725
-1.5710 6.3739 -2.3476 0.9725
-2.3279 6.1381 -2.3476 0.9725
-2.8142 5.9309 -2.3476 0.9725
-3.2823 5.6852 -2.3476 0.9725
-4.1518 5.0850 -2.3476 0.9725
-4.7345 4.5475 -2.3476 0.9725
-4.9137 4.3532 -2.3476 0.9725
-5.2481 3.9437 -2.3476 0.9725
-5.4027 3.7292 -2.3476 0.9725
-5.5484 3.5086 -2.3476 0.9725
-5.8127 3.0508 -2.3476 0.9725
-6.7149 1.9450 -2.5000 0.9707
-6.7877 1.6730 -2.5000 0.9707
-6.9004 1.1214 -2.5000 0.9707
-6.9852 0.2815 -2.5000 0.9707
-3.5687 -0.2881 -1.3720 0.9848
-3.5921 -0.4362 -1.3867 0.9846
-6.4392 -1.0465 -2.5000 0.9724
-6.3918 -1.3049 -2.5000 0.9724
-6.3341 -1.5612 -2.5000 0.9724
-6.0997 -2.3133 -2.5000 0.9724
-6.0017 -2.5571 -2.5000 0.9724
-5.7764 -3.0317 -2.5000 0.9724
-5.6497 -3.2618 -2.5000 0.9724
-5.5137 -3.4867 -2.5000 0.9724
-4.8830 -4.3260 -2.5000 0.9724
-4.7049 -4.5191 -2.5000 0.9724
-4.3260 -4.8830 -2.5000 0.9724
-4.1259 -5.0533 -2.5000 0.9724
-3.2618 -5.6497 -2.5000 0.9724
-3.0317 -5.7764 -2.5000 0.9724
-2.5571 -6.0016 -2.5000 0.9724
-2.0658 -6.1879 -2.5000 0.9724
-0.5249 -6.5025 -2.5000 0.9724
0.0000 -6.5237 -2.5000 0.9724
0.2627 -6.5184 -2.5000 0.9724
0.7863 -6.4761 -2.5000 0.9724
1.0465 -6.4392 -2.5000 0.9724
1.5612 -6.3341 -2.5000 0.9724
1.8150 -6.2661 -2.5000 0.9724
2.3133 -6.0997 -2.5000 0.9724
2.5571 -6.0016 -2.5000 0.9724
3.2618 -5.6496 -2.5000 0.9724
3.7059 -5.3689 -2.5000 0.9724
4.1259 -5.0533 -2.5000 0.9724
4.3260 -4.8830 -2.5000 0.9724
4.7049 -4.5191 -2.5000 0.9724
4.8830 -4.3260 -2.5000 0.9724
5.0533 -4.1259 -2.5000 0.9724
5.2153 -3.9190 -2.5000 0.9724
5.3689 -3.7059 -2.5000 0.9724
5.7764 -3.0317 -2.5000 0.9724
5.8938 -2.7966 -2.5000 0.9724
6.0997 -2.3133 -2.5000 0.9724
6.1879 -2.0658 -2.5000 0.9724
6.2661 -1.8150 -2.5000 0.9724
6.3341 -1.5612 -2.5000 0.9724
6.3918 -1.3049 -2.5000 0.9724
6.4392 -1.0465 -2.5000 0.9724
6.4761 -0.7863 -2.5000 0.9724
6.5025 -0.5249 -2.5000 0.9724
6.5237 -0.0000 -2.5000 0.9724
6.5184 0.2627 -2.5000 0.9724
6.3918 1.3049 -2.5000 0.9724
6.3341 1.5612 -2.5000 0.9724
6.2661 1.8150 -2.5000 0.9724
5.3053 3.0630 -2.3476 0.9741
5.0416 3.4799 -2.3476 0.9741
4.0623 4.5854 -2.3476 0.9741
3.4800 5.0416 -2.3476 0.9741
3.2741 5.1776 -2.3476 0.9741
2.8469 5.4243 -2.3476 0.9741
2.6261 5.5345 -2.3476 0.9741
1.9399 5.8107 -2.3476 0.9741
1.4661 5.9480 -2.3476 0.9741
0.4929 6.1061 -2.3476 0.9741
0.0000 6.1260 -2.3476 0.9741
-0.2467 6.1210 -2.3476 0.9741
-0.4929 6.1061 -2.3476 0.9741
-1.4661 5.9480 -2.3476 0.9741
-1.7044 5.8841 -2.3476 0.9741
-1.9399 5.8107 -2.3476 0.9741
-2.1723 5.7279 -2.3476 0.9741
-2.4012 5.6358 -2.3476 0.9741
-2.8469 5.4243 -2.3476 0.9741
-3.4800 5.0416 -2.3476 0.9741
-3.6801 4.8974 -2.3476 0.9741
-4.4181 4.2436 -2.3476 0.9741
-5.0416 3.4799 -2.3476 0.9741
-5.1776 3.2741 -2.3476 0.9741
-5.3052 3.0630 -2.3476 0.9741
-5.4243 2.8469 -2.3476 0.9741
-5.7040 2.7066 -2.4195 0.9733
-6.0017 2.5570 -2.5000 0.9724
-6.0997 2.3133 -2.5000 0.9724
-6.1879 2.0658 -2.5000 0.9724
-6.2661 1.8150 -2.5000 0.9724
-6.4392 1.0465 -2.5000 0.9724
-3.5921 0.4362 -1.3867 0.9846
-3.5687 0.2881 -1.3720 0.9848
-2.8160 0.0000 -1.1525 0.9879
-2.8096 -0.2268 -1.1536 0.9879
-3.0070 -0.6139 -1.2561 0.9868
-5.9308 -1.4618 -2.5000 0.9739
-5.8672 -1.6994 -2.5000 0.9739
-5.7940 -1.9343 -2.5000 0.9739
-5.7114 -2.1660 -2.5000 0.9739
-5.6196 -2.3943 -2.5000 0.9739
-5.2900 -3.0542 -2.5000 0.9739
-4.8833 -3.6695 -2.5000 0.9739
-4.7315 -3.8632 -2.5000 0.9739
-4.4053 -4.2314 -2.5000 0.9739
-4.2314 -4.4054 -2.5000 0.9739
-4.0506 -4.5722 -2.5000 0.9739
-3.8632 -4.7316 -2.5000 0.9739
-3.6696 -4.8833 -2.5000 0.9739
-3.4699 -5.0271 -2.5000 0.9739
-3.2647 -5.1627 -2.5000 0.9739
-2.8387 -5.4087 -2.5000 0.9739
-1.9343 -5.7940 -2.5000 0.9739
-1.6994 -5.8672 -2.5000 0.9739
-1.4618 -5.9308 -2.5000 0.9739
-0.7363 -6.0638 -2.5000 0.9739
-0.4915 -6.0885 -2.5000 0.9739
0.0000 -6.1083 -2.5000 0.9739
0.2460 -6.1034 -2.5000 0.9739
0.9799 -6.0292 -2.5000 0.9739
1.4618 -5.9308 -2.5000 0.9739
1.6994 -5.8672 -2.5000 0.9739
1.9343 -5.7940 -2.5000 0.9739
2.1661 -5.7114 -2.5000 0.9739
2.6186 -5.5186 -2.5000 0.9739
2.8387 -5.4087 -2.5000 0.9739
3.0542 -5.2900 -2.5000 0.9739
3.2647 -5.1627 -2.5000 0.9739
3.8632 -4.7315 -2.5000 0.9739
4.2314 -4.4053 -2.5000 0.9739
4.8833 -3.6695 -2.5000 0.9739
5.1627 -3.2647 -2.5000 0.9739
5.2900 -3.0542 -2.5000 0.9739
5.4087 -2.8387 -2.5000 0.9739
5.5186 -2.6186 -2.5000 0.9739
5.6196 -2.3943 -2.5000 0.9739
5.7114 -2.1660 -2.5000 0.9739
5.7940 -1.9343 -2.5000 0.9739
5.9849 -1.2218 -2.5000 0.9739
6.1083 0.0000 -2.5000 0.9739
6.1034 0.2460 -2.5000 0.9739
6.0638 0.7363 -2.5000 0.9739
5.9849 1.2218 -2.5000 0.9739
5.9308 1.4618 -2.5000 0.9739
5.7940 1.9343 -2.5000 0.9739
5.7114 2.1660 -2.5000 0.9739
5.1749 2.7160 -2.3919 0.9751
4.4431 3.6277 -2.3476 0.9755
3.9734 4.1368 -2.3476 0.9755
3.8036 4.2934 -2.3476 0.9755
3.6277 4.4431 -2.3476 0.9755
3.2584 4.7206 -2.3476 0.9755
3.0657 4.8480 -2.3476 0.9755
2.8680 4.9675 -2.3476 0.9755
2.6656 5.0789 -2.3476 0.9755
2.0340 5.3632 -2.3476 0.9755
1.8164 5.4408 -2.3476 0.9755
1.5958 5.5095 -2.3476 0.9755
1.3727 5.5693 -2.3476 0.9755
1.1473 5.6200 -2.3476 0.9755
0.9201 5.6617 -2.3476 0.9755
0.4616 5.7174 -2.3476 0.9755
0.0000 5.7360 -2.3476 0.9755
-0.2310 5.7313 -2.3476 0.9755
-0.6914 5.6941 -2.3476 0.9755
-0.9201 5.6617 -2.3476 0.9755
-1.1473 5.6200 -2.3476 0.9755
-1.3727 5.5693 -2.3476 0.9755
-1.5958 5.5095 -2.3476 0.9755
-2.6656 5.0789 -2.3476 0.9755
-2.8680 4.9675 -2.3476 0.9755
-3.0657 4.8480 -2.3476 0.9755
-3.2584 4.7206 -2.3476 0.9755
-4.1368 3.9734 -2.3476 0.9755
-4.2934 3.8036 -2.3476 0.9755
-4.4431 3.6277 -2.3476 0.9755
-5.6195 2.3942 -2.5000 0.9739
-5.7114 2.1660 -2.5000 0.9739
-3.0070 0.6139 -1.2561 0.9868
-2.8203 0.1137 -1.1552 0.9879
-2.3670 -0.0954 -1.0324 0.9897
-2.3649 -0.1909 -1.0340 0.9897
-2.3794 -0.2889 -1.0446 0.9896
-2.4021 -0.3904 -1.0606 0.9894
-2.4207 -0.4942 -1.0767 0.9893
-5.5696 -1.3728 -2.5000 0.9753
-5.1825 -2.4591 -2.5000 0.9753
-4.8483 -3.0659 -2.5000 0.9753
-4.7209 -3.2586 -2.5000 0.9753
-4.5859 -3.4461 -2.5000 0.9753
-4.4434 -3.6279 -2.5000 0.9753
-3.6279 -4.4434 -2.5000 0.9753
-3.2586 -4.7209 -2.5000 0.9753
-2.8682 -4.9678 -2.5000 0.9753
-2.6658 -5.0793 -2.5000 0.9753
-2.2484 -5.2773 -2.5000 0.9753
-2.0341 -5.3635 -2.5000 0.9753
-1.8165 -5.4411 -2.5000 0.9753
-1.5959 -5.5098 -2.5000 0.9753
-0.9202 -5.6620 -2.5000 0.9753
-0.4616 -5.7177 -2.5000 0.9753
-0.2310 -5.7317 -2.5000 0.9753
0.0000 -5.7363 -2.5000 0.9753
0.2310 -5.7317 -2.5000 0.9753
0.6914 -5.6945 -2.5000 0.9753
1.1474 -5.6204 -2.5000 0.9753
1.3728 -5.5696 -2.5000 0.9753
1.5959 -5.5098 -2.5000 0.9753
1.8165 -5.4411 -2.5000 0.9753
2.0341 -5.3636 -2.5000 0.9753
2.2484 -5.2773 -2.5000 0.9753
2.8681 -4.9678 -2.5000 0.9753
3.2586 -4.7209 -2.5000 0.9753
3.8039 -4.2937 -2.5000 0.9753
3.9737 -4.1371 -2.5000 0.9753
4.2937 -3.8039 -2.5000 0.9753
4.4434 -3.6279 -2.5000 0.9753
4.5858 -3.4461 -2.5000 0.9753
4.7209 -3.2586 -2.5000 0.9753
5.0793 -2.6658 -2.5000 0.9753
5.4411 -1.8165 -2.5000 0.9753
5.5696 -1.3728 -2.5000 0.9753
5.6620 -0.9202 -2.5000 0.9753
5.6945 -0.6914 -2.5000 0.9753
5.7177 -0.4616 -2.5000 0.9753
5.7317 -0.2310 -2.5000 0.9753
5.7363 0.0000 -2.5000 0.9753
5.7317 0.2310 -2.5000 0.9753
5.7177 0.4616 -2.5000 0.9753
5.6945 0.6914 -2.5000 0.9753
5.6204 1.1474 -2.5000 0.9753
5.5098 1.5959 -2.5000 0.9753
5.4411 1.8165 -2.5000 0.9753
5.2773 2.2484 -2.5000 0.9753
5.1825 2.4591 -2.5000 0.9753
5.0793 2.6658 -2.5000 0.9753
4.3063 3.2360 -2.3476 0.9768
4.1725 3.4067 -2.3476 0.9768
3.8849 3.7314 -2.3476 0.9768
3.5720 4.0319 -2.3476 0.9768
3.4067 4.1725 -2.3476 0.9768
3.2360 4.3063 -2.3476 0.9768
3.0600 4.4331 -2.3476 0.9768
2.8790 4.5527 -2.3476 0.9768
1.9101 5.0366 -2.3476 0.9768
1.2891 5.2301 -2.3476 0.9768
1.0775 5.2778 -2.3476 0.9768
0.6493 5.3474 -2.3476 0.9768
0.2169 5.3823 -2.3476 0.9768
-0.2169 5.3823 -2.3476 0.9768
-0.4334 5.3692 -2.3476 0.9768
-0.6493 5.3474 -2.3476 0.9768
-1.2891 5.2301 -2.3476 0.9768
-1.7058 5.1094 -2.3476 0.9768
-2.1114 4.9556 -2.3476 0.9768
-2.3092 4.8666 -2.3476 0.9768
-2.5033 4.7696 -2.3476 0.9768
-3.4067 4.1725 -2.3476 0.9768
-2.9967 3.3825 -1.9695 0.9805
-4.1725 3.4067 -2.3476 0.9768
-4.4331 3.0600 -2.3476 0.9768
-4.7051 2.7165 -2.3678 0.9766
-5.5099 1.5959 -2.5000 0.9753
-5.5696 1.3728 -2.5000 0.9753
-2.4021 0.3904 -1.0606 0.9894
-2.3649 0.1909 -1.0340 0.9897
-2.2030 0.0000 -1.0198 0.9903
-2.2008 -0.1777 -1.0220 0.9903
-2.2080 -0.2681 -1.0295 0.9902
-2.2302 -0.3625 -1.0459 0.9901
-2.2466 -0.4586 -1.0614 0.9899
-5.0499 -1.9152 -2.5000 0.9765
-4.8794 -2.3153 -2.5000 0.9765
-4.7822 -2.5099 -2.5000 0.9765
-4.5648 -2.8866 -2.5000 0.9765
-4.3177 -3.2445 -2.5000 0.9765
-4.0426 -3.5815 -2.5000 0.9765
-3.8951 -3.7413 -2.5000 0.9765
-3.5814 -4.0426 -2.5000 0.9765
-2.8866 -4.5648 -2.5000 0.9765
-2.3153 -4.8794 -2.5000 0.9765
-1.7103 -5.1229 -2.5000 0.9765
-1.5026 -5.1876 -2.5000 0.9765
-1.2925 -5.2439 -2.5000 0.9765
-0.8663 -5.3309 -2.5000 0.9765
0.0000 -5.4009 -2.5000 0.9765
0.2175 -5.3965 -2.5000 0.9765
0.4346 -5.3834 -2.5000 0.9765
1.5026 -5.1876 -2.5000 0.9765
1.7103 -5.1229 -2.5000 0.9765
2.1170 -4.9687 -2.5000 0.9765
2.7004 -4.6773 -2.5000 0.9765
2.8866 -4.5648 -2.5000 0.9765
3.4157 -4.1836 -2.5000 0.9765
3.5815 -4.0426 -2.5000 0.9765
3.7413 -3.8951 -2.5000 0.9765
3.8951 -3.7413 -2.5000 0.9765
4.0426 -3.5815 -2.5000 0.9765
4.3177 -3.2445 -2.5000 0.9765
4.6773 -2.7004 -2.5000 0.9765
4.7822 -2.5099 -2.5000 0.9765
4.8794 -2.3153 -2.5000 0.9765
5.1229 -1.7103 -2.5000 0.9765
5.2917 -1.0803 -2.5000 0.9765
5.3309 -0.8664 -2.5000 0.9765
5.3615 -0.6510 -2.5000 0.9765
5.3834 -0.4346 -2.5000 0.9765
5.3965 -0.2175 -2.5000 0.9765
5.3965 0.2175 -2.5000 0.9765
5.2439 1.2925 -2.5000 0.9765
5.1876 1.5026 -2.5000 0.9765
4.8794 2.3153 -2.5000 0.9765
4.6704 2.6965 -2.4963 0.9765
4.1800 2.8852 -2.3510 0.9779
4.0545 3.0467 -2.3476 0.9779
3.9285 3.2075 -2.3476 0.9779
3.7962 3.3631 -2.3476 0.9779
3.6577 3.5132 -2.3476 0.9779
3.2075 3.9285 -2.3476 0.9779
3.0467 4.0545 -2.3476 0.9779
2.7106 4.2865 -2.3476 0.9779
2.5358 4.3922 -2.3476 0.9779
2.3569 4.4907 -2.3476 0.9779
2.1742 4.5820 -2.3476 0.9779
1.6060 4.8106 -2.3476 0.9779
1.4110 4.8714 -2.3476 0.9779
0.4081 5.0552 -2.3476 0.9779
0.2042 5.0675 -2.3476 0.9779
0.0000 5.0716 -2.3476 0.9779
-0.2042 5.0675 -2.3476 0.9779
-0.8135 5.0060 -2.3476 0.9779
-1.0145 4.9691 -2.3476 0.9779
-1.4110 4.8714 -2.3476 0.9779
-1.6060 4.8106 -2.3476 0.9779
-1.9879 4.6658 -2.3476 0.9779
-2.1742 4.5820 -2.3476 0.9779
-2.5358 4.3922 -2.3476 0.9779
-2.9693 3.3517 -2.0727 0.9805
-3.5133 3.6577 -2.3476 0.9779
-3.7962 3.3631 -2.3476 0.9779
-3.9285 3.2075 -2.3476 0.9779
-4.1773 2.8834 -2.3495 0.9779
-4.7822 2.5099 -2.5000 0.9765
-4.9687 2.1170 -2.5000 0.9765
-5.0499 1.9152 -2.5000 0.9765
-2.3851 0.5879 -1.1371 0.9892
-2.2302 0.3624 -1.0459 0.9901
-2.2080 0.2681 -1.0295 0.9902
-2.2008 0.1777 -1.0220 0.9903
-2.0595 -0.0830 -1.0111 0.9909
-2.0571 -0.1661 -1.0123 0.9908
-2.0575 -0.2498 -1.0167 0.9908
-2.0750 -0.3372 -1.0312 0.9907
-2.0898 -0.4266 -1.0462 0.9905
-4.8343 -1.6139 -2.5000 0.9775
-4.7654 -1.8073 -2.5000 0.9775
-4.6045 -2.1849 -2.5000 0.9775
-4.5128 -2.3685 -2.5000 0.9775
-4.1944 -2.8952 -2.5000 0.9775
-3.9478 -3.2233 -2.5000 0.9775
-3.8148 -3.3797 -2.5000 0.9775
-3.6757 -3.5305 -2.5000 0.9775
-3.5305 -3.6757 -2.5000 0.9775
-3.3797 -3.8148 -2.5000 0.9775
-3.2233 -3.9478 -2.5000 0.9775
-2.7239 -4.3076 -2.5000 0.9775
-2.5483 -4.4137 -2.5000 0.9775
-2.3685 -4.5128 -2.5000 0.9775
-1.8073 -4.7654 -2.5000 0.9775
-1.6139 -4.8343 -2.5000 0.9775
-1.4180 -4.8954 -2.5000 0.9775
-1.2197 -4.9485 -2.5000 0.9775
-0.8175 -5.0306 -2.5000 0.9775
-0.2052 -5.0924 -2.5000 0.9775
0.0000 -5.0966 -2.5000 0.9775
0.2052 -5.0924 -2.5000 0.9775
0.6143 -5.0594 -2.5000 0.9775
1.2197 -4.9485 -2.5000 0.9775
1.4180 -4.8953 -2.5000 0.9775
1.6139 -4.8343 -2.5000 0.9775
1.9977 -4.6887 -2.5000 0.9775
2.1849 -4.6045 -2.5000 0.9775
2.3685 -4.5128 -2.5000 0.9775
2.5483 -4.4137 -2.5000 0.9775
2.8952 -4.1944 -2.5000 0.9775
3.0617 -4.0744 -2.5000 0.9775
3.3796 -3.8148 -2.5000 0.9775
3.5305 -3.6757 -2.5000 0.9775
3.6756 -3.5305 -2.5000 0.9775
3.9478 -3.2233 -2.5000 0.9775
4.1944 -2.8952 -2.5000 0.9775
4.6045 -2.1849 -2.5000 0.9775
4.9485 -1.2197 -2.5000 0.9775
4.9936 -1.0195 -2.5000 0.9775
5.0800 0.4101 -2.5000 0.9775
5.0594 0.6143 -2.5000 0.9775
5.0306 0.8175 -2.5000 0.9775
4.9936 1.0194 -2.5000 0.9775
4.8953 1.4179 -2.5000 0.9775
4.7654 1.8073 -2.5000 0.9775
4.4137 2.5483 -2.5000 0.9775
3.9523 2.7281 -2.3557 0.9788
3.8359 2.8825 -2.3536 0.9788
3.7071 3.0268 -2.3476 0.9789
3.5823 3.1736 -2.3476 0.9789
3.3153 3.4516 -2.3476 0.9789
3.1736 3.5823 -2.3476 0.9789
2.2241 4.2377 -2.3476 0.9789
2.0517 4.3238 -2.3476 0.9789
0.7677 4.7239 -2.3476 0.9789
0.5769 4.7510 -2.3476 0.9789
0.1927 4.7820 -2.3476 0.9789
0.0000 4.7859 -2.3476 0.9789
-0.1927 4.7820 -2.3476 0.9789
-1.1453 4.6468 -2.3476 0.9789
-1.5155 4.5396 -2.3476 0.9789
-1.6971 4.4749 -2.3476 0.9789
-1.8759 4.4029 -2.3476 0.9789
-2.0517 4.3238 -2.3476 0.9789
-2.5579 4.0450 -2.3476 0.9789
-2.7187 3.9387 -2.3476 0.9789
-2.8751 3.8260 -2.3476 0.9789
-2.8229 3.4574 -2.1894 0.9803
-2.9460 3.3254 -2.1792 0.9804
-3.7072 3.0268 -2.3476 0.9789
-3.9498 2.7263 -2.3542 0.9788
-4.2647 2.6968 -2.4751 0.9778
-4.4137 2.5483 -2.5000 0.9775
-4.5128 2.3685 -2.5000 0.9775
-4.6045 2.1849 -2.5000 0.9775
-2.0898 0.4266 -1.0462 0.9905
-2.0750 0.3372 -1.0312 0.9907
-2.0571 0.1661 -1.0123 0.9908
-2.3249 -0.6734 -1.2557 0.9892
-4.5710 -1.5260 -2.5000 0.9785
-4.5058 -1.7088 -2.5000 0.9785
-4.4334 -1.8889 -2.5000 0.9785
-4.2670 -2.2395 -2.5000 0.9785
-4.1733 -2.4095 -2.5000 0.9785
-3.8525 -2.8950 -2.5000 0.9785
-3.7328 -3.0477 -2.5000 0.9785
-3.6071 -3.1956 -2.5000 0.9785
-3.4755 -3.3382 -2.5000 0.9785
-3.3382 -3.4755 -2.5000 0.9785
-3.1956 -3.6071 -2.5000 0.9785
-3.0477 -3.7328 -2.5000 0.9785
-2.8950 -3.8525 -2.5000 0.9785
-2.7375 -3.9659 -2.5000 0.9785
-2.5756 -4.0730 -2.5000 0.9785
-2.4095 -4.1734 -2.5000 0.9785
-2.2395 -4.2670 -2.5000 0.9785
-1.8889 -4.4334 -2.5000 0.9785
-1.5260 -4.5710 -2.5000 0.9785
-1.3407 -4.6287 -2.5000 0.9785
-1.1533 -4.6790 -2.5000 0.9785
-0.9639 -4.7216 -2.5000 0.9785
0.1941 -4.8151 -2.5000 0.9785
0.3878 -4.8033 -2.5000 0.9785
0.7730 -4.7566 -2.5000 0.9785
0.9639 -4.7216 -2.5000 0.9785
1.1533 -4.6789 -2.5000 0.9785
1.3407 -4.6287 -2.5000 0.9785
1.7088 -4.5058 -2.5000 0.9785
2.0659 -4.3537 -2.5000 0.9785
2.2395 -4.2670 -2.5000 0.9785
2.4095 -4.1733 -2.5000 0.9785
2.5756 -4.0730 -2.5000 0.9785
2.7375 -3.9659 -2.5000 0.9785
3.0477 -3.7328 -2.5000 0.9785
3.3382 -3.4755 -2.5000 0.9785
4.2670 -2.2395 -2.5000 0.9785
4.4333 -1.8889 -2.5000 0.9785
4.5058 -1.7088 -2.5000 0.9785
4.7216 -0.9639 -2.5000 0.9785
4.7838 -0.5809 -2.5000 0.9785
4.8033 -0.3878 -2.5000 0.9785
4.8151 0.1940 -2.5000 0.9785
4.8033 0.3878 -2.5000 0.9785
4.7566 0.7730 -2.5000 0.9785
4.6287 1.3407 -2.5000 0.9785
4.5710 1.5260 -2.5000 0.9785
4.5058 1.7088 -2.5000 0.9785
4.4333 1.8889 -2.5000 0.9785
4.3537 2.0659 -2.5000 0.9785
4.2670 2.2395 -2.5000 0.9785
4.1733 2.4095 -2.5000 0.9785
4.0729 2.5756 -2.5000 0.9785
3.9139 2.7016 -2.4672 0.9788
3.6302 2.7279 -2.3557 0.9797
3.3872 3.0008 -2.3476 0.9798
2.7185 3.6176 -2.3476 0.9798
2.5706 3.7242 -2.3476 0.9798
2.4186 3.8246 -2.3476 0.9798
2.2626 3.9189 -2.3476 0.9798
1.9399 4.0883 -2.3476 0.9798
1.7737 4.1631 -2.3476 0.9798
1.6046 4.2311 -2.3476 0.9798
1.0829 4.3937 -2.3476 0.9798
0.9052 4.4337 -2.3476 0.9798
0.7259 4.4666 -2.3476 0.9798
0.5454 4.4922 -2.3476 0.9798
-0.3641 4.5105 -2.3476 0.9798
-0.9052 4.4337 -2.3476 0.9798
-1.0829 4.3937 -2.3476 0.9798
-1.2590 4.3465 -2.3476 0.9798
-1.4330 4.2923 -2.3476 0.9798
-2.2626 3.9189 -2.3476 0.9798
-2.5706 3.7242 -2.3476 0.9798
-3.2636 3.1347 -2.3476 0.9798
-3.6281 2.7263 -2.3544 0.9798
-3.9100 2.6989 -2.4647 0.9788
-4.1733 2.4095 -2.5000 0.9785
-4.2670 2.2395 -2.5000 0.9785
-4.5058 1.7088 -2.5000 0.9785
-4.5710 1.5260 -2.5000 0.9785
-1.9607 0.4003 -1.0382 0.9910
-1.9445 0.2361 -1.0162 0.9912
-1.8480 -0.0745 -1.0130 0.9916
-1.8463 -0.1491 -1.0145 0.9916
-1.8480 -0.3003 -1.0254 0.9915
-1.8512 -0.3779 -1.0348 0.9914
-1.8515 -0.4564 -1.0444 0.9913
-2.7121 -0.9054 -1.5660 0.9870
-4.2679 -1.6186 -2.5000 0.9794
-4.1992 -1.7891 -2.5000 0.9794
-4.1238 -1.9568 -2.5000 0.9794
-4.0417 -2.1212 -2.5000 0.9794
-3.9530 -2.2822 -2.5000 0.9794
-3.5357 -2.8868 -2.5000 0.9794
-3.2919 -3.1619 -2.5000 0.9794
-3.0268 -3.4166 -2.5000 0.9794
-2.8868 -3.5357 -2.5000 0.9794
-2.7421 -3.6490 -2.5000 0.9794
-2.5929 -3.7565 -2.5000 0.9794
-2.1212 -4.0417 -2.5000 0.9794
-1.9568 -4.1238 -2.5000 0.9794
-1.6186 -4.2679 -2.5000 0.9794
-0.9130 -4.4722 -2.5000 0.9794
-0.7322 -4.5054 -2.5000 0.9794
-0.5502 -4.5312 -2.5000 0.9794
0.0000 -4.5645 -2.5000 0.9794
0.1838 -4.5608 -2.5000 0.9794
0.3673 -4.5497 -2.5000 0.9794
0.5502 -4.5312 -2.5000 0.9794
0.7322 -4.5054 -2.5000 0.9794
0.9130 -4.4722 -2.5000 0.9794
1.0923 -4.4319 -2.5000 0.9794
1.9568 -4.1238 -2.5000 0.9794
2.1212 -4.0417 -2.5000 0.9794
2.5929 -3.7565 -2.5000 0.9794
2.8868 -3.5357 -2.5000 0.9794
3.1619 -3.2919 -2.5000 0.9794
3.2919 -3.1619 -2.5000 0.9794
3.4166 -3.0268 -2.5000 0.9794
3.5357 -2.8868 -2.5000 0.9794
3.7565 -2.5929 -2.5000 0.9794
3.8579 -2.4396 -2.5000 0.9794
3.9530 -2.2823 -2.5000 0.9794
4.1992 -1.7891 -2.5000 0.9794
4.2679 -1.6186 -2.5000 0.9794
4.3296 -1.4454 -2.5000 0.9794
4.3842 -1.2699 -2.5000 0.9794
4.4722 -0.9130 -2.5000 0.9794
4.5054 -0.7322 -2.5000 0.9794
4.5497 -0.3673 -2.5000 0.9794
4.5608 0.1838 -2.5000 0.9794
4.5312 0.5502 -2.5000 0.9794
4.5054 0.7322 -2.5000 0.9794
4.4318 1.0923 -2.5000 0.9794
4.3296 1.4454 -2.5000 0.9794
4.2679 1.6186 -2.5000 0.9794
4.1992 1.7891 -2.5000 0.9794
3.8579 2.4396 -2.5000 0.9794
2.9692 3.0912 -2.3476 0.9806
2.8423 3.2083 -2.3476 0.9806
2.7108 3.3201 -2.3476 0.9806
2.4349 3.5275 -2.3476 0.9806
2.2908 3.6227 -2.3476 0.9806
2.1431 3.7120 -2.3476 0.9806
1.8375 3.8724 -2.3476 0.9806
1.5199 4.0077 -2.3476 0.9806
0.8574 4.1996 -2.3476 0.9806
0.6876 4.2307 -2.3476 0.9806
0.5166 4.2550 -2.3476 0.9806
0.3449 4.2723 -2.3476 0.9806
0.1726 4.2828 -2.3476 0.9806
0.0000 4.2862 -2.3476 0.9806
-0.1726 4.2828 -2.3476 0.9806
-0.5167 4.2550 -2.3476 0.9806
-0.8574 4.1996 -2.3476 0.9806
-1.1925 4.1170 -2.3476 0.9806
-1.3573 4.0656 -2.3476 0.9806
-1.5199 4.0077 -2.3476 0.9806
-1.9919 3.7953 -2.3476 0.9806
-2.1431 3.7120 -2.3476 0.9806
-2.7108 3.3201 -2.3476 0.9806
-2.8423 3.2083 -2.3476 0.9806
-3.0912 2.9692 -2.3476 0.9806
-3.5926 2.6996 -2.4613 0.9797
-3.7565 2.5929 -2.5000 0.9794
-4.1238 1.9567 -2.5000 0.9794
-4.2679 1.6186 -2.5000 0.9794
-2.7121 0.9054 -1.5660 0.9870
-1.8515 0.4563 -1.0444 0.9913
-1.8512 0.3779 -1.0348 0.9914
-1.8480 0.3003 -1.0254 0.9915
-1.8480 0.0745 -1.0130 0.9916
-1.7547 0.0000 -1.0131 0.9919
-1.7513 -0.2126 -1.0185 0.9919
-1.7575 -0.3588 -1.0356 0.9917
-1.7575 -0.4332 -1.0450 0.9917
-2.2037 -0.7357 -1.3413 0.9893
-4.0487 -1.5355 -2.5000 0.9802
-3.9836 -1.6973 -2.5000 0.9802
-3.8341 -2.0123 -2.5000 0.9802
-3.7500 -2.1651 -2.5000 0.9802
-3.4617 -2.6013 -2.5000 0.9802
-3.3541 -2.7386 -2.5000 0.9802
-2.8714 -3.2411 -2.5000 0.9802
-2.7385 -3.3541 -2.5000 0.9802
-2.6013 -3.4617 -2.5000 0.9802
-2.1651 -3.7500 -2.5000 0.9802
-1.8563 -3.9120 -2.5000 0.9802
-1.6973 -3.9836 -2.5000 0.9802
-1.5355 -4.0487 -2.5000 0.9802
-1.3712 -4.1073 -2.5000 0.9802
-1.0363 -4.2043 -2.5000 0.9802
-0.5219 -4.2985 -2.5000 0.9802
-0.1743 -4.3266 -2.5000 0.9802
0.0000 -4.3301 -2.5000 0.9802
0.5219 -4.2985 -2.5000 0.9802
0.6946 -4.2740 -2.5000 0.9802
1.0363 -4.2043 -2.5000 0.9802
1.2047 -4.1592 -2.5000 0.9802
1.6973 -3.9836 -2.5000 0.9802
2.0123 -3.8341 -2.5000 0.9802
2.1651 -3.7500 -2.5000 0.9802
2.3143 -3.6598 -2.5000 0.9802
2.4598 -3.5636 -2.5000 0.9802
