ply
format ascii 1.0
element vertex 1573
property float32 x
property float32 y
property float32 z
property float32 I
end_header
-32.3076 -7.9631 2.8168 0.8750
-35.9024 -11.9860 3.2041 0.8590
-34.8021 -13.1987 3.1508 0.8612
-33.0313 -22.7999 3.3976 0.8512
-2.0960 -17.2620 1.4720 0.9326
-1.3904 -17.2230 1.4627 0.9330
-0.6927 -17.1892 1.4563 0.9333
0.0000 -17.1603 1.4527 0.9334
0.6906 -17.1362 1.4518 0.9335
1.3818 -17.1168 1.4537 0.9334
2.0766 -17.1020 1.4584 0.9332
3.4882 -17.0864 1.4762 0.9324
27.0170 -28.1276 3.3015 0.8551
25.7630 -21.0349 2.8155 0.8750
25.8096 -14.9012 2.5229 0.8872
30.0027 -15.7467 2.8684 0.8728
37.1194 -14.0775 3.3607 0.8527
28.7024 -8.3138 2.5296 0.8870
28.8626 -4.6906 2.4754 0.8892
22.2984 4.5523 1.9266 0.9127
20.7754 5.1207 1.8113 0.9177
35.5840 18.6758 3.4020 0.8510
21.3031 16.0082 2.2558 0.8986
19.5754 15.9828 2.1393 0.9035
2.9654 2.8483 0.3481 0.9836
2.6949 3.0419 0.3440 0.9838
8.3164 10.1856 1.1131 0.9486
14.2818 19.0056 2.0125 0.9090
6.4966 10.2735 1.0290 0.9524
5.3605 10.2135 0.9765 0.9548
5.1791 10.9146 1.0227 0.9527
4.5897 10.7723 0.9912 0.9541
4.3139 11.3749 1.0298 0.9523
3.1467 15.4135 1.3317 0.9388
0.7100 17.6178 1.4926 0.9317
-4.5165 22.1231 1.9114 0.9133
-5.8651 23.7958 2.0747 0.9063
-16.1372 42.5502 3.8523 0.8330
-20.1356 42.4350 3.9761 0.8282
-8.7045 13.7651 1.3787 0.9367
-40.2615 23.2449 3.9355 0.8298
-37.6928 19.7827 3.6036 0.8429
-37.8683 4.5981 3.2292 0.8580
-37.2171 3.0045 3.1608 0.8608
-48.6972 1.9625 4.1257 0.8223
-44.9197 -5.4543 2.8059 0.8341
-32.2002 -6.5738 2.0379 0.8766
-32.4735 -8.0040 2.0740 0.8746
-36.8863 -10.6842 2.3814 0.8574
-35.2788 -18.5158 2.4706 0.8524
-32.3100 -20.4317 2.3705 0.8580
-33.3044 -22.9884 2.5094 0.8503
-2.0040 -16.5048 1.0310 0.9355
-1.3298 -16.4721 1.0248 0.9359
0.0000 -16.4170 1.0180 0.9363
1.9863 -16.3585 1.0218 0.9361
2.6563 -16.3451 1.0269 0.9358
3.3348 -16.3348 1.0338 0.9354
14.5031 -22.9348 1.6827 0.8970
14.1623 -18.8466 1.4619 0.9098
14.6113 -16.4928 1.3663 0.9155
15.8939 -16.5473 1.4228 0.9121
20.5450 -16.7745 1.6447 0.8992
25.5982 -19.2358 1.9856 0.8796
25.3352 -17.4876 1.9090 0.8839
30.0028 -15.7467 2.1012 0.8730
23.0473 -10.9361 1.5819 0.9028
23.5318 -10.0259 1.5861 0.9026
27.9522 -9.3318 1.8274 0.8886
29.3732 -5.9966 1.8590 0.8868
30.0741 -4.8875 1.8894 0.8851
24.2524 -0.0000 1.5039 0.9074
21.5115 4.3916 1.3614 0.9158
19.3489 5.6045 1.2491 0.9224
21.0732 7.9920 1.3976 0.9136
44.5947 19.0000 3.0059 0.8234
33.7581 19.4902 2.4172 0.8554
21.3030 16.0082 1.6524 0.8987
19.5754 15.9828 1.5671 0.9037
2.6942 3.0412 0.2519 0.9838
6.4569 8.5925 0.6665 0.9578
6.1763 8.9479 0.6742 0.9574
5.8922 9.3176 0.6836 0.9568
3.3277 11.4883 0.7417 0.9532
2.8923 11.7342 0.7494 0.9527
2.4188 11.8477 0.7498 0.9527
0.6423 15.9372 0.9891 0.9381
0.0000 15.9162 0.9870 0.9382
-0.6416 15.9222 0.9881 0.9381
-1.6727 20.7199 1.2890 0.9201
-2.5120 20.6883 1.2923 0.9199
-3.3577 20.6606 1.2980 0.9195
-4.5165 22.1231 1.4002 0.9135
-36.9932 19.4155 2.5907 0.8458
-37.4692 17.7794 2.5718 0.8469
-39.9242 17.0101 2.6911 0.8404
-40.5175 8.2717 2.5643 0.8473
-39.4836 6.4167 2.4805 0.8519
-47.2261 -3.8125 1.8682 0.8272
-41.2002 -5.0027 1.6365 0.8469
-39.9044 -6.4852 1.5941 0.8506
-32.4643 -6.6277 1.3065 0.8758
-32.4598 -8.0007 1.3182 0.8747
-36.1570 -18.9767 1.6101 0.8492
-32.5821 -20.6037 1.5201 0.8570
-30.7607 -23.1152 1.5172 0.8572
-30.4581 -24.8683 1.5505 0.8544
-3.6407 -14.7710 0.5999 0.9409
-1.8371 -11.3042 0.4516 0.9552
-1.7862 -14.7103 0.5843 0.9424
0.5897 -14.6325 0.5774 0.9431
2.3685 -14.5742 0.5822 0.9426
4.2041 -14.5141 0.5958 0.9413
14.7406 -31.0652 1.3558 0.8714
14.9751 -28.5327 1.2706 0.8790
14.5059 -25.1250 1.1440 0.8904
14.6388 -19.4807 0.9608 0.9071
14.9866 -15.6027 0.8531 0.9170
16.2650 -15.6227 0.8893 0.9137
25.8201 -14.9073 1.1756 0.8875
32.0133 -15.1905 1.3972 0.8678
23.5318 -10.0259 1.0086 0.9027
37.1193 -14.0775 1.5654 0.8531
38.1506 -12.7366 1.5859 0.8513
29.9267 -8.6684 1.2285 0.8827
45.8476 -11.3004 1.8619 0.8278
33.0035 -5.3636 1.3184 0.8747
22.2876 2.7062 0.8853 0.9140
21.9157 3.5617 0.8755 0.9150
44.9189 17.0355 1.8943 0.8250
43.8414 18.6790 1.8791 0.8263
34.2019 19.7464 1.5572 0.8538
33.9666 21.4791 1.5847 0.8514
24.2073 16.7091 1.1598 0.8889
22.4777 16.8909 1.1087 0.8935
2.9634 2.8464 0.1620 0.9837
14.2863 19.0117 0.9377 0.9092
7.3339 10.6249 0.5091 0.9496
5.5632 9.6357 0.4387 0.9564
5.2959 10.0904 0.4493 0.9554
3.3641 10.0767 0.4189 0.9584
3.2640 11.2686 0.4626 0.9541
3.9916 16.1944 0.6577 0.9354
2.6246 16.1496 0.6451 0.9366
0.0001 7.9845 0.3148 0.9685
-0.6577 8.1482 0.3223 0.9678
-1.0071 8.2950 0.3295 0.9671
-4.2131 20.6373 0.8305 0.9191
-5.0817 20.6174 0.8373 0.9185
-33.3614 29.5557 1.7575 0.8366
-34.9619 28.5455 1.7797 0.8347
-40.2570 23.2424 1.8329 0.8302
-38.0660 3.0730 1.5059 0.8582
-38.0956 1.5352 1.5034 0.8585
-41.9000 -5.0877 0.7130 0.8446
-31.8772 -22.0032 0.6543 0.8565
-32.8906 -26.8543 0.7173 0.8438
-3.0113 -14.7504 0.2543 0.9416
-1.8367 -11.3016 0.1934 0.9552
-1.7862 -14.7103 0.2503 0.9424
-0.5912 -14.6711 0.2480 0.9430
0.0000 -14.6518 0.2475 0.9431
0.5897 -14.6325 0.2474 0.9431
1.7720 -14.5937 0.2483 0.9429
3.5824 -14.5344 0.2529 0.9419
4.2041 -14.5141 0.2552 0.9413
15.1096 -28.7890 0.5492 0.8780
14.9060 -25.8179 0.5036 0.8876
14.9405 -23.6265 0.4722 0.8942
14.3638 -20.8095 0.4271 0.9038
14.7587 -18.0761 0.3942 0.9109
12.6143 -14.2386 0.3213 0.9267
15.9488 -14.1294 0.3599 0.9183
17.2530 -14.0866 0.3762 0.9147
20.2651 -13.9880 0.4159 0.9062
25.8201 -14.9073 0.5036 0.8876
29.9605 -15.7245 0.5716 0.8734
32.3993 -15.3736 0.6058 0.8663
23.5318 -10.0259 0.4321 0.9027
38.6597 -12.9065 0.6885 0.8495
29.9165 -8.6654 0.5261 0.8828
46.3282 -11.4189 0.8060 0.8262
25.6124 0.0000 0.4326 0.9026
24.4097 0.9837 0.4127 0.9069
19.3035 3.1371 0.3303 0.9247
22.0780 7.3707 0.3932 0.9111
22.3658 8.4822 0.4041 0.9087
44.3257 18.8854 0.8139 0.8247
38.4898 22.2221 0.7507 0.8371
20.4966 16.7350 0.4470 0.8996
2.6930 3.0397 0.0686 0.9839
7.5111 9.9953 0.2112 0.9512
4.7174 8.9881 0.1715 0.9602
4.3015 10.0960 0.1854 0.9570
3.7214 9.8123 0.1773 0.9589
3.1090 9.3125 0.1658 0.9615
3.1632 10.9206 0.1921 0.9555
2.7711 13.5736 0.2340 0.9461
2.6246 16.1496 0.2764 0.9366
0.3189 7.9108 0.1337 0.9688
0.0001 7.8224 0.1321 0.9692
-0.3152 7.8243 0.1323 0.9692
-0.9925 8.1741 0.1391 0.9676
-1.7248 8.4490 0.1457 0.9661
-31.8569 30.5990 0.7461 0.8380
-37.8978 21.8803 0.7392 0.8394
-38.1753 20.0359 0.7283 0.8416
-38.3170 18.1816 0.7164 0.8439
-40.0011 9.8594 0.6959 0.8480
-39.9052 8.1467 0.6880 0.8496
-35.8094 2.8908 0.6069 0.8661
-47.5772 -7.7321 -0.2714 0.8246
-32.9786 -8.1286 -0.1912 0.8730
-33.4267 -9.6822 -0.1959 0.8700
-31.4693 -21.7217 -0.2153 0.8582
-31.2463 -23.4801 -0.2201 0.8553
-32.6677 -26.6723 -0.2374 0.8448
-4.2686 -14.7369 -0.0864 0.9405
-3.6407 -14.7710 -0.0857 0.9410
-1.8363 -11.2990 -0.0644 0.9552
-0.5912 -14.6711 -0.0827 0.9430
0.0000 -14.6518 -0.0825 0.9431
0.5897 -14.6325 -0.0825 0.9431
1.1779 -14.5903 -0.0824 0.9431
1.7720 -14.5937 -0.0828 0.9429
3.5824 -14.5344 -0.0843 0.9419
13.0928 -34.5231 -0.2079 0.8627
15.2170 -32.0693 -0.1999 0.8676
14.9405 -23.6265 -0.1574 0.8942
14.6982 -21.2940 -0.1457 0.9017
12.6143 -14.2386 -0.1071 0.9267
13.6440 -14.2049 -0.1109 0.9242
14.7511 -14.1686 -0.1152 0.9214
15.9488 -14.1294 -0.1200 0.9183
18.6836 -14.0398 -0.1316 0.9108
25.2596 -15.9732 -0.1683 0.8873
32.1924 -15.2755 -0.2006 0.8672
29.9064 -8.6625 -0.1753 0.8829
44.0683 7.1618 -0.2514 0.8364
43.6984 18.6181 -0.2674 0.8270
44.2089 20.9774 -0.2755 0.8222
35.0429 22.1598 -0.2334 0.8472
24.2073 16.7091 -0.1656 0.8890
21.5051 17.5583 -0.1563 0.8949
19.6794 17.4344 -0.1480 0.9002
2.7814 2.8958 -0.0226 0.9841
2.6923 3.0390 -0.0229 0.9839
6.9323 9.2251 -0.0650 0.9549
6.5946 9.5539 -0.0654 0.9546
6.2144 9.8272 -0.0655 0.9546
5.0861 9.6907 -0.0616 0.9572
3.3536 10.0450 -0.0596 0.9585
2.1405 17.6286 -0.1000 0.9314
0.6466 8.0086 -0.0452 0.9684
0.3144 7.7999 -0.0439 0.9693
-0.9772 8.0483 -0.0456 0.9681
-1.3261 8.1605 -0.0465 0.9675
-2.1289 8.6377 -0.0501 0.9650
-38.8974 20.4149 -0.2473 0.8389
-39.0260 18.5180 -0.2432 0.8413
-40.0020 9.8596 -0.2320 0.8481
-39.4036 8.0443 -0.2264 0.8514
-41.0632 6.6734 -0.2342 0.8467
-37.5495 4.5593 -0.2130 0.8596
-32.9798 -8.1288 -0.9564 0.8729
-27.6564 -11.7833 -0.8465 0.8867
-33.6544 -35.0379 -1.3680 0.8233
-4.2686 -14.7369 -0.4320 0.9405
-3.6407 -14.7710 -0.4284 0.9409
-3.0113 -14.7504 -0.4239 0.9415
-1.8358 -11.2964 -0.3223 0.9552
-1.1859 -14.6906 -0.4150 0.9427
4.2041 -14.5141 -0.4255 0.9413
11.5424 -34.5739 -1.0263 0.8643
14.6886 -34.4755 -1.0552 0.8607
15.1096 -28.7890 -0.9155 0.8780
14.9060 -25.8179 -0.8395 0.8875
14.9405 -23.6265 -0.7871 0.8942
14.8123 -19.7115 -0.6943 0.9060
12.6143 -14.2386 -0.5356 0.9267
13.6440 -14.2049 -0.5546 0.9242
20.2651 -13.9880 -0.6934 0.9062
25.2596 -15.9733 -0.8415 0.8873
25.8201 -14.9073 -0.8395 0.8875
23.5318 -10.0259 -0.7202 0.9027
38.8955 -12.9852 -1.1546 0.8487
29.8964 -8.6596 -0.8764 0.8829
46.3282 -11.4189 -1.3435 0.8262
42.5881 1.7162 -1.2002 0.8432
44.0683 7.1618 -1.2571 0.8364
33.1232 8.1641 -0.9606 0.8724
16.6625 6.3192 -0.5018 0.9312
13.6141 6.4600 -0.4243 0.9415
33.5963 23.1899 -1.1495 0.8493
21.5051 17.5583 -0.7817 0.8949
19.6794 17.4344 -0.7403 0.9001
2.6917 3.0383 -0.1143 0.9839
6.5915 8.0730 -0.2935 0.9592
6.3429 8.4407 -0.2973 0.9586
6.0435 8.7554 -0.2996 0.9583
5.6982 9.0108 -0.3002 0.9582
5.7919 10.0317 -0.3262 0.9547
3.3442 10.0171 -0.2974 0.9586
0.6451 7.9900 -0.2257 0.9684
0.0001 7.6892 -0.2165 0.9697
-0.6285 7.7865 -0.2200 0.9692
-1.3131 8.0799 -0.2305 0.9678
-6.3050 18.8858 -0.5606 0.9234
-4.2568 3.4756 -0.1547 0.9782
-4.3101 3.2389 -0.1518 0.9787
-41.2567 21.6531 -1.3120 0.8299
-28.3262 -1.1415 -1.4377 0.8927
-48.1684 -5.8487 -2.4608 0.8234
-47.5433 -7.7266 -2.4428 0.8246
-28.1146 -5.7397 -1.4552 0.8914
-45.2109 -17.1462 -2.4522 0.8239
-42.6628 -22.3911 -2.4435 0.8245
-27.9067 -16.1119 -1.6342 0.8789
-27.9334 -17.6640 -1.6761 0.8760
-27.9913 -21.0341 -1.7757 0.8692
-28.0230 -22.8801 -1.8347 0.8651
-34.2930 -32.9389 -2.4115 0.8266
-28.1332 -29.2898 -2.0596 0.8499
-28.1765 -31.8046 -2.1549 0.8435
-28.2826 -37.6373 -2.3876 0.8282
-3.6407 -14.7710 -0.7715 0.9409
-1.1859 -14.6906 -0.7474 0.9427
-0.5912 -14.6711 -0.7446 0.9429
0.5897 -14.6325 -0.7427 0.9430
3.5824 -14.5344 -0.7592 0.9418
11.5424 -34.5739 -1.8485 0.8642
15.2170 -32.0693 -1.8002 0.8675
15.1096 -28.7890 -1.6489 0.8779
14.9060 -25.8179 -1.5119 0.8875
14.8123 -19.7115 -1.2504 0.9060
13.6440 -14.2049 -0.9989 0.9241
15.9488 -14.1294 -1.0806 0.9182
17.2530 -14.0866 -1.1296 0.9147
18.6836 -14.0398 -1.1852 0.9106
20.2651 -13.9880 -1.2488 0.9061
25.8201 -14.9073 -1.5120 0.8874
28.8160 -15.1238 -1.6504 0.8778
28.5918 -13.5670 -1.6050 0.8810
37.2580 -14.1301 -2.0208 0.8525
38.6597 -12.9065 -2.0669 0.8494
29.8863 -8.6567 -1.5780 0.8828
45.1734 -11.1343 -2.3595 0.8300
45.5436 -9.2978 -2.3574 0.8301
45.8056 -7.4442 -2.3535 0.8304
49.1634 -3.9689 -2.5014 0.8207
45.2287 3.6512 -2.3012 0.8338
48.9637 5.9453 -2.5014 0.8207
45.4852 9.2859 -2.3543 0.8303
24.9049 7.2137 -1.3150 0.9014
19.7843 6.6049 -1.0578 0.9199
16.2832 6.1754 -0.8832 0.9326
13.9093 5.9262 -0.7668 0.9412
12.2894 5.8314 -0.6899 0.9470
9.0168 5.7019 -0.5410 0.9582
8.1770 6.1446 -0.5187 0.9599
19.6794 17.4344 -1.3333 0.9001
7.6564 10.1887 -0.6463 0.9502
5.6164 8.1367 -0.5014 0.9612
5.6378 8.9154 -0.5350 0.9586
5.4181 9.3843 -0.5495 0.9575
3.3463 10.0234 -0.5359 0.9586
2.7692 9.5603 -0.5048 0.9609
2.2253 18.3267 -0.9363 0.9287
0.6467 8.0106 -0.4076 0.9683
0.0001 7.6796 -0.3895 0.9697
-0.3087 7.6628 -0.3889 0.9698
-0.6292 7.7952 -0.3966 0.9692
-0.9695 7.9854 -0.4079 0.9683
-1.3247 8.1517 -0.4188 0.9675
-1.7008 8.3316 -0.4312 0.9665
-5.9657 14.0020 -0.7719 0.9409
-5.9446 11.3265 -0.6487 0.9501
-5.8742 10.1744 -0.5958 0.9540
-5.7590 9.1071 -0.5465 0.9578
-5.9424 7.9078 -0.5016 0.9612
-6.4100 7.8508 -0.5140 0.9602
-6.4510 6.7161 -0.4723 0.9634
-30.1386 28.9485 -2.1193 0.8459
-35.4871 31.4388 -2.4044 0.8271
-4.3255 3.5317 -0.2832 0.9779
-23.6423 14.9505 -1.4186 0.8940
-29.2772 15.3658 -1.6768 0.8760
-23.3402 8.8517 -1.2659 0.9049
-28.8417 8.3541 -1.5228 0.8867
-47.2838 9.6531 -2.4474 0.8242
-28.4846 2.2995 -1.4493 0.8919
-48.4714 1.9533 -2.4602 0.8234
-28.2737 -2.2825 -2.0798 0.8925
-32.5410 -3.9512 -2.4035 0.8768
-32.3484 -5.2571 -2.4030 0.8768
-28.1146 -5.7397 -2.1039 0.8913
-27.9493 -9.3309 -2.1605 0.8885
-27.8569 -13.2183 -2.2608 0.8837
-28.8807 -15.1578 -2.3915 0.8774
-26.0379 -19.5662 -2.3881 0.8775
-25.2244 -20.5951 -2.3877 0.8776
-24.7996 -21.9705 -2.4293 0.8756
-24.6813 -23.7068 -2.5093 0.8717
-23.9970 -24.9834 -2.5400 0.8703
-20.8106 -27.6939 -2.5400 0.8703
-17.3207 -30.0004 -2.5400 0.8703
-13.5783 -31.8694 -2.5400 0.8703
-4.2686 -14.7369 -1.1250 0.9403
-1.8350 -11.2912 -0.8388 0.9552
-1.1859 -14.6906 -1.0807 0.9426
-0.5912 -14.6711 -1.0766 0.9428
0.0000 -14.6518 -1.0743 0.9429
1.1779 -14.5903 -1.0733 0.9430
1.7720 -14.5937 -1.0779 0.9427
3.5824 -14.5344 -1.0976 0.9417
4.2041 -14.5141 -1.1079 0.9412
10.2785 -30.7878 -2.3799 0.8779
11.5074 -30.3426 -2.3794 0.8780
14.6982 -21.2940 -1.8971 0.9014
14.8123 -19.7115 -1.8079 0.9058
14.7587 -18.0761 -1.7110 0.9107
12.6143 -14.2386 -1.3948 0.9265
15.9488 -14.1294 -1.5623 0.9181
20.2651 -13.9880 -1.8055 0.9060
25.2596 -15.9733 -2.1913 0.8870
25.8201 -14.9073 -2.1861 0.8873
28.5197 -14.9683 -2.3616 0.8788
23.5318 -10.0259 -1.8755 0.9025
30.4560 -10.1677 -2.3543 0.8792
29.8762 -8.6538 -2.2806 0.8827
33.6734 -5.4725 -2.5014 0.8721
33.8664 -4.1121 -2.5014 0.8721
34.0045 -2.7451 -2.5014 0.8721
34.0875 -1.3737 -2.5014 0.8721
34.0875 1.3737 -2.5014 0.8721
31.4525 6.4211 -2.3537 0.8792
31.1763 7.6843 -2.3543 0.8792
14.0586 5.9898 -1.1205 0.9406
12.8496 6.0972 -1.0429 0.9446
11.1890 5.8725 -0.9265 0.9506
9.7871 5.6506 -0.8286 0.9557
7.4563 5.6030 -0.6839 0.9633
7.0656 5.7689 -0.6688 0.9641
6.3009 5.5820 -0.6172 0.9668
2.9584 2.8416 -0.3008 0.9837
2.7795 2.8937 -0.2942 0.9840
4.3030 5.7262 -0.5252 0.9717
3.9826 5.7697 -0.5140 0.9723
3.7419 5.9173 -0.5133 0.9723
3.6042 6.2425 -0.5285 0.9715
2.8999 5.5252 -0.4575 0.9753
2.7919 5.8836 -0.4775 0.9742
2.5568 6.0010 -0.4783 0.9742
2.3180 6.1120 -0.4793 0.9741
1.9489 5.8375 -0.4512 0.9756
1.7130 5.9140 -0.4515 0.9756
1.0083 6.2038 -0.4608 0.9751
0.6484 8.0312 -0.5908 0.9682
0.0001 7.6916 -0.5640 0.9696
-0.4701 5.8241 -0.4284 0.9768
-1.3365 8.2240 -0.6109 0.9671
-1.2464 6.1054 -0.4569 0.9753
-3.0112 9.0200 -0.6972 0.9626
-2.2826 6.0186 -0.4720 0.9745
-3.4905 6.0456 -0.5119 0.9724
-3.5956 5.6860 -0.4933 0.9734
-3.7328 5.4078 -0.4818 0.9740
-4.3707 5.8163 -0.5334 0.9712
-4.7958 5.4132 -0.5303 0.9714
-4.3255 3.5317 -0.4094 0.9779
-4.3160 3.2433 -0.3959 0.9786
-23.5324 16.2432 -2.0966 0.8916
-28.8330 15.1328 -2.3876 0.8776
-29.1708 13.8417 -2.3674 0.8785
-28.6116 4.6498 -2.1254 0.8902
-28.4846 2.2995 -2.0953 0.8917
-32.7529 1.3199 -2.4035 0.8768
-26.0939 0.0000 -2.5051 0.9005
-25.9698 -2.0965 -2.5013 0.9006
-25.9066 -3.1456 -2.5054 0.9004
-25.8423 -4.1998 -2.5135 0.9001
-25.7767 -5.2624 -2.5257 0.8997
-25.6880 -6.3316 -2.5400 0.8991
-25.0952 -8.3780 -2.5400 0.8991
-24.7375 -9.3817 -2.5400 0.8991
-22.3610 -14.1403 -2.5400 0.8991
-18.3273 -19.0807 -2.5400 0.8991
-16.7325 -20.4935 -2.5400 0.8991
-15.8937 -21.1507 -2.5400 0.8991
-13.2284 -22.9123 -2.5400 0.8991
-11.3418 -23.9024 -2.5400 0.8991
-9.3817 -24.7375 -2.5400 0.8991
-7.8758 -23.5911 -2.3877 0.9049
-3.0113 -14.7504 -1.4453 0.9413
-1.1859 -14.6906 -1.4150 0.9425
-0.5912 -14.6711 -1.4096 0.9427
0.0000 -14.6518 -1.4066 0.9428
3.5824 -14.5344 -1.4371 0.9416
4.2041 -14.5141 -1.4507 0.9411
7.8236 -23.4345 -2.3719 0.9055
14.0072 -20.2929 -2.3673 0.9057
12.6143 -14.2386 -1.8263 0.9264
14.7511 -14.1686 -1.9636 0.9211
15.9488 -14.1294 -2.0456 0.9179
20.7662 -13.1317 -2.3588 0.9060
21.2603 -12.2746 -2.3569 0.9061
22.5254 -9.5972 -2.3507 0.9063
25.5283 -5.2116 -2.5014 0.9006
25.7174 -4.1795 -2.5014 0.9006
25.8649 -3.1406 -2.5014 0.9006
25.9703 -2.0966 -2.5014 0.9006
26.0337 -1.0491 -2.5014 0.9006
26.0337 1.0491 -2.5014 0.9006
24.1585 3.9261 -2.3498 0.9063
23.5548 6.8227 -2.3543 0.9062
15.9362 6.0438 -1.6363 0.9338
12.0257 5.7062 -1.2779 0.9479
7.3474 5.5212 -0.8823 0.9637
7.0279 5.7381 -0.8710 0.9642
2.7788 2.8931 -0.3851 0.9840
2.6898 3.0362 -0.3894 0.9838
4.5500 5.5727 -0.6907 0.9715
4.2663 5.6773 -0.6818 0.9719
3.9574 5.7332 -0.6688 0.9724
3.6945 5.8424 -0.6636 0.9726
3.3251 5.7591 -0.6384 0.9736
2.6661 5.6185 -0.5971 0.9753
1.8832 5.6407 -0.5709 0.9764
1.5923 5.4972 -0.5495 0.9773
0.9113 5.6071 -0.5454 0.9774
0.6705 5.5214 -0.5340 0.9779
0.0000 5.7679 -0.5537 0.9771
-0.2280 5.6587 -0.5437 0.9775
-0.6731 5.5441 -0.5362 0.9778
-0.9502 5.8470 -0.5687 0.9765
-1.5784 5.4492 -0.5447 0.9775
-2.1746 5.7340 -0.5888 0.9757
-2.3040 5.4076 -0.5643 0.9767
-2.8449 5.4206 -0.5877 0.9757
-3.2150 5.5686 -0.6173 0.9745
-3.3466 5.2922 -0.6011 0.9752
-3.5990 5.2141 -0.6082 0.9749
-4.5630 5.5886 -0.6927 0.9714
-5.2067 5.4207 -0.7216 0.9702
-5.8912 5.2191 -0.7556 0.9689
-4.3255 3.5317 -0.5361 0.9778
-21.7735 15.0292 -2.5400 0.8991
-22.3610 14.1403 -2.5400 0.8991
-22.9123 13.2284 -2.5400 0.8991
-23.9024 11.3418 -2.5400 0.8991
-24.3397 10.3703 -2.5400 0.8991
-22.9919 7.6758 -2.3271 0.9072
-25.4122 7.3607 -2.5400 0.8991
-25.9221 5.2921 -2.5400 0.8991
-26.2639 3.1890 -2.5400 0.8991
-26.1553 1.0540 -2.5131 0.9002
-21.3829 0.0000 -2.5400 0.9175
-21.2270 -2.5774 -2.5400 0.9175
-21.1060 -3.4301 -2.5400 0.9175
-20.7615 -5.1173 -2.5400 0.9175
-19.9933 -7.5825 -2.5400 0.9175
-19.6718 -8.3814 -2.5400 0.9175
-18.9336 -9.9371 -2.5400 0.9175
-18.0726 -11.4284 -2.5400 0.9175
-17.5978 -12.1469 -2.5400 0.9175
-16.5633 -13.5235 -2.5400 0.9175
-14.8124 -15.4214 -2.5400 0.9175
-13.5235 -16.5633 -2.5400 0.9175
-12.8456 -17.0944 -2.5400 0.9175
-12.1469 -17.5978 -2.5400 0.9175
-11.4284 -18.0726 -2.5400 0.9175
-10.6914 -18.5181 -2.5400 0.9175
-9.9371 -18.9336 -2.5400 0.9175
-8.6169 -18.1598 -2.3876 0.9222
-7.8792 -18.4933 -2.3878 0.9222
-7.1291 -18.7979 -2.3881 0.9222
-3.0113 -14.7504 -1.7883 0.9412
-1.8342 -11.2860 -1.3582 0.9550
-1.7862 -14.7103 -1.7602 0.9421
-1.1859 -14.6906 -1.7507 0.9424
1.1779 -14.5903 -1.7388 0.9427
2.9713 -14.5545 -1.7645 0.9419
7.0608 -18.6177 -2.3652 0.9229
7.8035 -18.3155 -2.3649 0.9229
8.5332 -17.9833 -2.3645 0.9229
10.6321 -16.8133 -2.3630 0.9230
11.2978 -16.3677 -2.3624 0.9230
12.5716 -15.3975 -2.3612 0.9231
13.1777 -14.8745 -2.3605 0.9231
13.7618 -14.3276 -2.3598 0.9231
14.8569 -13.1620 -2.3577 0.9232
15.8480 -11.9090 -2.3548 0.9233
16.7327 -10.5812 -2.3517 0.9233
17.6172 -9.2462 -2.3634 0.9230
19.0249 -9.0274 -2.5014 0.9187
19.9743 -6.6684 -2.5014 0.9187
8.7072 -1.4151 -1.0479 0.9651
21.0409 -0.8479 -2.5014 0.9187
21.0580 0.0000 -2.5014 0.9187
21.0409 0.8479 -2.5014 0.9187
20.9897 1.6945 -2.5014 0.9187
19.5204 3.1724 -2.3492 0.9234
19.3943 3.9594 -2.3513 0.9234
19.2365 4.7414 -2.3534 0.9233
19.0374 5.5143 -2.3543 0.9233
13.6642 5.8218 -1.7643 0.9419
10.9013 5.7215 -1.4624 0.9516
8.8490 5.5958 -1.2437 0.9587
8.4472 5.8307 -1.2192 0.9595
6.2123 5.5035 -0.9859 0.9671
2.6892 3.0354 -0.4817 0.9838
4.7859 5.8616 -0.8989 0.9700
3.9590 5.7355 -0.8278 0.9723
3.6778 5.8159 -0.8174 0.9727
2.9206 5.5646 -0.7465 0.9750
2.6196 5.5206 -0.7258 0.9757
1.5912 5.4933 -0.6794 0.9772
1.3996 5.6781 -0.6947 0.9767
1.1848 5.8035 -0.7036 0.9764
0.8842 5.4405 -0.6547 0.9780
0.4348 5.3853 -0.6418 0.9785
0.0000 5.6905 -0.6760 0.9773
-0.4351 5.3902 -0.6424 0.9785
-0.8799 5.4146 -0.6516 0.9781
-1.3316 5.4024 -0.6609 0.9778
-1.8665 5.5907 -0.7001 0.9765
-2.4788 5.2239 -0.6868 0.9770
-2.8307 5.3934 -0.7235 0.9758
-3.1918 5.5284 -0.7583 0.9746
-3.3647 5.3208 -0.7478 0.9750
-3.9783 5.2942 -0.7866 0.9737
-4.6838 5.2869 -0.8390 0.9719
-5.7201 5.4942 -0.9421 0.9686
-4.3160 3.2433 -0.6413 0.9785
-17.5978 12.1469 -2.5400 0.9175
-19.3184 9.1667 -2.5400 0.9175
-19.6718 8.3814 -2.5400 0.9175
-19.9933 7.5825 -2.5400 0.9175
-20.2824 6.7713 -2.5400 0.9175
-20.5386 5.9491 -2.5400 0.9175
-20.9507 4.2771 -2.5400 0.9175
-21.2270 2.5774 -2.5400 0.9175
-21.3135 1.7206 -2.5400 0.9175
-17.9264 0.0000 -2.5400 0.9301
-17.7957 -2.1608 -2.5400 0.9301
-17.5642 -3.5858 -2.5400 0.9301
-17.4055 -4.2901 -2.5400 0.9301
-17.2187 -4.9875 -2.5400 0.9301
-16.7615 -6.3568 -2.5400 0.9301
-16.4919 -7.0266 -2.5400 0.9301
-16.1957 -7.6849 -2.5400 0.9301
-15.1512 -9.5811 -2.5400 0.9301
-14.3312 -10.7692 -2.5400 0.9301
-13.4181 -11.8874 -2.5400 0.9301
-12.9286 -12.4181 -2.5400 0.9301
-12.4181 -12.9286 -2.5400 0.9301
-9.0062 -14.2422 -2.3876 0.9342
-7.2251 -15.2266 -2.3880 0.9342
-6.4899 -15.2324 -2.3460 0.9353
-5.3365 -15.9848 -2.3878 0.9342
-3.6265 -14.7134 -2.1471 0.9406
-3.0007 -14.6982 -2.1255 0.9412
-1.7862 -14.7103 -2.0996 0.9419
-1.1859 -14.6906 -2.0883 0.9422
1.1779 -14.5903 -2.0740 0.9426
2.3685 -14.5742 -2.0921 0.9421
2.9684 -14.5402 -2.1027 0.9418
3.5736 -14.4988 -2.1158 0.9415
5.9089 -15.5806 -2.3610 0.9349
6.5306 -15.3280 -2.3607 0.9349
8.3266 -14.4221 -2.3596 0.9349
9.4546 -13.6974 -2.3582 0.9350
9.9945 -13.3003 -2.3573 0.9350
10.5176 -12.8817 -2.3563 0.9350
11.0229 -12.4423 -2.3553 0.9351
11.9771 -11.5042 -2.3531 0.9351
12.4244 -11.0071 -2.3519 0.9351
13.2559 -9.9612 -2.3494 0.9352
13.8632 -9.5691 -2.3868 0.9342
14.9210 -9.4355 -2.5014 0.9312
15.6319 -8.2043 -2.5014 0.9312
16.2414 -6.9198 -2.5014 0.9312
16.5069 -6.2602 -2.5014 0.9312
8.0028 -1.6338 -1.1573 0.9675
9.2391 -1.1218 -1.3187 0.9631
17.6398 -0.7108 -2.5014 0.9312
17.6541 0.0000 -2.5014 0.9312
17.6398 0.7109 -2.5014 0.9312
15.9576 4.6222 -2.3540 0.9351
15.7610 5.2618 -2.3543 0.9351
15.5364 5.8921 -2.3543 0.9351
14.0035 5.9663 -2.1567 0.9404
8.9056 5.6315 -1.4929 0.9583
8.3911 5.7919 -1.4446 0.9596
7.3738 5.5411 -1.3069 0.9634
7.0060 5.7202 -1.2815 0.9641
6.3012 5.5823 -1.1928 0.9666
2.6885 3.0347 -0.5745 0.9838
4.5305 5.5488 -1.0150 0.9715
3.7040 5.8574 -0.9819 0.9724
2.8776 5.4826 -0.8773 0.9753
2.6580 5.6015 -0.8785 0.9753
2.4225 5.6857 -0.8757 0.9753
2.1043 5.5486 -0.8408 0.9763
1.8136 5.4322 -0.8115 0.9771
1.1756 5.7583 -0.8327 0.9765
0.6582 5.4205 -0.7737 0.9782
0.4340 5.3760 -0.7642 0.9784
-0.2231 5.5375 -0.7852 0.9779
-0.4409 5.4618 -0.7764 0.9781
-2.1571 5.6878 -0.8619 0.9757
-2.7962 5.3277 -0.8525 0.9760
-3.5982 5.2129 -0.8975 0.9747
-4.5308 5.5492 -1.0151 0.9715
-5.7954 5.5665 -1.1386 0.9681
-14.7532 10.1834 -2.5400 0.9301
-15.8731 8.3308 -2.5400 0.9301
-16.1956 7.6849 -2.5400 0.9301
-16.7615 6.3568 -2.5400 0.9301
-17.0039 5.6767 -2.5400 0.9301
-17.4055 4.2901 -2.5400 0.9301
-15.4182 0.0000 -2.5400 0.9394
-15.4057 -0.6208 -2.5400 0.9394
-15.3682 -1.2406 -2.5400 0.9394
-15.3058 -1.8585 -2.5400 0.9394
-14.8095 -4.2896 -2.5400 0.9394
-14.6247 -4.8825 -2.5400 0.9394
-14.4163 -5.4674 -2.5400 0.9394
-13.9296 -6.6097 -2.5400 0.9394
-13.6522 -7.1652 -2.5400 0.9394
-13.3526 -7.7091 -2.5400 0.9394
-11.5407 -10.2242 -2.5400 0.9394
-10.6806 -11.1196 -2.5400 0.9394
-8.7145 -12.6251 -2.5272 0.9397
-7.6502 -12.0977 -2.3580 0.9436
-6.6395 -12.6505 -2.3536 0.9437
-6.1176 -12.8927 -2.3509 0.9438
-5.5890 -13.1179 -2.3490 0.9438
-2.8630 -14.0238 -2.3579 0.9436
-1.7256 -14.2120 -2.3585 0.9436
0.5766 -14.3071 -2.3589 0.9436
1.1522 -14.2720 -2.3588 0.9436
1.7258 -14.2134 -2.3587 0.9436
2.8635 -14.0261 -2.3583 0.9436
3.4255 -13.8978 -2.3580 0.9436
3.9818 -13.7466 -2.3577 0.9436
5.0732 -13.3769 -2.3569 0.9437
6.1304 -12.9195 -2.3558 0.9437
8.1141 -11.7552 -2.3531 0.9437
8.5779 -11.4151 -2.3523 0.9438
9.8801 -10.2863 -2.3496 0.9438
10.2835 -9.8775 -2.3490 0.9438
11.7616 -9.6030 -2.5014 0.9403
12.1387 -9.1217 -2.5014 0.9403
12.8333 -8.1153 -2.5014 0.9403
13.4447 -7.0563 -2.5014 0.9403
13.7180 -6.5092 -2.5014 0.9403
13.9689 -5.9516 -2.5014 0.9403
14.4025 -4.8083 -2.5014 0.9403
7.5958 -1.8722 -1.2888 0.9688
7.6386 -1.5594 -1.2843 0.9689
15.1716 -0.6114 -2.5014 0.9403
15.1347 1.2218 -2.5014 0.9403
15.0733 1.8302 -2.5014 0.9403
13.7179 3.9734 -2.3528 0.9437
13.3626 5.0678 -2.3543 0.9437
13.1477 5.6017 -2.3543 0.9437
12.8471 6.0960 -2.3426 0.9440
9.8979 5.7146 -1.8828 0.9547
8.9314 5.6479 -1.7409 0.9581
7.0096 5.7232 -1.4908 0.9640
6.1828 5.4774 -1.3608 0.9671
2.9544 2.8377 -0.6748 0.9835
2.6879 3.0340 -0.6677 0.9837
3.2576 5.6422 -1.0733 0.9739
2.9039 5.5327 -1.0294 0.9750
2.4273 5.6970 -1.0202 0.9752
1.3944 5.6570 -0.9598 0.9767
1.1649 5.7057 -0.9593 0.9767
0.4262 5.2783 -0.8724 0.9788
0.0000 5.6275 -0.9271 0.9774
-0.2221 5.5130 -0.9090 0.9779
-0.8681 5.3416 -0.8915 0.9783
-1.3436 5.4511 -0.9249 0.9775
-2.4722 5.2101 -0.9500 0.9769
-2.7941 5.3236 -0.9905 0.9759
-3.3640 5.3197 -1.0369 0.9748
-3.9557 5.2641 -1.0848 0.9737
-4.5388 5.5590 -1.1823 0.9713
-4.7037 5.3093 -1.1685 0.9717
-5.0719 5.2804 -1.2062 0.9708
-5.7111 5.4855 -1.3045 0.9684
-12.3260 9.2624 -2.5400 0.9394
-13.0313 8.2405 -2.5400 0.9394
-13.6521 7.1652 -2.5400 0.9394
-13.9296 6.6097 -2.5400 0.9394
-15.1066 3.0840 -2.5400 0.9394
-15.2185 2.4733 -2.5400 0.9394
-15.3058 1.8585 -2.5400 0.9394
-15.3682 1.2406 -2.5400 0.9394
-13.5134 0.0000 -2.5400 0.9465
-13.5024 -0.5441 -2.5400 0.9465
-13.2403 -2.7030 -2.5400 0.9465
-13.1207 -3.2340 -2.5400 0.9465
-12.8179 -4.2793 -2.5400 0.9465
-12.4320 -5.2968 -2.5400 0.9465
-12.2086 -5.7929 -2.5400 0.9465
-11.7029 -6.7567 -2.5400 0.9465
-11.4214 -7.2224 -2.5400 0.9465
-11.1213 -7.6765 -2.5400 0.9465
-10.8032 -8.1181 -2.5400 0.9465
-10.4675 -8.5465 -2.5400 0.9465
-8.9058 -10.0525 -2.5243 0.9468
-8.4613 -10.3632 -2.5147 0.9470
-7.5652 -10.9601 -2.5032 0.9472
-7.0465 -11.1431 -2.4781 0.9478
-6.2486 -10.8229 -2.3490 0.9504
-4.8985 -11.4972 -2.3490 0.9504
-3.9629 -11.8704 -2.3522 0.9503
-1.5095 -12.4317 -2.3538 0.9503
-0.5043 -12.5143 -2.3541 0.9503
1.5096 -12.4329 -2.3541 0.9503
2.0089 -12.3613 -2.3539 0.9503
3.4832 -12.0253 -2.3532 0.9503
4.4381 -11.7024 -2.3525 0.9503
5.3633 -11.3029 -2.3516 0.9504
5.8128 -11.0754 -2.3510 0.9504
7.0998 -10.2859 -2.3492 0.9504
7.5329 -10.0245 -2.3569 0.9502
8.7867 -9.9182 -2.4906 0.9475
9.2188 -9.5978 -2.5014 0.9473
9.5978 -9.2188 -2.5014 0.9473
9.9612 -8.8249 -2.5014 0.9473
10.3085 -8.4166 -2.5014 0.9473
10.9523 -7.5598 -2.5014 0.9473
11.2478 -7.1127 -2.5014 0.9473
11.5251 -6.6540 -2.5014 0.9473
11.7837 -6.1846 -2.5014 0.9473
12.0232 -5.7051 -2.5014 0.9473
12.2431 -5.2163 -2.5014 0.9473
12.4433 -4.7191 -2.5014 0.9473
7.1045 -2.0579 -1.3903 0.9703
7.1230 -1.7557 -1.3789 0.9706
7.1991 -1.4697 -1.3811 0.9705
7.2986 -1.1861 -1.3898 0.9704
13.2973 -0.5359 -2.5014 0.9473
13.3081 0.0000 -2.5014 0.9473
13.1357 2.1348 -2.5014 0.9473
12.1419 2.9927 -2.3505 0.9504
12.0183 3.4811 -2.3518 0.9503
11.8750 3.9645 -2.3531 0.9503
11.7117 4.4417 -2.3543 0.9503
11.5233 4.9096 -2.3543 0.9503
11.3163 5.3696 -2.3543 0.9503
10.9383 5.7409 -2.3219 0.9510
8.4767 5.8510 -1.9360 0.9589
7.5127 5.6455 -1.7664 0.9625
6.1155 5.4177 -1.5357 0.9673
2.9533 2.8367 -0.7697 0.9835
2.7762 2.8903 -0.7533 0.9838
4.6672 5.7162 -1.3871 0.9704
4.2207 5.6167 -1.3206 0.9718
3.9182 5.6764 -1.2964 0.9723
2.4121 5.6612 -1.1566 0.9753
1.8267 5.4717 -1.0843 0.9768
1.5830 5.4649 -1.0694 0.9771
1.3524 5.4867 -1.0621 0.9773
0.4362 5.4022 -1.0187 0.9782
0.0000 5.5803 -1.0489 0.9775
-0.2222 5.5138 -1.0372 0.9778
-0.6521 5.3707 -1.0169 0.9782
-0.8839 5.4390 -1.0357 0.9778
-1.5494 5.3492 -1.0468 0.9776
-1.8155 5.4379 -1.0776 0.9769
-2.1230 5.5978 -1.1253 0.9759
-2.2718 5.3320 -1.0894 0.9767
-2.7722 5.2821 -1.1213 0.9760
-3.1790 5.5062 -1.1951 0.9745
-3.3846 5.3524 -1.1903 0.9746
-3.6115 5.2321 -1.1950 0.9745
-3.9774 5.2929 -1.2444 0.9734
-4.4700 5.4746 -1.3285 0.9716
-4.7152 5.3223 -1.3365 0.9715
-5.0119 5.2179 -1.3599 0.9710
-5.7891 5.5604 -1.5088 0.9679
-6.2322 5.0884 -1.5123 0.9678
-10.1550 7.6309 -2.3876 0.9496
-11.4214 7.2225 -2.5400 0.9465
-11.7029 6.7567 -2.5400 0.9465
-12.6352 4.7919 -2.5400 0.9465
-12.8179 4.2792 -2.5400 0.9465
-13.4696 1.0874 -2.5400 0.9465
-13.5024 0.5441 -2.5400 0.9465
-11.9772 -0.9669 -2.5400 0.9521
-11.8606 -1.9275 -2.5400 0.9521
-11.6670 -2.8756 -2.5400 0.9521
-11.3978 -3.8052 -2.5400 0.9521
-11.2353 -4.2610 -2.5400 0.9521
-11.0547 -4.7100 -2.5400 0.9521
-10.6398 -5.5842 -2.5400 0.9521
-10.4063 -6.0081 -2.5400 0.9521
-10.1560 -6.4223 -2.5400 0.9521
-9.6000 -7.2140 -2.5383 0.9521
-7.1115 -9.4637 -2.5023 0.9528
-6.3247 -10.0017 -2.5014 0.9528
-5.9168 -10.2483 -2.5014 0.9528
-5.4994 -10.4782 -2.5014 0.9528
-4.9710 -10.4762 -2.4511 0.9537
-4.4608 -10.4699 -2.4056 0.9545
-3.9697 -10.4672 -2.3663 0.9553
-2.6600 -10.7920 -2.3495 0.9556
-2.2235 -10.8916 -2.3498 0.9556
-1.7834 -10.9735 -2.3500 0.9556
0.0000 -11.1199 -2.3505 0.9556
0.8948 -11.0838 -2.3505 0.9556
2.2239 -10.8934 -2.3501 0.9556
2.6605 -10.7941 -2.3499 0.9556
3.5196 -10.5425 -2.3494 0.9556
4.8221 -10.1624 -2.3777 0.9551
5.8283 -10.0950 -2.4640 0.9535
6.3247 -10.0017 -2.5014 0.9528
6.7223 -9.7389 -2.5014 0.9528
7.1090 -9.4603 -2.5014 0.9528
7.8471 -8.8576 -2.5014 0.9528
9.1664 -7.4842 -2.5014 0.9528
10.4782 -5.4994 -2.5014 0.9528
10.6911 -5.0730 -2.5014 0.9528
10.8867 -4.6384 -2.5014 0.9528
6.9885 -2.0243 -1.5380 0.9707
6.9783 -1.7200 -1.5192 0.9710
7.0346 -1.4361 -1.5176 0.9711
11.4413 -0.9236 -2.4263 0.9542
11.8241 -0.4765 -2.5014 0.9528
11.7474 1.4264 -2.5014 0.9528
11.6804 1.8983 -2.5014 0.9528
10.6833 3.0945 -2.3511 0.9555
10.5553 3.5239 -2.3522 0.9555
10.4099 3.9480 -2.3534 0.9555
10.2466 4.3657 -2.3543 0.9555
10.0625 4.7747 -2.3543 0.9555
9.8621 5.1760 -2.3543 0.9555
9.6457 5.5689 -2.3543 0.9555
9.4136 5.9528 -2.3543 0.9555
7.3772 5.5437 -1.9506 0.9630
7.0665 5.7697 -1.9284 0.9634
6.2984 5.5798 -1.7787 0.9662
2.7755 2.8896 -0.8469 0.9838
2.6866 3.0325 -0.8564 0.9836
4.2027 5.5927 -1.4788 0.9718
3.9676 5.7480 -1.4764 0.9718
3.6774 5.8153 -1.4544 0.9723
3.2557 5.6388 -1.3763 0.9737
2.6342 5.5512 -1.2988 0.9752
2.3956 5.6226 -1.2919 0.9753
2.1019 5.5421 -1.2529 0.9761
1.8387 5.5075 -1.2273 0.9765
1.5782 5.4485 -1.1991 0.9771
1.3648 5.5371 -1.2055 0.9770
-0.2221 5.5122 -1.1661 0.9777
-0.4391 5.4392 -1.1535 0.9779
-1.1450 5.6086 -1.2100 0.9769
-1.3258 5.3791 -1.1711 0.9776
-1.8178 5.4449 -1.2134 0.9768
-2.1241 5.6009 -1.2662 0.9758
-2.2620 5.3091 -1.2198 0.9767
-2.7970 5.3293 -1.2722 0.9757
-3.6150 5.2372 -1.3451 0.9743
-4.1060 5.4641 -1.4448 0.9724
-4.4810 5.4882 -1.4977 0.9714
-4.6225 5.2177 -1.4735 0.9719
-5.7117 5.4861 -1.6740 0.9681
-5.9585 5.2787 -1.6827 0.9680
-9.2958 6.4164 -2.3876 0.9549
-9.7819 5.6476 -2.3876 0.9549
-10.0014 5.2492 -2.3876 0.9549
-10.2047 4.8422 -2.3876 0.9549
-11.0547 4.7100 -2.5400 0.9521
-11.2354 4.2610 -2.5400 0.9521
-11.3978 3.8052 -2.5400 0.9521
-11.5418 3.3431 -2.5400 0.9521
-11.6670 2.8757 -2.5400 0.9521
-11.8606 1.9275 -2.5400 0.9521
-11.9286 1.4484 -2.5400 0.9521
-12.0065 0.4838 -2.5400 0.9521
-10.8074 0.0000 -2.5400 0.9566
-10.7986 -0.4352 -2.5400 0.9566
-10.7723 -0.8696 -2.5400 0.9566
-10.7286 -1.3027 -2.5400 0.9566
-10.5890 -2.1618 -2.5400 0.9566
-10.4933 -2.5864 -2.5400 0.9566
-10.3807 -3.0068 -2.5400 0.9566
-10.2512 -3.4224 -2.5400 0.9566
-9.0888 -5.7474 -2.5273 0.9568
-8.8308 -6.0955 -2.5218 0.9569
-5.6887 -8.9959 -2.5015 0.9572
-5.3216 -9.2173 -2.5014 0.9572
-4.9461 -9.4241 -2.5014 0.9572
-4.1718 -9.7915 -2.5014 0.9572
-3.7741 -9.9516 -2.5014 0.9572
-3.3704 -10.0955 -2.5014 0.9572
-2.9611 -10.2230 -2.5014 0.9572
-2.5471 -10.3339 -2.5014 0.9572
-1.2610 -10.3853 -2.4587 0.9579
-0.4177 -10.3655 -2.4381 0.9583
0.0000 -10.3522 -2.4330 0.9584
0.4166 -10.3376 -2.4315 0.9584
0.8333 -10.3223 -2.4339 0.9583
2.9611 -10.2230 -2.5014 0.9572
4.1718 -9.7915 -2.5014 0.9572
4.5627 -9.6156 -2.5014 0.9572
5.3216 -9.2173 -2.5014 0.9572
6.0460 -8.7592 -2.5014 0.9572
7.0577 -7.9665 -2.5014 0.9572
7.3728 -7.6759 -2.5014 0.9572
7.6759 -7.3728 -2.5014 0.9572
7.9665 -7.0578 -2.5014 0.9572
8.7592 -6.0460 -2.5014 0.9572
8.9955 -5.6884 -2.5014 0.9572
9.4241 -4.9461 -2.5014 0.9572
9.6156 -4.5627 -2.5014 0.9572
6.9115 -1.7035 -1.6730 0.9712
7.0324 -1.1429 -1.6745 0.9711
10.6087 -0.8564 -2.5014 0.9572
10.6346 0.4285 -2.5014 0.9572
10.6087 0.8564 -2.5014 0.9572
10.5656 1.2829 -2.5014 0.9572
10.3020 2.1032 -2.4711 0.9577
9.7059 2.3923 -2.3494 0.9598
9.4904 3.1684 -2.3515 0.9597
9.0503 4.2944 -2.3543 0.9597
8.8700 4.6553 -2.3543 0.9597
8.6754 5.0087 -2.3543 0.9597
8.4666 5.3540 -2.3543 0.9597
7.4481 5.5969 -2.1896 0.9624
6.2093 5.5009 -1.9496 0.9665
2.7749 2.8889 -0.9414 0.9837
4.5874 5.6185 -1.7047 0.9706
3.9120 5.6674 -1.6185 0.9721
3.6947 5.8427 -1.6247 0.9720
3.2244 5.5847 -1.5156 0.9739
2.0937 5.5204 -1.3876 0.9760
1.3476 5.4672 -1.3234 0.9771
1.1556 5.6600 -1.3577 0.9765
0.6600 5.4350 -1.2867 0.9778
-0.4437 5.4965 -1.2960 0.9776
-1.1318 5.5440 -1.3299 0.9770
-2.1216 5.5943 -1.4062 0.9757
-3.1905 5.5262 -1.4997 0.9741
-3.6048 5.2224 -1.4914 0.9743
-3.9850 5.3031 -1.5590 0.9731
-4.6964 5.3011 -1.6645 0.9713
-5.7064 5.4810 -1.8596 0.9680
-5.9509 5.2720 -1.8685 0.9679
-6.2035 5.0649 -1.8822 0.9676
-8.1215 6.1029 -2.3876 0.9591
-8.3606 5.7709 -2.3876 0.9591
-8.7979 5.0795 -2.3876 0.9591
-8.9953 4.7211 -2.3876 0.9591
-9.3460 3.9820 -2.3876 0.9591
-10.4933 2.5864 -2.5400 0.9566
-10.7286 1.3027 -2.5400 0.9566
-10.7723 0.8696 -2.5400 0.9566
-10.7986 0.4352 -2.5400 0.9566
-9.7274 -1.1813 -2.5371 0.9603
-9.5967 -1.9592 -2.5360 0.9603
-9.3963 -2.7218 -2.5329 0.9604
-8.7964 -4.1740 -2.5209 0.9606
-8.6089 -4.5183 -2.5173 0.9606
-8.4098 -4.8554 -2.5143 0.9607
-8.1948 -5.1821 -2.5104 0.9607
-7.9713 -5.5022 -2.5078 0.9608
-7.4905 -6.1158 -2.5037 0.9608
-7.2374 -6.4117 -2.5035 0.9608
-6.9726 -6.6973 -2.5032 0.9608
-6.6965 -6.9718 -2.5029 0.9608
-6.1125 -7.4864 -2.5024 0.9609
-5.1638 -8.1658 -2.5015 0.9609
-4.8305 -8.3666 -2.5014 0.9609
-4.4897 -8.5544 -2.5014 0.9609
-3.4258 -9.0332 -2.5014 0.9609
-2.6879 -9.2795 -2.5014 0.9609
-1.5497 -9.5359 -2.5014 0.9609
-1.1645 -9.5905 -2.5014 0.9609
-0.3890 -9.6531 -2.5014 0.9609
0.7774 -9.6296 -2.5014 0.9609
1.1645 -9.5905 -2.5014 0.9609
1.9324 -9.4657 -2.5014 0.9609
2.6878 -9.2795 -2.5014 0.9609
3.0593 -9.1638 -2.5014 0.9609
4.8305 -8.3667 -2.5014 0.9609
5.1635 -8.1654 -2.5014 0.9609
5.4881 -7.9508 -2.5014 0.9609
5.8037 -7.7234 -2.5014 0.9609
6.1100 -7.4834 -2.5014 0.9609
6.9675 -6.6924 -2.5014 0.9609
7.2313 -6.4064 -2.5014 0.9609
7.7234 -5.8038 -2.5014 0.9609
8.1653 -5.1635 -2.5014 0.9609
8.5544 -4.4897 -2.5014 0.9609
8.8879 -3.7868 -2.5014 0.9609
7.0999 -2.6926 -1.9661 0.9691
6.8256 -1.9771 -1.8399 0.9711
6.8363 -1.6850 -1.8230 0.9713
6.8798 -1.4045 -1.8180 0.9714
9.6296 -0.7774 -2.5014 0.9609
9.6610 0.0000 -2.5014 0.9609
9.6531 0.3890 -2.5014 0.9609
9.4657 1.9324 -2.5014 0.9609
8.7175 2.5251 -2.3499 0.9632
8.6123 2.8752 -2.3509 0.9632
8.4929 3.2209 -2.3518 0.9632
8.3597 3.5617 -2.3527 0.9632
8.2127 3.8969 -2.3536 0.9631
7.8747 4.5465 -2.3543 0.9631
7.4834 5.1654 -2.3543 0.9631
7.2693 5.4625 -2.3543 0.9631
7.0435 5.7508 -2.3543 0.9631
6.1271 5.4281 -2.1194 0.9667
2.9502 2.8337 -1.0592 0.9832
2.7742 2.8882 -1.0369 0.9836
2.6852 3.0310 -1.0485 0.9834
3.6989 5.8493 -1.7919 0.9718
2.8811 5.4894 -1.6052 0.9747
2.6141 5.5089 -1.5788 0.9751
2.1160 5.5794 -1.5450 0.9756
0.0000 5.5757 -1.4436 0.9772
-0.2230 5.5336 -1.4339 0.9774
-0.4395 5.4449 -1.4144 0.9777
-0.6444 5.3074 -1.3843 0.9782
-0.8768 5.3956 -1.4154 0.9777
-1.1213 5.4924 -1.4514 0.9771
-1.3141 5.3314 -1.4217 0.9776
-1.8101 5.4218 -1.4800 0.9767
-2.2700 5.3279 -1.4995 0.9764
-2.4927 5.2533 -1.5055 0.9763
-3.2253 5.5863 -1.6701 0.9737
-3.5790 5.1851 -1.6313 0.9743
-5.1354 5.3465 -1.9194 0.9698
-5.8920 5.2198 -2.0381 0.9680
-7.9837 4.6094 -2.3869 0.9626
-8.1596 4.2825 -2.3860 0.9626
-8.3184 3.9471 -2.3840 0.9627
-8.4623 3.6054 -2.3816 0.9627
-8.8101 2.5519 -2.3749 0.9628
-9.5953 1.9588 -2.5356 0.9603
-9.6699 1.5715 -2.5365 0.9603
-9.7694 0.7887 -2.5377 0.9603
-9.7937 0.3947 -2.5378 0.9603
-8.9119 -0.0000 -2.5229 0.9636
-8.9042 -0.3588 -2.5228 0.9636
-8.8810 -0.7170 -2.5223 0.9636
-8.8423 -1.0737 -2.5216 0.9636
-8.7885 -1.4283 -2.5206 0.9637
-8.7202 -1.7802 -2.5195 0.9637
-8.6368 -2.1288 -2.5182 0.9637
-8.2966 -3.1465 -2.5119 0.9638
-7.8410 -4.1153 -2.5069 0.9639
-7.6616 -4.4235 -2.5045 0.9639
-6.6188 -5.8638 -2.5033 0.9639
-6.1243 -6.3761 -2.5028 0.9639
-5.8620 -6.6169 -2.5025 0.9639
-5.5903 -6.8468 -2.5023 0.9639
-5.3095 -7.0656 -2.5020 0.9639
-4.7225 -7.4681 -2.5014 0.9639
-4.1063 -7.8238 -2.5014 0.9639
-3.7879 -7.9829 -2.5014 0.9639
-3.1333 -8.2618 -2.5014 0.9639
-2.4583 -8.4871 -2.5014 0.9639
-2.1146 -8.5792 -2.5014 0.9639
-1.4174 -8.7215 -2.5014 0.9639
-0.3558 -8.8288 -2.5014 0.9639
0.3558 -8.8288 -2.5014 0.9639
0.7110 -8.8073 -2.5014 0.9639
2.1146 -8.5792 -2.5014 0.9639
2.4583 -8.4871 -2.5014 0.9639
4.1063 -7.8239 -2.5014 0.9639
4.4180 -7.6522 -2.5014 0.9639
4.7225 -7.4681 -2.5014 0.9639
5.3081 -7.0638 -2.5014 0.9639
5.8593 -6.6138 -2.5014 0.9639
6.1209 -6.3725 -2.5014 0.9639
6.8444 -5.5883 -2.5014 0.9639
7.0638 -5.3081 -2.5014 0.9639
7.4681 -4.7226 -2.5014 0.9639
7.6522 -4.4180 -2.5014 0.9639
7.9828 -3.7879 -2.5014 0.9639
8.1289 -3.4634 -2.5014 0.9639
7.0482 -2.6730 -2.1340 0.9691
6.8433 -2.2846 -2.0424 0.9705
6.8630 -1.4011 -1.9829 0.9713
8.8073 -0.7110 -2.5014 0.9639
8.8288 0.3558 -2.5014 0.9639
8.8073 0.7110 -2.5014 0.9639
8.7715 1.0650 -2.5014 0.9639
8.7215 1.4174 -2.5014 0.9639
8.6574 1.7674 -2.5014 0.9639
8.0565 1.9857 -2.3490 0.9661
7.9716 2.3090 -2.3495 0.9661
7.8751 2.6291 -2.3503 0.9661
7.7657 2.9451 -2.3512 0.9661
7.6435 3.2566 -2.3520 0.9661
7.0290 4.4449 -2.3543 0.9660
6.8443 4.7243 -2.3543 0.9660
6.4420 5.2597 -2.3543 0.9660
2.6846 3.0302 -1.1461 0.9833
4.6376 5.6799 -2.0758 0.9700
3.9784 5.7637 -1.9826 0.9713
3.7015 5.8533 -1.9606 0.9716
2.9011 5.5276 -1.7672 0.9744
2.6312 5.5451 -1.7375 0.9748
1.8418 5.5168 -1.6465 0.9761
1.3443 5.4540 -1.5902 0.9769
1.1698 5.7297 -1.6555 0.9760
0.8933 5.4961 -1.5763 0.9771
0.2245 5.5692 -1.5779 0.9771
-0.6422 5.2896 -1.5085 0.9781
-0.8659 5.3283 -1.5282 0.9778
-1.1190 5.4813 -1.5837 0.9770
-1.3025 5.2846 -1.5408 0.9776
-1.5404 5.3180 -1.5674 0.9772
-1.8181 5.4458 -1.6253 0.9764
-3.2223 5.5813 -1.8244 0.9736
-4.0470 5.3855 -1.9071 0.9724
-4.4629 5.4660 -1.9977 0.9711
-4.7130 5.3198 -2.0120 0.9709
-5.1044 5.3142 -2.0860 0.9698
-5.7811 5.5528 -2.2692 0.9672
-6.7139 5.0451 -2.3775 0.9657
-7.0927 4.4852 -2.3757 0.9657
-7.4139 3.8911 -2.3703 0.9658
-7.6912 3.2769 -2.3667 0.9658
-7.8118 2.9626 -2.3652 0.9659
-8.0109 2.3204 -2.3610 0.9659
-8.6453 2.1309 -2.5207 0.9637
-8.7186 1.7799 -2.5191 0.9637
-8.9039 0.3588 -2.5227 0.9636
-8.1532 -0.3286 -2.5098 0.9664
-8.1326 -0.6565 -2.5096 0.9664
-7.9142 -1.9507 -2.5071 0.9665
-7.8255 -2.2667 -2.5059 0.9665
-7.2097 -3.7840 -2.5044 0.9665
-7.0510 -4.0709 -2.5042 0.9665
-6.8807 -4.3511 -2.5040 0.9665
-6.6994 -4.6243 -2.5038 0.9665
-6.0915 -5.3966 -2.5031 0.9665
-5.3934 -6.0879 -2.5016 0.9665
-3.7794 -7.2010 -2.5014 0.9665
-3.4864 -7.3474 -2.5014 0.9665
-3.1877 -7.4818 -2.5014 0.9665
-2.8838 -7.6041 -2.5014 0.9665
-2.5753 -7.7140 -2.5014 0.9665
-1.9462 -7.8962 -2.5014 0.9665
-1.6267 -7.9682 -2.5014 0.9665
-1.3046 -8.0272 -2.5014 0.9665
-0.9803 -8.0733 -2.5014 0.9665
-0.6544 -8.1062 -2.5014 0.9665
-0.3275 -8.1259 -2.5014 0.9665
0.0000 -8.1326 -2.5014 0.9665
0.3275 -8.1260 -2.5014 0.9665
0.6544 -8.1062 -2.5014 0.9665
0.9803 -8.0733 -2.5014 0.9665
1.3045 -8.0272 -2.5014 0.9665
1.9462 -7.8962 -2.5014 0.9665
2.2626 -7.8115 -2.5014 0.9665
3.1877 -7.4818 -2.5014 0.9665
3.4864 -7.3474 -2.5014 0.9665
3.7794 -7.2010 -2.5014 0.9665
4.3466 -6.8736 -2.5014 0.9665
4.6198 -6.6930 -2.5014 0.9665
5.3929 -6.0873 -2.5014 0.9665
5.6336 -5.8652 -2.5014 0.9665
6.0873 -5.3929 -2.5014 0.9665
6.5015 -4.8856 -2.5014 0.9665
6.6930 -4.6198 -2.5014 0.9665
6.8735 -4.3466 -2.5014 0.9665
7.0430 -4.0663 -2.5014 0.9665
7.2010 -3.7794 -2.5014 0.9665
7.3473 -3.4863 -2.5014 0.9665
7.4818 -3.1877 -2.5014 0.9665
7.4079 -2.8094 -2.4369 0.9674
6.8277 -1.9777 -2.1864 0.9707
6.8194 -1.6808 -2.1603 0.9710
7.0914 -0.8611 -2.1972 0.9705
8.1062 -0.6544 -2.5014 0.9665
8.1260 0.3275 -2.5014 0.9665
8.0732 0.9803 -2.5014 0.9665
7.9682 1.6267 -2.5014 0.9665
7.8478 1.9343 -2.4861 0.9667
7.3358 2.1248 -2.3491 0.9685
7.2467 2.4193 -2.3499 0.9685
7.0333 2.9966 -2.3514 0.9685
6.9092 3.2784 -2.3522 0.9685
6.7737 3.5551 -2.3530 0.9685
6.4694 4.0910 -2.3543 0.9685
6.2994 4.3482 -2.3543 0.9685
5.9291 4.8410 -2.3543 0.9685
3.6761 5.8132 -2.1155 0.9716
3.3310 5.7694 -2.0491 0.9725
2.8411 5.4131 -1.8803 0.9747
2.3960 5.6235 -1.8801 0.9747
2.1156 5.5783 -1.8350 0.9753
1.8376 5.5042 -1.7848 0.9760
1.3496 5.4752 -1.7345 0.9767
0.4372 5.4151 -1.6710 0.9775
0.2233 5.5389 -1.7050 0.9771
0.0000 5.5727 -1.7141 0.9769
-0.6577 5.4168 -1.6783 0.9774
-0.8848 5.4446 -1.6966 0.9772
-1.8168 5.4418 -1.7646 0.9763
-2.0796 5.4835 -1.8038 0.9758
-2.4779 5.2221 -1.7779 0.9761
-3.4200 5.4082 -1.9681 0.9736
-3.6469 5.2834 -1.9746 0.9735
-4.0267 5.3586 -2.0617 0.9723
-4.4861 5.4944 -2.1817 0.9708
-5.3024 5.5204 -2.3543 0.9685
-5.7294 5.0758 -2.3543 0.9685
-6.1054 4.5879 -2.3490 0.9685
-6.6183 3.8211 -2.3506 0.9685
-7.0331 2.9965 -2.3514 0.9685
-7.1482 2.7109 -2.3514 0.9685
-7.2513 2.4208 -2.3514 0.9685
-8.0475 1.3079 -2.5077 0.9665
-8.0965 0.9831 -2.5086 0.9664
-8.1317 0.6565 -2.5093 0.9664
-8.1531 0.3286 -2.5097 0.9664
-7.5139 -0.6066 -2.5058 0.9687
-7.4830 -0.9086 -2.5057 0.9687
-7.4399 -1.2091 -2.5055 0.9687
-7.3848 -1.5076 -2.5054 0.9687
-7.1479 -2.3863 -2.5049 0.9687
-7.0455 -2.6720 -2.5047 0.9687
-6.9317 -2.9533 -2.5046 0.9687
-6.5237 -3.7665 -2.5040 0.9687
-6.1985 -4.2786 -2.5036 0.9688
-5.8308 -4.7607 -2.5022 0.9688
-5.4272 -5.2127 -2.5014 0.9688
-4.5207 -6.0159 -2.5014 0.9688
-3.4971 -6.6632 -2.5014 0.9688
-2.9496 -6.9230 -2.5014 0.9688
-2.3830 -7.1379 -2.5014 0.9688
-2.0936 -7.2280 -2.5014 0.9688
-1.8009 -7.3065 -2.5014 0.9688
-1.5052 -7.3730 -2.5014 0.9688
-0.6055 -7.5007 -2.5014 0.9688
1.8009 -7.3065 -2.5014 0.9688
2.6684 -7.0361 -2.5014 0.9688
2.9496 -6.9230 -2.5014 0.9688
3.4971 -6.6632 -2.5014 0.9688
4.2748 -6.1931 -2.5014 0.9688
4.9901 -5.6326 -2.5014 0.9688
5.2128 -5.4271 -2.5014 0.9688
5.4271 -5.2129 -2.5014 0.9688
6.0159 -4.5207 -2.5014 0.9688
6.1931 -4.2748 -2.5014 0.9688
6.5170 -3.7626 -2.5014 0.9688
6.6632 -3.4971 -2.5014 0.9688
6.7986 -3.2260 -2.5014 0.9688
6.9230 -2.9496 -2.5014 0.9688
7.0361 -2.6685 -2.5014 0.9688
7.1379 -2.3830 -2.5014 0.9688
7.2280 -2.0936 -2.5014 0.9688
7.4277 -1.2071 -2.5014 0.9688
7.5007 -0.6055 -2.5014 0.9688
7.5007 0.6055 -2.5014 0.9688
7.3065 1.8009 -2.5014 0.9688
6.7876 1.9661 -2.3490 0.9707
6.7044 2.2382 -2.3495 0.9706
6.5065 2.7722 -2.3509 0.9706
6.3916 3.0328 -2.3516 0.9706
6.1304 3.5394 -2.3530 0.9706
5.9846 3.7844 -2.3537 0.9706
5.8289 4.0234 -2.3543 0.9706
5.6622 4.2549 -2.3543 0.9706
5.4863 4.4794 -2.3543 0.9706
2.7721 2.8860 -1.3302 0.9833
2.6832 3.0287 -1.3450 0.9831
4.2430 5.6464 -2.3478 0.9707
3.9849 5.7731 -2.3318 0.9709
3.3135 5.7391 -2.2029 0.9725
2.8806 5.4883 -2.0604 0.9742
1.8607 5.5734 -1.9532 0.9755
1.1709 5.7351 -1.9457 0.9756
0.4352 5.3907 -1.7977 0.9775
0.2244 5.5664 -1.8518 0.9768
-0.2211 5.4864 -1.8252 0.9771
-0.4389 5.4367 -1.8131 0.9773
-0.6597 5.4334 -1.8194 0.9772
-0.8782 5.4037 -1.8198 0.9772
-1.1118 5.4459 -1.8476 0.9768
-1.3168 5.3424 -1.8290 0.9771
-1.5403 5.3178 -1.8403 0.9769
-1.8361 5.4998 -1.9274 0.9759
-2.1413 5.6461 -2.0072 0.9749
-2.5461 5.3657 -1.9742 0.9753
-3.4017 5.3793 -2.1156 0.9735
-4.2615 5.6710 -2.3580 0.9705
-4.6967 5.3015 -2.3543 0.9706
-5.6622 4.2549 -2.3543 0.9706
-5.8289 4.0234 -2.3543 0.9706
-5.9727 3.7769 -2.3490 0.9707
-6.1199 3.5333 -2.3490 0.9707
-6.3844 3.0294 -2.3490 0.9707
-6.5012 2.7699 -2.3490 0.9707
-6.6074 2.5058 -2.3490 0.9707
-6.7030 2.2378 -2.3490 0.9707
-6.7877 1.9661 -2.3490 0.9707
-6.8696 1.6932 -2.3518 0.9706
-7.3761 1.5058 -2.5024 0.9688
-7.4300 1.2075 -2.5022 0.9688
-7.5303 0.3035 -2.5051 0.9687
-6.9958 0.0000 -2.5018 0.9707
-6.9472 -0.8435 -2.5026 0.9707
-6.9082 -1.1227 -2.5028 0.9707
-6.6394 -2.2166 -2.5031 0.9707
-6.5441 -2.4819 -2.5029 0.9707
-6.3217 -2.9997 -2.5023 0.9707
-6.1948 -3.2513 -2.5019 0.9707
-6.0582 -3.4977 -2.5016 0.9707
-5.4182 -4.4238 -2.5014 0.9707
-4.8455 -5.0447 -2.5014 0.9707
-4.6384 -5.2357 -2.5014 0.9707
-4.4238 -5.4182 -2.5014 0.9707
-4.2021 -5.5920 -2.5014 0.9707
-3.2506 -6.1936 -2.5014 0.9707
-2.9986 -6.3195 -2.5014 0.9707
-2.7417 -6.4351 -2.5014 0.9707
-2.2150 -6.6348 -2.5014 0.9707
-1.6740 -6.7916 -2.5014 0.9707
-1.1220 -6.9042 -2.5014 0.9707
-0.8431 -6.9438 -2.5014 0.9707
-0.2817 -6.9891 -2.5014 0.9707
0.2817 -6.9891 -2.5014 0.9707
1.3991 -6.8535 -2.5014 0.9707
1.6740 -6.7916 -2.5014 0.9707
1.9461 -6.7187 -2.5014 0.9707
2.4804 -6.5403 -2.5014 0.9707
2.9986 -6.3195 -2.5014 0.9707
3.4974 -6.0577 -2.5014 0.9707
4.4238 -5.4182 -2.5014 0.9707
4.8455 -5.0447 -2.5014 0.9707
5.0447 -4.8455 -2.5014 0.9707
5.4182 -4.4238 -2.5014 0.9707
5.5919 -4.2021 -2.5014 0.9707
5.7566 -3.9735 -2.5014 0.9707
5.9119 -3.7385 -2.5014 0.9707
6.0577 -3.4974 -2.5014 0.9707
6.1936 -3.2507 -2.5014 0.9707
6.3195 -2.9986 -2.5014 0.9707
6.6348 -2.2150 -2.5014 0.9707
6.7186 -1.9461 -2.5014 0.9707
6.9042 -1.1221 -2.5014 0.9707
6.9891 -0.2817 -2.5014 0.9707
6.9948 -0.0000 -2.5014 0.9707
6.9438 0.8431 -2.5014 0.9707
6.9042 1.1220 -2.5014 0.9707
6.8535 1.3991 -2.5014 0.9707
6.7916 1.6740 -2.5014 0.9707
6.4476 1.8676 -2.4005 0.9719
5.4167 3.7388 -2.3537 0.9724
5.2630 3.9549 -2.3543 0.9724
2.6825 3.0279 -1.4466 0.9830
4.1637 5.0997 -2.3543 0.9724
3.9550 5.2632 -2.3543 0.9724
3.7399 5.4182 -2.3543 0.9724
2.8975 5.5206 -2.2296 0.9739
2.6580 5.6015 -2.2172 0.9740
2.1353 5.6302 -2.1533 0.9747
1.8443 5.5242 -2.0827 0.9756
1.1867 5.8126 -2.1215 0.9751
0.6647 5.4737 -1.9718 0.9768
0.2243 5.5654 -1.9918 0.9766
0.0000 5.5960 -2.0012 0.9765
-0.2250 5.5847 -1.9988 0.9765
-0.4448 5.5097 -1.9767 0.9768
-0.6577 5.4165 -1.9512 0.9771
-1.5733 5.4316 -2.0222 0.9763
-1.8313 5.4853 -2.0680 0.9757
-2.1327 5.6235 -2.1508 0.9748
-2.3027 5.4047 -2.1009 0.9754
-3.2704 5.6644 -2.3390 0.9726
-4.1637 5.0997 -2.3543 0.9724
-4.3657 4.9279 -2.3543 0.9724
-4.5606 4.7481 -2.3543 0.9724
-4.9279 4.3657 -2.3543 0.9724
-5.0997 4.1637 -2.3543 0.9724
-5.2632 3.9550 -2.3543 0.9724
-5.5638 3.5183 -2.3541 0.9724
-5.8258 3.0576 -2.3529 0.9724
-6.0430 2.5747 -2.3490 0.9725
-6.1418 2.3293 -2.3490 0.9725
-6.3778 1.5720 -2.3490 0.9725
-6.9722 0.5628 -2.5014 0.9707
-3.5504 -0.0000 -1.3606 0.9849
-3.5589 -0.1434 -1.3649 0.9849
-3.5687 -0.2881 -1.3720 0.9848
-3.5921 -0.4362 -1.3867 0.9846
-6.4428 -1.0471 -2.5014 0.9724
-6.2696 -1.8160 -2.5014 0.9724
-6.1914 -2.0670 -2.5014 0.9724
-6.1032 -2.3146 -2.5014 0.9724
-6.0050 -2.5584 -2.5014 0.9724
-5.8971 -2.7982 -2.5014 0.9724
-5.7797 -3.0334 -2.5014 0.9724
-5.6528 -3.2637 -2.5014 0.9724
-5.2182 -3.9212 -2.5014 0.9724
-5.0561 -4.1282 -2.5014 0.9724
-4.8858 -4.3284 -2.5014 0.9724
-4.5216 -4.7075 -2.5014 0.9724
-4.3284 -4.8858 -2.5014 0.9724
-3.7080 -5.3719 -2.5014 0.9724
-3.4886 -5.5168 -2.5014 0.9724
-2.3146 -6.1032 -2.5014 0.9724
-2.0670 -6.1914 -2.5014 0.9724
-1.8160 -6.2696 -2.5014 0.9724
-1.5621 -6.3377 -2.5014 0.9724
-1.3056 -6.3954 -2.5014 0.9724
-1.0471 -6.4428 -2.5014 0.9724
-0.7868 -6.4798 -2.5014 0.9724
-0.2628 -6.5221 -2.5014 0.9724
2.3146 -6.1032 -2.5014 0.9724
2.5585 -6.0050 -2.5014 0.9724
2.7982 -5.8971 -2.5014 0.9724
3.0334 -5.7797 -2.5014 0.9724
3.4886 -5.5168 -2.5014 0.9724
4.1282 -5.0561 -2.5014 0.9724
4.3284 -4.8858 -2.5014 0.9724
4.7075 -4.5217 -2.5014 0.9724
5.0561 -4.1282 -2.5014 0.9724
5.2182 -3.9213 -2.5014 0.9724
5.5168 -3.4886 -2.5014 0.9724
5.7797 -3.0334 -2.5014 0.9724
5.8971 -2.7982 -2.5014 0.9724
6.0050 -2.5585 -2.5014 0.9724
6.1914 -2.0670 -2.5014 0.9724
6.4428 -1.0471 -2.5014 0.9724
6.4798 -0.7868 -2.5014 0.9724
6.5062 -0.5253 -2.5014 0.9724
6.5062 0.5252 -2.5014 0.9724
6.4797 0.7868 -2.5014 0.9724
6.2696 1.8160 -2.5014 0.9724
5.8142 1.9411 -2.3490 0.9741
5.6418 2.4037 -2.3501 0.9741
5.5419 2.6296 -2.3507 0.9741
5.4329 2.8514 -2.3513 0.9741
5.0533 3.4881 -2.3531 0.9740
4.7585 3.8852 -2.3542 0.9740
4.5985 4.0739 -2.3543 0.9740
2.9448 2.8285 -1.5647 0.9827
2.6818 3.0271 -1.5498 0.9828
3.8855 4.7588 -2.3543 0.9740
3.6907 4.9114 -2.3543 0.9740
3.0718 5.3205 -2.3543 0.9740
2.6337 5.5504 -2.3543 0.9740
2.4081 5.6520 -2.3543 0.9740
2.1785 5.7443 -2.3543 0.9740
1.8835 5.6418 -2.2794 0.9748
1.3460 5.4608 -2.1553 0.9762
0.6573 5.4128 -2.0895 0.9769
-0.4417 5.4713 -2.1035 0.9768
-0.6541 5.3874 -2.0797 0.9770
-1.1243 5.5071 -2.1540 0.9762
-1.3299 5.3956 -2.1296 0.9765
-1.5676 5.4121 -2.1593 0.9762
-2.1729 5.7295 -2.3482 0.9741
-2.5627 5.4008 -2.2909 0.9747
-3.0718 5.3205 -2.3543 0.9740
-3.2835 5.1925 -2.3543 0.9740
-3.4900 5.0560 -2.3543 0.9740
-3.8855 4.7589 -2.3543 0.9740
-4.0739 4.5985 -2.3543 0.9740
-4.4308 4.2558 -2.3543 0.9740
-4.7588 3.8855 -2.3543 0.9740
