ply
format ascii 1.0
element vertex 1577
property float32 x
property float32 y
property float32 z
property float32 I
end_header
15.3704 -26.6224 -1.5590 0.8842
15.1132 -21.8953 -1.3492 0.8989
14.8270 -19.7311 -1.2517 0.9059
14.9116 -18.2634 -1.1957 0.9099
14.8268 -16.7360 -1.1339 0.9143
13.2792 -13.8252 -0.9722 0.9261
14.3326 -13.7667 -1.0079 0.9235
15.4682 -13.7037 -1.0480 0.9206
16.7002 -13.6353 -1.0934 0.9173
18.0458 -13.5606 -1.1448 0.9136
19.5268 -13.4783 -1.2033 0.9093
26.6930 -14.0096 -1.5288 0.8863
28.7602 -13.6469 -1.6144 0.8803
31.8065 -12.0626 -1.7251 0.8726
40.4789 -11.7249 -2.1372 0.8447
45.8541 -7.4521 -2.3560 0.8302
49.2833 -1.9861 -2.5014 0.8207
49.3233 -0.0000 -2.5014 0.8207
49.2833 1.9861 -2.5014 0.8207
43.8384 3.5390 -2.2305 0.8385
45.4309 9.2748 -2.3515 0.8305
45.0744 11.1099 -2.3543 0.8303
29.5639 8.5633 -1.5609 0.8840
15.6500 6.6678 -0.8627 0.9341
13.5329 6.4215 -0.7597 0.9418
10.6151 6.1286 -0.6216 0.9521
9.6372 6.0942 -0.5783 0.9554
9.0639 6.2563 -0.5585 0.9568
8.2068 6.1670 -0.5206 0.9597
7.0199 6.2191 -0.4756 0.9631
6.1926 6.4471 -0.4534 0.9648
2.6579 3.0001 -0.2033 0.9841
5.1336 8.1180 -0.4871 0.9623
4.9826 9.4935 -0.5437 0.9580
4.3970 10.3202 -0.5689 0.9561
3.4945 10.4673 -0.5596 0.9568
2.9793 10.2855 -0.5431 0.9580
2.4266 9.8450 -0.5142 0.9602
1.9784 16.2937 -0.8324 0.9364
0.0001 7.9540 -0.4034 0.9686
-0.3148 7.8125 -0.3965 0.9692
-0.6254 7.7479 -0.3942 0.9693
-0.9476 7.8048 -0.3987 0.9690
-1.2923 7.9519 -0.4086 0.9682
-1.6666 8.1637 -0.4226 0.9672
-2.0469 8.3050 -0.4338 0.9663
-2.4691 8.5245 -0.4501 0.9651
-2.9382 8.8011 -0.4706 0.9635
-6.7995 17.9288 -0.9724 0.9261
-6.3989 10.1191 -0.6072 0.9532
-6.5832 7.4308 -0.5035 0.9610
-6.3501 6.6110 -0.4649 0.9640
-6.9132 6.6402 -0.4861 0.9623
-35.4667 31.4207 -2.4030 0.8271
-3.0944 2.3253 -0.1963 0.9846
-4.6763 3.2278 -0.2882 0.9775
-24.3243 15.3817 -1.4595 0.8911
-30.1282 17.3945 -1.7643 0.8699
-43.1878 20.4929 -2.4243 0.8258
-23.8729 9.0538 -1.2948 0.9028
-23.7992 7.9453 -1.2724 0.9044
-29.2633 7.2128 -1.5285 0.8863
-29.1562 5.9523 -1.5091 0.8876
-28.6977 -0.0000 -2.1042 0.8913
-28.3803 -4.6123 -2.1082 0.8911
-28.2190 -6.9554 -2.1310 0.8900
-28.0532 -9.3655 -2.1685 0.8881
-30.5679 -11.5929 -2.3971 0.8771
-26.0387 -19.5668 -2.3882 0.8775
-25.2253 -20.5958 -2.3878 0.8776
-24.6358 -21.8254 -2.4133 0.8763
-23.9970 -24.9835 -2.5400 0.8703
-22.9715 -25.9295 -2.5400 0.8703
-21.9088 -26.8335 -2.5400 0.8703
-20.8106 -27.6938 -2.5400 0.8703
-19.6786 -28.5094 -2.5400 0.8703
-18.5147 -29.2786 -2.5400 0.8703
-17.3207 -30.0004 -2.5400 0.8703
-12.2840 -32.3903 -2.5400 0.8703
-10.9698 -32.8587 -2.5400 0.8703
-3.6391 -14.7643 -1.1149 0.9408
-3.0070 -14.7292 -1.1023 0.9415
0.0000 -14.5623 -1.0677 0.9433
1.1648 -14.4290 -1.0614 0.9436
2.9396 -14.3991 -1.0776 0.9428
3.5408 -14.3658 -1.0849 0.9424
4.1513 -14.3319 -1.0940 0.9419
10.2801 -30.7927 -2.3803 0.8779
12.7193 -29.8533 -2.3793 0.8780
15.0724 -28.7181 -2.3781 0.8780
15.3704 -26.6224 -2.2540 0.8840
15.2352 -24.0925 -2.0901 0.8920
15.1132 -21.8953 -1.9507 0.8988
14.8268 -16.7360 -1.6394 0.9142
13.2792 -13.8252 -1.4056 0.9260
14.3326 -13.7667 -1.4571 0.9234
15.4682 -13.7037 -1.5152 0.9205
16.7002 -13.6353 -1.5808 0.9172
21.1163 -13.3532 -1.8319 0.9047
26.4889 -13.9024 -2.1935 0.8869
28.7599 -13.6467 -2.3341 0.8801
30.0779 -11.4070 -2.3587 0.8790
30.4802 -10.1758 -2.3561 0.8791
30.8287 -8.9297 -2.3533 0.8792
31.1261 -7.6719 -2.3505 0.8793
34.0045 -2.7451 -2.5014 0.8721
34.0875 -1.3737 -2.5014 0.8721
34.0875 1.3737 -2.5014 0.8721
34.0045 2.7451 -2.5014 0.8721
31.4216 6.4148 -2.3514 0.8793
29.7597 8.6200 -2.2717 0.8831
23.3809 7.8056 -1.8073 0.9059
10.7604 6.2125 -0.9110 0.9514
9.3895 5.9375 -0.8146 0.9564
7.9652 5.9854 -0.7305 0.9608
7.1374 5.8275 -0.6756 0.9637
5.4982 5.7242 -0.5820 0.9687
2.6570 2.9992 -0.2938 0.9841
2.4521 3.0032 -0.2843 0.9846
2.3612 3.1422 -0.2882 0.9844
3.7761 5.9713 -0.5180 0.9721
3.5629 6.1711 -0.5225 0.9718
2.8717 6.0518 -0.4912 0.9735
2.5690 6.0296 -0.4806 0.9741
2.3139 6.1012 -0.4784 0.9742
3.3350 9.9895 -0.7722 0.9586
1.8030 6.2245 -0.4752 0.9743
1.4697 5.9627 -0.4503 0.9757
0.2412 5.9852 -0.4392 0.9763
0.0001 7.9734 -0.5846 0.9685
-0.3144 7.8028 -0.5726 0.9692
-0.4941 6.1214 -0.4503 0.9757
-1.2234 5.9927 -0.4485 0.9758
-2.0685 8.3925 -0.6338 0.9659
-1.9787 5.9270 -0.4582 0.9753
-6.4222 15.0735 -1.2014 0.9364
-2.8110 5.9240 -0.4808 0.9740
-3.6895 5.8344 -0.5062 0.9727
-4.0775 5.4261 -0.4977 0.9731
-5.0146 5.6602 -0.5545 0.9701
-5.4605 5.2448 -0.5552 0.9701
-6.3261 5.1651 -0.5988 0.9678
-24.1066 15.2441 -2.0913 0.8919
-25.3745 14.6500 -2.1483 0.8891
-23.6187 8.9574 -1.8521 0.9037
-29.0516 4.7213 -2.1581 0.8887
-32.7341 1.3192 -2.4021 0.8769
-26.3248 -1.0608 -2.5294 0.8995
-26.2381 -2.1182 -2.5272 0.8996
-25.9221 -5.2921 -2.5400 0.8991
-24.7375 -9.3817 -2.5400 0.8991
-23.9024 -11.3418 -2.5400 0.8991
-23.4263 -12.2951 -2.5400 0.8991
-22.9123 -13.2284 -2.5400 0.8991
-22.3610 -14.1403 -2.5400 0.8991
-21.7735 -15.0292 -2.5400 0.8991
-19.0807 -18.3273 -2.5400 0.8991
-16.7325 -20.4936 -2.5400 0.8991
-15.8937 -21.1507 -2.5400 0.8991
-15.0292 -21.7735 -2.5400 0.8991
-13.2284 -22.9123 -2.5400 0.8991
-12.2951 -23.4263 -2.5400 0.8991
-11.3418 -23.9024 -2.5400 0.8991
-10.3702 -24.3397 -2.5400 0.8991
-7.8757 -23.5905 -2.3877 0.9049
-4.2661 -14.7282 -1.4721 0.9402
-1.8262 -11.2370 -1.0930 0.9553
-0.5882 -14.5950 -1.4023 0.9430
0.0000 -14.5623 -1.3981 0.9432
0.5855 -14.5298 -1.3961 0.9432
7.8248 -23.4380 -2.3723 0.9055
9.6776 -22.7144 -2.3704 0.9055
11.4698 -21.8539 -2.3695 0.9056
13.1849 -20.8504 -2.3684 0.9056
14.0101 -20.2972 -2.3678 0.9056
14.8268 -16.7360 -2.1466 0.9141
15.4682 -13.7037 -1.9840 0.9203
16.7002 -13.6353 -2.0698 0.9170
20.2346 -13.9669 -2.3605 0.9059
20.7719 -13.1354 -2.3595 0.9060
21.2732 -12.2821 -2.3583 0.9060
22.1544 -10.5124 -2.3542 0.9062
22.8876 -8.6801 -2.3500 0.9063
25.0261 -7.2489 -2.5014 0.9006
25.2977 -6.2354 -2.5014 0.9006
25.7174 -4.1795 -2.5014 0.9006
26.0337 -1.0491 -2.5014 0.9006
26.0548 0.0000 -2.5014 0.9006
26.0337 1.0491 -2.5014 0.9006
25.9703 2.0965 -2.5014 0.9006
25.8649 3.1406 -2.5014 0.9006
23.7990 5.8659 -2.3532 0.9062
23.5548 6.8227 -2.3543 0.9062
18.7956 7.1282 -1.9299 0.9224
15.4688 6.5906 -1.6143 0.9347
13.5375 6.4236 -1.4386 0.9416
11.9247 6.2586 -1.2929 0.9473
9.4442 5.9721 -1.0728 0.9561
8.0090 6.0184 -0.9618 0.9605
6.6769 5.9152 -0.8564 0.9648
2.6562 2.9982 -0.3846 0.9840
2.4515 3.0025 -0.3721 0.9845
2.3606 3.1414 -0.3773 0.9843
3.7058 5.8602 -0.6657 0.9725
3.3927 5.8762 -0.6514 0.9731
3.1924 6.0826 -0.6595 0.9728
2.7197 5.7314 -0.6091 0.9748
2.4224 5.6853 -0.5933 0.9755
1.6535 5.7083 -0.5706 0.9764
1.3912 5.6442 -0.5581 0.9769
0.9393 5.7799 -0.5622 0.9767
-0.2386 5.9218 -0.5690 0.9765
-0.4757 5.8928 -0.5676 0.9765
-0.6840 5.6334 -0.5448 0.9775
-1.3804 5.6007 -0.5538 0.9771
-1.8388 5.5077 -0.5575 0.9769
-2.0903 5.5117 -0.5659 0.9766
-2.4074 5.6505 -0.5897 0.9756
-3.0777 5.3307 -0.5909 0.9756
-3.5728 5.6499 -0.6418 0.9735
-3.9524 5.2596 -0.6316 0.9739
-4.3731 5.3561 -0.6638 0.9726
-5.0001 5.6438 -0.7239 0.9702
-5.1480 5.3596 -0.7135 0.9706
-6.1852 5.4796 -0.7933 0.9673
-22.3610 14.1403 -2.5400 0.8991
-22.9123 13.2284 -2.5400 0.8991
-23.4263 12.2952 -2.5400 0.8991
-23.6811 10.0896 -2.4713 0.9017
-24.7376 9.3816 -2.5400 0.8991
-25.0953 8.3780 -2.5400 0.8991
-24.9365 7.2229 -2.4924 0.9009
-25.9221 5.2920 -2.5400 0.8991
-26.1142 4.2440 -2.5400 0.8991
-26.2639 3.1890 -2.5400 0.8991
-26.4353 1.0653 -2.5400 0.8991
-21.3829 0.0000 -2.5400 0.9175
-21.3135 -1.7206 -2.5400 0.9175
-21.2270 -2.5774 -2.5400 0.9175
-21.1060 -3.4301 -2.5400 0.9175
-20.9507 -4.2771 -2.5400 0.9175
-20.5386 -5.9491 -2.5400 0.9175
-19.9933 -7.5825 -2.5400 0.9175
-19.3184 -9.1667 -2.5400 0.9175
-18.0726 -11.4284 -2.5400 0.9175
-17.0944 -12.8456 -2.5400 0.9175
-16.5633 -13.5235 -2.5400 0.9175
-16.0053 -14.1795 -2.5400 0.9175
-14.8124 -15.4214 -2.5400 0.9175
-14.1795 -16.0053 -2.5400 0.9175
-12.8456 -17.0944 -2.5400 0.9175
-11.4284 -18.0726 -2.5400 0.9175
-10.6915 -18.5181 -2.5400 0.9175
-9.9371 -18.9336 -2.5400 0.9175
-8.6168 -18.1595 -2.3876 0.9222
-6.4638 -15.1711 -1.9589 0.9357
-7.1286 -18.7966 -2.3879 0.9222
-4.2661 -14.7282 -1.8214 0.9401
-1.7802 -14.6611 -1.7543 0.9422
-1.1809 -14.6279 -1.7432 0.9426
-0.5882 -14.5950 -1.7351 0.9429
0.0000 -14.5623 -1.7298 0.9430
0.5855 -14.5298 -1.7273 0.9431
1.1648 -14.4290 -1.7195 0.9434
2.9396 -14.3991 -1.7457 0.9425
3.5408 -14.3658 -1.7575 0.9421
8.5346 -17.9863 -2.3648 0.9229
9.2502 -17.6249 -2.3644 0.9230
9.9505 -17.2348 -2.3640 0.9230
10.6341 -16.8165 -2.3635 0.9230
11.3001 -16.3710 -2.3629 0.9230
11.9472 -15.8988 -2.3623 0.9230
13.7651 -14.3310 -2.3604 0.9231
14.8637 -13.1681 -2.3588 0.9231
16.3122 -11.2595 -2.3544 0.9233
17.1423 -9.8971 -2.3513 0.9234
18.2534 -8.6614 -2.4000 0.9218
19.6896 -7.4673 -2.5014 0.9187
19.9743 -6.6684 -2.5014 0.9187
9.1733 -1.8728 -1.1121 0.9630
9.1536 -1.4876 -1.1016 0.9633
9.2219 -1.1198 -1.1035 0.9633
10.2850 -0.8303 -1.2257 0.9593
21.0580 -0.0000 -2.5014 0.9187
21.0409 0.8479 -2.5014 0.9187
20.9897 1.6945 -2.5014 0.9187
20.9045 2.5383 -2.5014 0.9187
19.2240 4.7383 -2.3519 0.9233
19.0347 5.5135 -2.3540 0.9233
15.4254 6.5721 -1.9917 0.9347
13.1756 6.2519 -1.7323 0.9429
9.5095 6.0134 -1.3365 0.9557
8.5016 5.8682 -1.2271 0.9592
7.2431 5.9139 -1.1107 0.9630
5.5139 5.7405 -0.9455 0.9684
2.3600 3.1407 -0.4667 0.9843
3.9977 5.7917 -0.8359 0.9721
3.4131 5.9116 -0.8109 0.9729
3.0940 5.8950 -0.7908 0.9735
2.7048 5.7001 -0.7495 0.9749
2.4279 5.6983 -0.7358 0.9754
0.9471 5.8276 -0.7013 0.9765
0.7037 5.7954 -0.6935 0.9768
0.4480 5.5486 -0.6612 0.9778
-0.6860 5.6500 -0.6761 0.9773
-0.8910 5.4826 -0.6598 0.9779
-1.1107 5.4408 -0.6596 0.9779
-1.3423 5.4462 -0.6663 0.9777
-1.6312 5.6315 -0.6964 0.9767
-1.8002 5.3921 -0.6753 0.9774
-2.0469 5.3974 -0.6857 0.9770
-2.3849 5.5976 -0.7228 0.9758
-2.6307 5.5441 -0.7289 0.9756
-2.7737 5.2849 -0.7090 0.9762
-3.0296 5.2474 -0.7197 0.9759
-3.9025 5.1932 -0.7716 0.9742
-4.3331 5.3071 -0.8139 0.9728
-18.0726 11.4284 -2.5400 0.9175
-18.5181 10.6915 -2.5400 0.9175
-18.9336 9.9371 -2.5400 0.9175
-19.9933 7.5825 -2.5400 0.9175
-20.2824 6.7712 -2.5400 0.9175
-20.5386 5.9491 -2.5400 0.9175
-20.9507 4.2771 -2.5400 0.9175
-21.2270 2.5774 -2.5400 0.9175
-21.3135 1.7206 -2.5400 0.9175
-17.9264 0.0000 -2.5400 0.9301
-17.9119 -0.7218 -2.5400 0.9301
-17.8683 -1.4425 -2.5400 0.9301
-17.5642 -3.5858 -2.5400 0.9301
-17.2187 -4.9875 -2.5400 0.9301
-17.0039 -5.6767 -2.5400 0.9301
-16.1956 -7.6849 -2.5400 0.9301
-15.5248 -8.9632 -2.5400 0.9301
-15.1512 -9.5811 -2.5400 0.9301
-14.7532 -10.1834 -2.5400 0.9301
-14.3312 -10.7692 -2.5400 0.9301
-13.4181 -11.8874 -2.5400 0.9301
-12.9286 -12.4181 -2.5400 0.9301
-11.3375 -13.8859 -2.5400 0.9301
-10.7692 -14.3311 -2.5400 0.9301
-10.1834 -14.7532 -2.5400 0.9301
-9.0062 -14.2422 -2.3876 0.9342
-7.2238 -15.2239 -2.3876 0.9342
-6.4278 -15.0865 -2.3235 0.9359
-5.3365 -15.9849 -2.3878 0.9342
-4.2630 -14.7175 -2.1710 0.9400
-2.9971 -14.6809 -2.1230 0.9413
-1.8253 -11.2318 -1.6123 0.9551
-1.1809 -14.6279 -2.0794 0.9424
0.0000 -14.5623 -2.0633 0.9429
0.5855 -14.5298 -2.0604 0.9429
1.1648 -14.4290 -2.0511 0.9432
2.3454 -14.4321 -2.0717 0.9426
2.9396 -14.3991 -2.0823 0.9424
3.5408 -14.3658 -2.0964 0.9420
7.1425 -15.0526 -2.3607 0.9349
9.4578 -13.7020 -2.3590 0.9350
9.9980 -13.3050 -2.3581 0.9350
10.5214 -12.8864 -2.3571 0.9350
11.9819 -11.5088 -2.3540 0.9351
12.8563 -10.4969 -2.3517 0.9351
13.6448 -9.4183 -2.3492 0.9352
14.3849 -9.0964 -2.4115 0.9336
15.2889 -8.8271 -2.5014 0.9312
15.6319 -8.2043 -2.5014 0.9312
15.9496 -7.5682 -2.5014 0.9312
16.2414 -6.9198 -2.5014 0.9312
16.5069 -6.2602 -2.5014 0.9312
16.7455 -5.5905 -2.5014 0.9312
16.9571 -4.9117 -2.5014 0.9312
8.7244 -2.1504 -1.2732 0.9643
8.7001 -1.7762 -1.2581 0.9648
8.7110 -1.4157 -1.2504 0.9650
8.7734 -1.0653 -1.2522 0.9649
17.6398 -0.7109 -2.5014 0.9312
17.6541 -0.0000 -2.5014 0.9312
17.5968 1.4206 -2.5014 0.9312
16.2442 3.3163 -2.3491 0.9352
16.1096 3.9707 -2.3509 0.9352
15.9487 4.6196 -2.3526 0.9351
15.7610 5.2618 -2.3543 0.9351
15.5364 5.8922 -2.3543 0.9351
15.2865 6.5130 -2.3543 0.9351
13.4626 6.3881 -2.1114 0.9416
12.1773 6.3911 -1.9486 0.9460
10.6175 6.1300 -1.7371 0.9517
9.4704 5.9887 -1.5876 0.9557
7.3154 5.9729 -1.3381 0.9626
6.6953 5.9316 -1.2674 0.9645
3.9533 5.7272 -0.9860 0.9723
3.6912 5.8370 -0.9785 0.9725
3.4095 5.9054 -0.9662 0.9728
3.1615 6.0236 -0.9639 0.9729
1.9152 5.7366 -0.8569 0.9759
1.3759 5.5821 -0.8146 0.9770
1.1420 5.5939 -0.8090 0.9772
0.9368 5.7642 -0.8274 0.9767
0.2219 5.5054 -0.7807 0.9780
-0.9023 5.5524 -0.7970 0.9775
-1.1241 5.5066 -0.7963 0.9776
-1.3864 5.6251 -0.8209 0.9769
-1.6127 5.5678 -0.8213 0.9769
-1.8186 5.4473 -0.8137 0.9771
-2.0511 5.4082 -0.8195 0.9769
-2.3560 5.5296 -0.8516 0.9760
-2.7692 5.2762 -0.8443 0.9762
-3.0223 5.2347 -0.8564 0.9759
-3.4782 5.5003 -0.9221 0.9741
-3.8898 5.1763 -0.9174 0.9742
-4.3315 5.3051 -0.9704 0.9727
-4.8973 5.5279 -1.0464 0.9706
-16.4920 7.0266 -2.5400 0.9301
-16.7615 6.3568 -2.5400 0.9301
-17.0039 5.6767 -2.5400 0.9301
-17.2187 4.9875 -2.5400 0.9301
-17.4055 4.2901 -2.5400 0.9301
-17.5642 3.5858 -2.5400 0.9301
-17.6943 2.8756 -2.5400 0.9301
-17.7957 2.1608 -2.5400 0.9301
-15.4057 -0.6208 -2.5400 0.9394
-15.3682 -1.2407 -2.5400 0.9394
-15.3058 -1.8585 -2.5400 0.9394
-15.1066 -3.0840 -2.5400 0.9394
-14.9702 -3.6898 -2.5400 0.9394
-14.4163 -5.4674 -2.5400 0.9394
-13.9296 -6.6097 -2.5400 0.9394
-12.6889 -8.7586 -2.5400 0.9394
-12.3260 -9.2624 -2.5400 0.9394
-11.1197 -10.6806 -2.5400 0.9394
-10.6806 -11.1197 -2.5400 0.9394
-10.2242 -11.5407 -2.5400 0.9394
-9.2434 -12.3007 -2.5348 0.9395
-6.6375 -12.6468 -2.3529 0.9437
-5.5890 -13.1179 -2.3490 0.9438
-5.0563 -13.3323 -2.3490 0.9438
-3.9808 -13.7434 -2.3571 0.9436
-1.8249 -11.2291 -1.8742 0.9549
0.0000 -14.3201 -2.3591 0.9436
0.5766 -14.3088 -2.3591 0.9436
1.1523 -14.2739 -2.3591 0.9436
2.8639 -14.0285 -2.3587 0.9436
3.9826 -13.7494 -2.3582 0.9436
4.5323 -13.5758 -2.3578 0.9436
5.6079 -13.1621 -2.3569 0.9437
6.6457 -12.6623 -2.3558 0.9437
7.1483 -12.3812 -2.3552 0.9437
7.6388 -12.0798 -2.3545 0.9437
8.1165 -11.7588 -2.3538 0.9437
8.5806 -11.4187 -2.3530 0.9437
9.0303 -11.0601 -2.3522 0.9438
9.4648 -10.6836 -2.3513 0.9438
9.8835 -10.2899 -2.3504 0.9438
10.2857 -9.8796 -2.3495 0.9438
10.7037 -9.4827 -2.3558 0.9437
11.4919 -9.3828 -2.4440 0.9416
12.1387 -9.1217 -2.5014 0.9403
12.4962 -8.6255 -2.5014 0.9403
12.8333 -8.1153 -2.5014 0.9403
13.7180 -6.5093 -2.5014 0.9403
13.9689 -5.9516 -2.5014 0.9403
14.4025 -4.8083 -2.5014 0.9403
8.2027 -2.0218 -1.3918 0.9663
8.2080 -1.3339 -1.3699 0.9669
8.3018 -1.0080 -1.3777 0.9667
11.7675 -0.4742 -1.9401 0.9534
15.1840 -0.0000 -2.5014 0.9403
15.1716 0.6114 -2.5014 0.9403
15.1347 1.2218 -2.5014 0.9403
14.0303 2.8643 -2.3590 0.9436
13.8509 3.4139 -2.3501 0.9438
13.7111 3.9715 -2.3516 0.9438
13.1477 5.6017 -2.3543 0.9437
12.9114 6.1265 -2.3543 0.9437
11.9090 6.2503 -2.2157 0.9469
10.6866 6.1699 -2.0328 0.9512
8.5546 5.9048 -1.7124 0.9587
6.7066 5.9415 -1.4760 0.9643
5.9045 5.6712 -1.3487 0.9674
2.6536 2.9953 -0.6592 0.9839
2.3589 3.1391 -0.6469 0.9842
3.6441 5.7627 -1.1232 0.9727
3.4474 5.9710 -1.1358 0.9724
3.1376 5.9780 -1.1122 0.9730
2.6998 5.6896 -1.0375 0.9748
2.4208 5.6818 -1.0174 0.9753
1.9284 5.7763 -1.0032 0.9756
1.3911 5.6439 -0.9576 0.9767
0.9373 5.7673 -0.9626 0.9766
0.7057 5.8112 -0.9644 0.9765
0.4539 5.6220 -0.9292 0.9774
0.2206 5.4722 -0.9022 0.9780
0.0000 5.3288 -0.8779 0.9786
-0.2279 5.6554 -0.9324 0.9773
-0.4616 5.7184 -0.9451 0.9770
-1.1135 5.4544 -0.9171 0.9777
-1.8069 5.4122 -0.9400 0.9771
-2.6154 5.5118 -1.0051 0.9756
-2.7708 5.2792 -0.9822 0.9761
-3.0228 5.2357 -0.9960 0.9758
-3.8923 5.1798 -1.0674 0.9741
-4.3049 5.2725 -1.1213 0.9728
-4.9335 5.5687 -1.2256 0.9703
-5.0817 5.2905 -1.2085 0.9707
-6.2097 5.5012 -1.3667 0.9669
-6.3485 5.1833 -1.3502 0.9673
-13.9296 6.6097 -2.5400 0.9394
-14.4163 5.4674 -2.5400 0.9394
-14.6247 4.8825 -2.5400 0.9394
-15.2186 2.4733 -2.5400 0.9394
-15.3058 1.8585 -2.5400 0.9394
-13.5134 0.0000 -2.5400 0.9465
-13.5024 -0.5441 -2.5400 0.9465
-13.4696 -1.0874 -2.5400 0.9465
-13.3384 -2.1677 -2.5400 0.9465
-13.1207 -3.2340 -2.5400 0.9465
-12.6352 -4.7919 -2.5400 0.9465
-12.2087 -5.7931 -2.5400 0.9465
-11.7029 -6.7567 -2.5400 0.9465
-11.1213 -7.6765 -2.5400 0.9465
-10.8032 -8.1181 -2.5400 0.9465
-10.4675 -8.5465 -2.5400 0.9465
-10.1149 -8.9610 -2.5400 0.9465
-9.7456 -9.3608 -2.5399 0.9465
-8.0120 -10.6620 -2.5068 0.9472
-7.5647 -10.9594 -2.5030 0.9472
-6.2486 -10.8229 -2.3490 0.9504
-5.8078 -11.0658 -2.3490 0.9504
-3.9629 -11.8705 -2.3522 0.9503
-2.5045 -12.2679 -2.3534 0.9503
-1.8245 -11.2265 -2.1378 0.9548
0.0000 -12.5261 -2.3544 0.9503
1.5098 -12.4347 -2.3544 0.9503
2.0092 -12.3632 -2.3543 0.9503
2.5052 -12.2714 -2.3541 0.9503
3.9648 -11.8760 -2.3533 0.9503
4.4391 -11.7049 -2.3530 0.9503
4.9060 -11.5147 -2.3526 0.9503
5.3646 -11.3056 -2.3521 0.9503
7.1018 -10.2887 -2.3498 0.9504
7.5082 -9.9916 -2.3492 0.9504
8.5538 -9.6552 -2.4245 0.9489
9.9612 -8.8249 -2.5014 0.9473
10.9523 -7.5598 -2.5014 0.9473
11.2478 -7.1127 -2.5014 0.9473
11.7837 -6.1846 -2.5014 0.9473
8.2522 -2.3903 -1.6148 0.9656
8.0043 -1.9729 -1.5495 0.9670
7.9562 -1.6243 -1.5263 0.9675
11.6843 -0.4709 -2.1980 0.9535
13.2649 1.0708 -2.5014 0.9473
13.2110 1.6041 -2.5014 0.9473
13.1357 2.1348 -2.5014 0.9473
12.1364 2.9913 -2.3494 0.9504
12.0129 3.4796 -2.3508 0.9504
11.8697 3.9627 -2.3521 0.9503
11.0909 5.8209 -2.3543 0.9503
10.8475 6.2628 -2.3543 0.9503
6.7196 5.9531 -1.6874 0.9641
6.1185 5.8768 -1.5946 0.9661
5.5889 5.8186 -1.5165 0.9677
2.4491 2.9996 -0.7279 0.9844
2.3583 3.1383 -0.7379 0.9841
3.6763 5.8136 -1.2929 0.9724
3.4425 5.9625 -1.2941 0.9724
2.1617 5.6998 -1.1458 0.9755
1.9119 5.7266 -1.1348 0.9757
1.3836 5.6135 -1.0867 0.9767
1.1404 5.5860 -1.0716 0.9771
0.9095 5.5963 -1.0657 0.9772
-0.2273 5.6425 -1.0614 0.9773
-0.4578 5.6713 -1.0695 0.9771
-0.6745 5.5552 -1.0518 0.9775
-0.9018 5.5491 -1.0567 0.9774
-1.1238 5.5049 -1.0561 0.9774
-1.7844 5.3448 -1.0591 0.9773
-2.3357 5.4822 -1.1201 0.9760
-2.6030 5.4857 -1.1413 0.9756
-2.7596 5.2579 -1.1161 0.9761
-3.0468 5.2772 -1.1453 0.9755
-3.4983 5.5322 -1.2303 0.9737
-3.7010 5.3618 -1.2246 0.9738
-3.8998 5.1896 -1.2202 0.9739
-4.9029 5.5341 -1.3897 0.9704
-5.0955 5.3049 -1.3826 0.9705
-6.1319 5.4323 -1.5398 0.9672
-3.0944 2.3253 -0.7275 0.9844
-10.4540 7.2159 -2.3876 0.9496
-11.9655 6.2800 -2.5400 0.9465
-12.2087 5.7931 -2.5400 0.9465
-13.1207 3.2340 -2.5400 0.9465
-13.2403 2.7030 -2.5400 0.9465
-13.3384 2.1677 -2.5400 0.9465
-12.0065 -0.4838 -2.5400 0.9521
-11.9772 -0.9669 -2.5400 0.9521
-11.6670 -2.8757 -2.5400 0.9521
-11.2354 -4.2610 -2.5400 0.9521
-11.0547 -4.7100 -2.5400 0.9521
-10.6398 -5.5842 -2.5400 0.9521
-10.4063 -6.0081 -2.5400 0.9521
-10.1560 -6.4223 -2.5400 0.9521
-9.8873 -6.8247 -2.5395 0.9521
-9.5907 -7.2070 -2.5359 0.9521
-9.2687 -7.5676 -2.5293 0.9523
-8.9303 -7.9116 -2.5219 0.9524
-8.5806 -8.2418 -2.5149 0.9525
-8.2243 -8.5623 -2.5096 0.9526
-7.8594 -8.8715 -2.5053 0.9527
-7.1115 -9.4636 -2.5023 0.9528
-6.7237 -9.7410 -2.5019 0.9528
-6.3247 -10.0017 -2.5014 0.9528
-5.9168 -10.2482 -2.5014 0.9528
-5.4994 -10.4782 -2.5014 0.9528
-4.9798 -10.4947 -2.4554 0.9536
-3.0920 -10.6749 -2.3492 0.9556
-1.3403 -11.0381 -2.3504 0.9556
0.4478 -11.1122 -2.3508 0.9556
1.3405 -11.0399 -2.3508 0.9556
1.7839 -10.9765 -2.3507 0.9556
2.2243 -10.8951 -2.3505 0.9556
4.3561 -10.2241 -2.3492 0.9556
4.7639 -10.0398 -2.3490 0.9556
5.2118 -9.9303 -2.3706 0.9552
5.7075 -9.8858 -2.4129 0.9544
6.2217 -9.8389 -2.4607 0.9535
7.1090 -9.4603 -2.5014 0.9528
7.8471 -8.8576 -2.5014 0.9528
8.1975 -8.5345 -2.5014 0.9528
8.5345 -8.1975 -2.5014 0.9528
9.1664 -7.4842 -2.5014 0.9528
9.7389 -6.7223 -2.5014 0.9528
10.0017 -6.3247 -2.5014 0.9528
10.2482 -5.9168 -2.5014 0.9528
10.4782 -5.4994 -2.5014 0.9528
11.0647 -4.1963 -2.5014 0.9528
11.2246 -3.7473 -2.5014 0.9528
7.9070 -1.9489 -1.7214 0.9673
7.8758 -1.6079 -1.6991 0.9677
11.7530 -0.4736 -2.4864 0.9530
11.8336 0.0000 -2.5014 0.9528
11.7474 1.4264 -2.5014 0.9528
11.6804 1.8983 -2.5014 0.9528
11.5945 2.3670 -2.5014 0.9528
10.7898 2.6594 -2.3490 0.9556
10.4057 3.9464 -2.3524 0.9555
9.6457 5.5689 -2.3543 0.9555
9.4136 5.9528 -2.3543 0.9555
9.1095 6.2879 -2.3397 0.9558
7.2553 5.9238 -1.9799 0.9624
5.5649 5.7936 -1.6981 0.9677
3.9713 5.7534 -1.4778 0.9718
3.1294 5.9626 -1.4234 0.9728
2.3652 5.5511 -1.2755 0.9756
1.3837 5.6136 -1.2221 0.9766
1.1419 5.5932 -1.2067 0.9769
0.7002 5.7658 -1.2277 0.9765
0.2242 5.5617 -1.1766 0.9775
-0.6768 5.5744 -1.1870 0.9773
-1.1213 5.4924 -1.1849 0.9773
-1.5788 5.4505 -1.1995 0.9771
-2.0751 5.4717 -1.2370 0.9764
-2.4347 5.7145 -1.3130 0.9749
-2.5631 5.4017 -1.2638 0.9759
-2.7935 5.3227 -1.2707 0.9757
-3.0986 5.3669 -1.3100 0.9750
-3.4918 5.5219 -1.3810 0.9736
-3.6754 5.3247 -1.3676 0.9739
-4.2241 5.1736 -1.4118 0.9731
-4.8615 5.4874 -1.5497 0.9705
-5.0433 5.2505 -1.5389 0.9707
-5.3769 5.1645 -1.5759 0.9700
-9.2958 6.4164 -2.3876 0.9549
-10.0014 5.2492 -2.3876 0.9549
-11.3978 3.8051 -2.5400 0.9521
-11.6670 2.8757 -2.5400 0.9521
-11.7734 2.4036 -2.5400 0.9521
-11.8606 1.9275 -2.5400 0.9521
-11.9286 1.4484 -2.5400 0.9521
-11.9772 0.9669 -2.5400 0.9521
-12.0065 0.4839 -2.5400 0.9521
-10.8074 0.0000 -2.5400 0.9566
-10.7986 -0.4352 -2.5400 0.9566
-10.7723 -0.8696 -2.5400 0.9566
-10.7286 -1.3027 -2.5400 0.9566
-10.4933 -2.5864 -2.5400 0.9566
-10.3807 -3.0068 -2.5400 0.9566
-9.9367 -4.2336 -2.5385 0.9566
-9.7481 -4.6255 -2.5359 0.9566
-9.5403 -5.0070 -2.5322 0.9567
-9.3165 -5.3789 -2.5283 0.9568
-9.0755 -5.7378 -2.5236 0.9568
-8.8192 -6.0874 -2.5185 0.9569
-8.5519 -6.4263 -2.5141 0.9570
-8.2708 -6.7529 -2.5095 0.9571
-7.9819 -7.0712 -2.5062 0.9571
-7.6842 -7.3808 -2.5041 0.9572
-7.0616 -7.9709 -2.5028 0.9572
-6.7341 -8.2478 -2.5025 0.9572
-6.3957 -8.5112 -2.5021 0.9572
-6.0471 -8.7607 -2.5018 0.9572
-5.3216 -9.2173 -2.5014 0.9572
-4.5627 -9.6156 -2.5014 0.9572
-4.1718 -9.7915 -2.5014 0.9572
-3.7741 -9.9516 -2.5014 0.9572
-3.3704 -10.0955 -2.5014 0.9572
-2.5471 -10.3339 -2.5014 0.9572
-2.1148 -10.3589 -2.4848 0.9575
-1.6806 -10.3410 -2.4623 0.9579
0.0000 -10.2621 -2.4118 0.9587
0.4126 -10.2387 -2.4083 0.9588
1.2373 -10.1898 -2.4124 0.9587
1.6518 -10.1641 -2.4201 0.9586
2.0692 -10.1358 -2.4313 0.9584
2.9178 -10.0735 -2.4648 0.9578
3.7741 -9.9516 -2.5014 0.9572
4.5627 -9.6156 -2.5014 0.9572
4.9461 -9.4241 -2.5014 0.9572
5.3216 -9.2173 -2.5014 0.9572
5.6884 -8.9955 -2.5014 0.9572
6.0460 -8.7592 -2.5014 0.9572
7.3728 -7.6759 -2.5014 0.9572
7.6759 -7.3728 -2.5014 0.9572
8.5086 -6.3938 -2.5014 0.9572
9.2173 -5.3216 -2.5014 0.9572
9.7915 -4.1718 -2.5014 0.9572
10.0955 -3.3704 -2.5014 0.9572
7.9621 -2.3063 -1.9482 0.9665
7.8060 -1.5936 -1.8724 0.9678
7.8801 -0.9568 -1.8656 0.9679
10.6346 -0.4286 -2.5014 0.9572
10.6346 0.4286 -2.5014 0.9572
10.6087 0.8564 -2.5014 0.9572
10.5054 1.7073 -2.5014 0.9572
10.4281 2.1289 -2.5014 0.9572
9.8607 2.4304 -2.3868 0.9591
9.4868 3.1672 -2.3506 0.9597
9.3557 3.5482 -2.3516 0.9597
9.2093 3.9237 -2.3527 0.9597
8.4666 5.3540 -2.3543 0.9597
7.3778 6.0238 -2.2385 0.9616
6.0882 5.8477 -1.9840 0.9659
5.5709 5.7998 -1.8900 0.9675
2.6510 2.9924 -0.9396 0.9837
2.3571 3.1368 -0.9222 0.9840
3.4146 5.9141 -1.6050 0.9723
3.1403 5.9831 -1.5881 0.9726
2.7349 5.7635 -1.4993 0.9741
1.6381 5.6554 -1.3838 0.9761
1.1227 5.4990 -1.3191 0.9772
0.9343 5.7487 -1.3688 0.9764
-0.2248 5.5787 -1.3122 0.9773
-0.6770 5.5755 -1.3200 0.9772
-0.8964 5.5156 -1.3133 0.9773
-1.1058 5.4170 -1.2994 0.9775
-1.3469 5.4646 -1.3228 0.9771
-2.4372 5.7203 -1.4613 0.9748
-2.5746 5.4258 -1.4115 0.9756
-2.7825 5.3017 -1.4072 0.9757
-3.0761 5.3279 -1.4459 0.9750
-3.4855 5.5118 -1.5327 0.9736
-4.8197 5.4403 -1.7082 0.9706
-5.0141 5.2201 -1.7011 0.9707
-5.4468 5.2317 -1.7750 0.9694
-6.1460 5.4448 -1.9297 0.9668
-6.3726 5.2030 -1.9335 0.9668
-3.0944 2.3253 -0.9097 0.9842
-8.5862 5.4296 -2.3876 0.9591
-8.7979 5.0795 -2.3876 0.9591
-8.9953 4.7211 -2.3876 0.9591
-9.1781 4.3551 -2.3876 0.9591
-9.3460 3.9820 -2.3876 0.9591
-10.3797 3.0065 -2.5397 0.9566
-10.6674 1.7336 -2.5400 0.9566
-10.7286 1.3027 -2.5400 0.9566
-10.7723 0.8696 -2.5400 0.9566
-9.7804 -0.3941 -2.5344 0.9604
-9.6543 -1.5690 -2.5325 0.9604
-9.3794 -2.7168 -2.5283 0.9605
-8.9540 -3.8149 -2.5200 0.9606
-8.7832 -4.1677 -2.5172 0.9606
-8.3980 -4.8486 -2.5108 0.9607
-6.4095 -7.2348 -2.5026 0.9608
-5.8053 -7.7254 -2.5021 0.9609
-5.4889 -7.9520 -2.5018 0.9609
-5.1637 -8.1657 -2.5015 0.9609
-4.4897 -8.5544 -2.5014 0.9609
-4.1416 -8.7282 -2.5014 0.9609
-3.7868 -8.8879 -2.5014 0.9609
-3.0593 -9.1638 -2.5014 0.9609
-2.3120 -9.3802 -2.5014 0.9609
-1.9325 -9.4657 -2.5014 0.9609
-1.5497 -9.5359 -2.5014 0.9609
-1.1645 -9.5905 -2.5014 0.9609
-0.7774 -9.6296 -2.5014 0.9609
-0.3890 -9.6531 -2.5014 0.9609
1.1645 -9.5905 -2.5014 0.9609
1.5497 -9.5359 -2.5014 0.9609
2.3120 -9.3802 -2.5014 0.9609
3.0593 -9.1638 -2.5014 0.9609
3.7868 -8.8879 -2.5014 0.9609
4.1416 -8.7282 -2.5014 0.9609
4.4897 -8.5544 -2.5014 0.9609
5.1634 -8.1654 -2.5014 0.9609
5.8037 -7.7234 -2.5014 0.9609
6.9675 -6.6924 -2.5014 0.9609
7.2313 -6.4064 -2.5014 0.9609
7.7234 -5.8038 -2.5014 0.9609
8.5544 -4.4897 -2.5014 0.9609
8.7282 -4.1416 -2.5014 0.9609
8.8879 -3.7868 -2.5014 0.9609
9.0332 -3.4258 -2.5014 0.9609
7.9106 -2.2913 -2.1324 0.9665
7.8235 -1.9283 -2.0863 0.9673
7.8096 -1.2692 -2.0486 0.9678
7.8554 -0.9538 -2.0488 0.9678
8.0255 -0.6479 -2.0847 0.9673
9.6531 -0.3890 -2.5014 0.9609
9.6610 -0.0000 -2.5014 0.9609
9.6531 0.3890 -2.5014 0.9609
9.5905 1.1645 -2.5014 0.9609
8.6092 2.8742 -2.3500 0.9632
8.4899 3.2198 -2.3510 0.9632
8.3567 3.5604 -2.3519 0.9632
8.2098 3.8956 -2.3528 0.9631
8.0494 4.2246 -2.3537 0.9631
7.6853 4.8599 -2.3543 0.9631
7.4834 5.1654 -2.3543 0.9631
7.2693 5.4625 -2.3543 0.9631
6.7744 6.0016 -2.3434 0.9633
6.1933 5.9487 -2.2234 0.9651
2.6501 2.9914 -1.0347 0.9836
2.4473 2.9974 -1.0019 0.9841
3.9281 5.6908 -1.7904 0.9718
3.6570 5.7830 -1.7716 0.9721
3.4209 5.9251 -1.7715 0.9721
3.1285 5.9607 -1.7430 0.9726
2.1917 5.7789 -1.6002 0.9748
1.9188 5.7474 -1.5689 0.9753
1.6569 5.7200 -1.5419 0.9757
1.1465 5.6160 -1.4841 0.9766
0.6990 5.7561 -1.5013 0.9763
0.4515 5.5927 -1.4528 0.9771
-0.2306 5.7225 -1.4829 0.9766
-0.9001 5.5388 -1.4529 0.9771
-1.1164 5.4686 -1.4451 0.9772
-1.3271 5.3844 -1.4358 0.9773
-1.5888 5.4851 -1.4786 0.9767
-1.7911 5.3651 -1.4645 0.9769
-2.0446 5.3913 -1.4929 0.9765
-2.4060 5.6470 -1.5893 0.9750
-2.5861 5.4501 -1.5619 0.9754
-3.6943 5.3521 -1.6838 0.9735
-5.0931 5.3024 -1.9036 0.9701
-5.4978 5.2806 -1.9737 0.9690
-6.3578 5.1909 -2.1251 0.9667
-3.0944 2.3253 -1.0022 0.9841
-7.5891 5.2383 -2.3876 0.9626
-7.9740 4.6038 -2.3840 0.9627
-8.1460 4.2754 -2.3820 0.9627
-8.3057 3.9411 -2.3803 0.9627
-8.4520 3.6010 -2.3787 0.9628
-8.5830 3.2551 -2.3767 0.9628
-8.7959 2.5478 -2.3710 0.9629
-9.5716 1.9540 -2.5294 0.9604
-9.6494 1.5682 -2.5312 0.9604
-9.7098 1.1789 -2.5325 0.9604
-8.8917 0.0000 -2.5172 0.9637
-8.8246 -1.0716 -2.5165 0.9637
-8.7033 -1.7768 -2.5147 0.9637
-8.6201 -2.1247 -2.5133 0.9638
-8.4129 -2.8088 -2.5109 0.9638
-7.9978 -3.7950 -2.5061 0.9639
-7.8339 -4.1115 -2.5046 0.9639
-7.6613 -4.4233 -2.5044 0.9639
-6.8500 -5.5929 -2.5035 0.9639
-6.1241 -6.3759 -2.5027 0.9639
-5.8619 -6.6167 -2.5025 0.9639
-5.5901 -6.8466 -2.5022 0.9639
-4.7225 -7.4681 -2.5014 0.9639
-4.4180 -7.6522 -2.5014 0.9639
-4.1063 -7.8238 -2.5014 0.9639
-3.4634 -8.1289 -2.5014 0.9639
-3.1333 -8.2618 -2.5014 0.9639
-2.7981 -8.3812 -2.5014 0.9639
-2.4583 -8.4871 -2.5014 0.9639
-1.7674 -8.6574 -2.5014 0.9639
-0.7110 -8.8073 -2.5014 0.9639
-0.3558 -8.8288 -2.5014 0.9639
0.0000 -8.8360 -2.5014 0.9639
0.3558 -8.8288 -2.5014 0.9639
0.7110 -8.8073 -2.5014 0.9639
1.0651 -8.7715 -2.5014 0.9639
1.7674 -8.6574 -2.5014 0.9639
2.1146 -8.5792 -2.5014 0.9639
2.7981 -8.3812 -2.5014 0.9639
3.7879 -7.9829 -2.5014 0.9639
4.1063 -7.8239 -2.5014 0.9639
4.4180 -7.6522 -2.5014 0.9639
4.7225 -7.4681 -2.5014 0.9639
5.5883 -6.8444 -2.5014 0.9639
5.8593 -6.6138 -2.5014 0.9639
6.1209 -6.3725 -2.5014 0.9639
6.3725 -6.1209 -2.5014 0.9639
7.2719 -5.0194 -2.5014 0.9639
7.4680 -4.7225 -2.5014 0.9639
7.8238 -4.1063 -2.5014 0.9639
7.9828 -3.7879 -2.5014 0.9639
8.1289 -3.4634 -2.5014 0.9639
8.3812 -2.7981 -2.5014 0.9639
8.5792 -2.1146 -2.5014 0.9639
8.6574 -1.7674 -2.5014 0.9639
8.3976 -0.6779 -2.3850 0.9656
8.8360 0.0000 -2.5014 0.9639
8.8288 0.3558 -2.5014 0.9639
8.6574 1.7674 -2.5014 0.9639
7.9700 2.3085 -2.3490 0.9661
7.8724 2.6282 -2.3495 0.9661
7.7631 2.9441 -2.3504 0.9661
7.2005 4.1572 -2.3538 0.9660
7.0290 4.4449 -2.3543 0.9660
6.4420 5.2597 -2.3543 0.9660
6.2250 5.5148 -2.3543 0.9660
4.0097 5.8090 -1.9982 0.9711
3.4270 5.9357 -1.9403 0.9719
2.1312 5.6193 -1.7014 0.9753
1.9021 5.6974 -1.7004 0.9753
1.3878 5.6303 -1.6416 0.9762
1.1471 5.6188 -1.6235 0.9764
0.9369 5.7646 -1.6534 0.9760
0.7060 5.8137 -1.6579 0.9759
0.4532 5.6128 -1.5941 0.9769
0.2194 5.4442 -1.5425 0.9776
0.0000 5.3750 -1.5216 0.9779
-0.6773 5.5779 -1.5907 0.9769
-0.9037 5.5607 -1.5948 0.9769
-1.1058 5.4170 -1.5651 0.9773
-1.8034 5.4019 -1.6122 0.9766
-2.0248 5.3390 -1.6165 0.9765
-2.6158 5.5127 -1.7274 0.9750
-2.8026 5.3398 -1.7072 0.9752
-3.0387 5.2632 -1.7205 0.9751
-3.7152 5.3824 -1.8515 0.9732
-3.9370 5.2391 -1.8552 0.9731
-4.9212 5.5549 -2.1009 0.9696
-5.0880 5.2971 -2.0793 0.9699
-6.2177 5.5084 -2.3516 0.9661
-6.3222 5.1619 -2.3105 0.9666
-3.0944 2.3253 -1.0958 0.9840
-7.2201 4.1685 -2.3602 0.9659
-7.3828 3.8748 -2.3604 0.9659
-7.7893 2.9541 -2.3583 0.9660
-7.9957 2.3160 -2.3566 0.9660
-8.7659 1.4246 -2.5141 0.9638
-8.8201 1.0709 -2.5152 0.9637
-8.8593 0.7152 -2.5162 0.9637
-7.9089 -1.9494 -2.5054 0.9665
-7.8235 -2.2661 -2.5052 0.9665
-7.7254 -2.5791 -2.5051 0.9665
-7.6147 -2.8879 -2.5049 0.9665
-7.4917 -3.1919 -2.5047 0.9665
-7.3565 -3.4908 -2.5045 0.9665
-7.2095 -3.7838 -2.5043 0.9665
-7.0507 -4.0707 -2.5041 0.9665
-6.3042 -5.1473 -2.5033 0.9665
-6.0913 -5.3964 -2.5031 0.9665
-4.6198 -6.6930 -2.5014 0.9665
-3.4864 -7.3474 -2.5014 0.9665
-3.1877 -7.4818 -2.5014 0.9665
-2.8838 -7.6041 -2.5014 0.9665
-1.9463 -7.8962 -2.5014 0.9665
-1.6267 -7.9682 -2.5014 0.9665
-0.9803 -8.0733 -2.5014 0.9665
-0.3275 -8.1259 -2.5014 0.9665
0.9803 -8.0733 -2.5014 0.9665
1.3046 -8.0272 -2.5014 0.9665
1.6267 -7.9682 -2.5014 0.9665
1.9462 -7.8962 -2.5014 0.9665
2.8838 -7.6041 -2.5014 0.9665
3.4864 -7.3474 -2.5014 0.9665
3.7794 -7.2010 -2.5014 0.9665
4.0663 -7.0430 -2.5014 0.9665
4.8856 -6.5015 -2.5014 0.9665
5.3929 -6.0873 -2.5014 0.9665
5.6336 -5.8652 -2.5014 0.9665
6.2995 -5.1434 -2.5014 0.9665
6.5015 -4.8856 -2.5014 0.9665
6.8735 -4.3466 -2.5014 0.9665
7.0430 -4.0663 -2.5014 0.9665
7.7140 -2.5753 -2.5014 0.9665
7.9682 -1.6267 -2.5014 0.9665
8.0732 -0.9803 -2.5014 0.9665
8.1062 -0.6544 -2.5014 0.9665
8.1062 0.6544 -2.5014 0.9665
8.0272 1.3046 -2.5014 0.9665
7.2444 2.4185 -2.3491 0.9685
7.1436 2.7092 -2.3499 0.9685
7.0311 2.9957 -2.3507 0.9685
6.6252 3.8250 -2.3530 0.9685
5.7294 5.0758 -2.3543 0.9685
5.5204 5.3024 -2.3543 0.9685
2.6483 2.9893 -1.2284 0.9834
2.4461 2.9959 -1.1896 0.9839
4.0125 5.8130 -2.1726 0.9709
3.6720 5.8067 -2.1132 0.9717
3.4036 5.8952 -2.0938 0.9719
2.3882 5.6052 -1.8740 0.9748
2.1654 5.7095 -1.8782 0.9748
1.6564 5.7186 -1.8312 0.9754
0.9158 5.6348 -1.7559 0.9764
0.2215 5.4940 -1.6912 0.9773
-0.6825 5.6208 -1.7415 0.9766
-1.1207 5.4895 -1.7233 0.9768
-1.3560 5.5016 -1.7428 0.9766
-1.5841 5.4691 -1.7513 0.9765
-1.7948 5.3761 -1.7433 0.9766
-2.6090 5.4983 -1.8719 0.9749
-2.8135 5.3607 -1.8621 0.9750
-3.5264 5.5766 -2.0294 0.9728
-3.7476 5.4293 -2.0291 0.9728
-5.1077 5.3176 -2.2679 0.9696
-5.7294 5.0758 -2.3543 0.9685
-5.9291 4.8410 -2.3543 0.9685
-6.2995 4.3482 -2.3543 0.9685
-6.6139 3.8185 -2.3490 0.9685
-6.8997 3.2740 -2.3490 0.9685
-7.1415 2.7084 -2.3492 0.9685
-7.3367 2.1251 -2.3494 0.9685
-7.9795 1.6290 -2.5050 0.9665
-8.0367 1.3061 -2.5043 0.9665
-8.0863 0.9819 -2.5055 0.9665
-8.1226 0.6557 -2.5065 0.9665
-8.1421 0.3281 -2.5064 0.9665
-7.5297 -0.0000 -2.5029 0.9688
-7.5255 -0.3033 -2.5035 0.9688
-7.4817 -0.9085 -2.5052 0.9687
-7.4395 -1.2090 -2.5054 0.9687
-7.3844 -1.5075 -2.5052 0.9687
-7.1475 -2.3862 -2.5048 0.9687
-6.9314 -2.9532 -2.5044 0.9687
-6.6703 -3.5009 -2.5041 0.9687
-6.5235 -3.7663 -2.5039 0.9687
-6.3654 -4.0253 -2.5035 0.9688
-6.0166 -4.5212 -2.5017 0.9688
-5.2128 -5.4272 -2.5014 0.9688
-4.9901 -5.6327 -2.5014 0.9688
-4.7592 -5.8290 -2.5014 0.9688
-3.7626 -6.5170 -2.5014 0.9688
-3.4971 -6.6632 -2.5014 0.9688
-3.2260 -6.7986 -2.5014 0.9688
-2.9496 -6.9230 -2.5014 0.9688
-2.6685 -7.0361 -2.5014 0.9688
-2.3830 -7.1379 -2.5014 0.9688
-2.0936 -7.2280 -2.5014 0.9688
-1.8009 -7.3065 -2.5014 0.9688
-0.9071 -7.4703 -2.5014 0.9688
-0.0000 -7.5251 -2.5014 0.9688
1.5052 -7.3731 -2.5014 0.9688
1.8009 -7.3065 -2.5014 0.9688
2.0936 -7.2280 -2.5014 0.9688
2.3830 -7.1379 -2.5014 0.9688
2.6684 -7.0361 -2.5014 0.9688
2.9496 -6.9230 -2.5014 0.9688
3.2260 -6.7986 -2.5014 0.9688
3.4971 -6.6632 -2.5014 0.9688
4.2748 -6.1931 -2.5014 0.9688
5.2128 -5.4272 -2.5014 0.9688
5.4271 -5.2129 -2.5014 0.9688
5.6326 -4.9901 -2.5014 0.9688
5.8290 -4.7592 -2.5014 0.9688
6.0159 -4.5207 -2.5014 0.9688
6.3602 -4.0219 -2.5014 0.9688
6.6632 -3.4971 -2.5014 0.9688
6.7986 -3.2260 -2.5014 0.9688
6.9230 -2.9496 -2.5014 0.9688
7.0361 -2.6685 -2.5014 0.9688
7.2280 -2.0936 -2.5014 0.9688
7.3065 -1.8009 -2.5014 0.9688
7.3730 -1.5052 -2.5014 0.9688
7.4277 -1.2071 -2.5014 0.9688
7.4703 -0.9071 -2.5014 0.9688
7.5007 -0.6055 -2.5014 0.9688
7.5190 -0.3030 -2.5014 0.9688
7.5190 0.3030 -2.5014 0.9688
7.4703 0.9071 -2.5014 0.9688
7.4277 1.2071 -2.5014 0.9688
6.7030 2.2378 -2.3490 0.9707
6.6089 2.5064 -2.3495 0.9706
6.3897 3.0319 -2.3509 0.9706
6.2643 3.2877 -2.3517 0.9706
6.1286 3.5383 -2.3523 0.9706
5.4863 4.4794 -2.3543 0.9706
5.3015 4.6967 -2.3543 0.9706
5.1081 4.9064 -2.3543 0.9706
2.4454 2.9951 -1.2853 0.9838
2.3547 3.1335 -1.3029 0.9836
3.7299 5.8983 -2.3198 0.9710
3.4096 5.9056 -2.2668 0.9717
3.1942 6.0860 -2.2848 0.9714
2.1777 5.7421 -2.0414 0.9744
1.9331 5.7902 -2.0291 0.9746
1.6483 5.6906 -1.9694 0.9753
1.3931 5.6521 -1.9350 0.9758
1.1400 5.5840 -1.8945 0.9763
0.6915 5.6946 -1.9068 0.9761
0.4536 5.6185 -1.8737 0.9765
0.2230 5.5316 -1.8402 0.9769
0.0000 5.4353 -1.8067 0.9773
-0.4592 5.6888 -1.8972 0.9762
-0.6735 5.5474 -1.8575 0.9767
-1.6007 5.5263 -1.9125 0.9760
-1.8061 5.4099 -1.8959 0.9762
-2.0882 5.5061 -1.9575 0.9755
-2.6164 5.5139 -2.0287 0.9746
-2.8209 5.3748 -2.0177 0.9747
-3.0705 5.3182 -2.0413 0.9744
-3.7703 5.4622 -2.2062 0.9724
-3.9985 5.3210 -2.2125 0.9723
-4.4794 5.4863 -2.3543 0.9706
-4.6967 5.3015 -2.3543 0.9706
-4.9064 5.1080 -2.3543 0.9706
-5.1081 4.9064 -2.3543 0.9706
-5.3015 4.6967 -2.3543 0.9706
-3.0944 2.3253 -1.2866 0.9838
-6.1337 3.5413 -2.3543 0.9706
-6.2695 3.2905 -2.3536 0.9706
-6.3844 3.0294 -2.3490 0.9707
-6.6074 2.5059 -2.3490 0.9707
-6.7030 2.2378 -2.3490 0.9707
-6.7876 1.9661 -2.3490 0.9707
-6.8613 1.6912 -2.3490 0.9707
-7.0128 1.4317 -2.3792 0.9703
-7.4280 1.2072 -2.5015 0.9688
-7.4709 0.9071 -2.5016 0.9688
-7.5021 0.6056 -2.5018 0.9688
-6.9948 0.0000 -2.5014 0.9707
-6.9891 -0.2817 -2.5014 0.9707
-6.9441 -0.8432 -2.5015 0.9707
-6.8541 -1.3993 -2.5016 0.9707
-6.6354 -2.2152 -2.5016 0.9707
-6.4354 -2.7419 -2.5015 0.9707
-6.3195 -2.9986 -2.5014 0.9707
-6.0577 -3.4974 -2.5014 0.9707
-5.5919 -4.2021 -2.5014 0.9707
-5.4182 -4.4238 -2.5014 0.9707
-4.8455 -5.0447 -2.5014 0.9707
-3.9735 -5.7566 -2.5014 0.9707
-3.7385 -5.9120 -2.5014 0.9707
-3.4974 -6.0577 -2.5014 0.9707
-3.2507 -6.1936 -2.5014 0.9707
-2.9986 -6.3195 -2.5014 0.9707
-2.7417 -6.4351 -2.5014 0.9707
-2.4804 -6.5403 -2.5014 0.9707
-2.2150 -6.6348 -2.5014 0.9707
-1.9461 -6.7186 -2.5014 0.9707
-1.6740 -6.7916 -2.5014 0.9707
-1.1221 -6.9042 -2.5014 0.9707
-0.8431 -6.9438 -2.5014 0.9707
-0.2817 -6.9892 -2.5014 0.9707
0.2817 -6.9891 -2.5014 0.9707
0.8431 -6.9438 -2.5014 0.9707
1.3991 -6.8535 -2.5014 0.9707
1.9461 -6.7187 -2.5014 0.9707
2.2150 -6.6348 -2.5014 0.9707
2.9986 -6.3195 -2.5014 0.9707
3.4974 -6.0577 -2.5014 0.9707
4.2021 -5.5920 -2.5014 0.9707
4.4238 -5.4182 -2.5014 0.9707
4.6384 -5.2357 -2.5014 0.9707
4.8455 -5.0447 -2.5014 0.9707
5.2357 -4.6384 -2.5014 0.9707
5.4182 -4.4238 -2.5014 0.9707
6.0577 -3.4974 -2.5014 0.9707
6.1936 -3.2507 -2.5014 0.9707
6.3195 -2.9986 -2.5014 0.9707
6.4351 -2.7417 -2.5014 0.9707
6.5403 -2.4804 -2.5014 0.9707
6.6348 -2.2150 -2.5014 0.9707
6.8535 -1.3992 -2.5014 0.9707
6.9042 -1.1221 -2.5014 0.9707
6.9438 -0.8431 -2.5014 0.9707
6.9948 0.0000 -2.5014 0.9707
6.9891 0.2816 -2.5014 0.9707
6.9042 1.1220 -2.5014 0.9707
6.8534 1.3991 -2.5014 0.9707
6.3565 2.1221 -2.3965 0.9719
6.1421 2.3294 -2.3491 0.9725
5.9382 2.8177 -2.3505 0.9725
5.8215 3.0554 -2.3511 0.9725
5.5598 3.5158 -2.3524 0.9724
5.4152 3.7378 -2.3530 0.9724
4.5606 4.7481 -2.3543 0.9724
2.6464 2.9872 -1.4272 0.9832
2.4448 2.9943 -1.3824 0.9837
3.7399 5.4182 -2.3543 0.9724
3.5187 5.5643 -2.3543 0.9724
3.2918 5.7015 -2.3543 0.9724
3.0595 5.8294 -2.3543 0.9724
2.8050 5.9114 -2.3399 0.9726
2.3653 5.5515 -2.1580 0.9747
2.1841 5.7588 -2.2025 0.9742
2.0005 5.9920 -2.2591 0.9735
1.6513 5.7009 -2.1225 0.9751
1.1504 5.6348 -2.0566 0.9759
0.2241 5.5594 -1.9897 0.9766
0.0000 5.5262 -1.9762 0.9768
-0.2348 5.8270 -2.0855 0.9755
-1.5861 5.4758 -2.0387 0.9761
-2.4172 5.6734 -2.2053 0.9741
-2.8294 5.3909 -2.1772 0.9745
-3.5187 5.5644 -2.3543 0.9724
-3.7399 5.4182 -2.3543 0.9724
-4.5606 4.7481 -2.3543 0.9724
-5.0997 4.1637 -2.3543 0.9724
-5.5640 3.5184 -2.3542 0.9724
-5.8261 3.0577 -2.3530 0.9724
-6.2343 2.0813 -2.3504 0.9725
-6.3093 1.8275 -2.3490 0.9725
-6.3778 1.5720 -2.3490 0.9725
-6.7856 1.3853 -2.4766 0.9710
-6.9721 0.5628 -2.5014 0.9707
-6.9891 0.2817 -2.5014 0.9707
-3.5504 0.0000 -1.3606 0.9849
-3.5589 -0.1434 -1.3649 0.9849
-3.5921 -0.4362 -1.3867 0.9846
-6.3377 -1.5621 -2.5014 0.9724
-6.2696 -1.8160 -2.5014 0.9724
-6.1032 -2.3146 -2.5014 0.9724
-6.0050 -2.5585 -2.5014 0.9724
-5.8971 -2.7982 -2.5014 0.9724
-5.6528 -3.2637 -2.5014 0.9724
-5.5168 -3.4887 -2.5014 0.9724
-3.7079 -5.3719 -2.5014 0.9724
-3.4886 -5.5169 -2.5014 0.9724
-2.5585 -6.0050 -2.5014 0.9724
-1.8160 -6.2696 -2.5014 0.9724
-1.3056 -6.3954 -2.5014 0.9724
-0.5252 -6.5062 -2.5014 0.9724
-0.0000 -6.5273 -2.5014 0.9724
0.5252 -6.5062 -2.5014 0.9724
1.3056 -6.3954 -2.5014 0.9724
2.3146 -6.1032 -2.5014 0.9724
2.5585 -6.0050 -2.5014 0.9724
2.7982 -5.8971 -2.5014 0.9724
3.4886 -5.5168 -2.5014 0.9724
4.3284 -4.8858 -2.5014 0.9724
4.8858 -4.3284 -2.5014 0.9724
5.0561 -4.1282 -2.5014 0.9724
5.3719 -3.7080 -2.5014 0.9724
5.8971 -2.7982 -2.5014 0.9724
6.0050 -2.5585 -2.5014 0.9724
6.1914 -2.0670 -2.5014 0.9724
6.4428 -1.0471 -2.5014 0.9724
6.4797 -0.7868 -2.5014 0.9724
6.5062 -0.5252 -2.5014 0.9724
6.5220 -0.2628 -2.5014 0.9724
6.5273 -0.0000 -2.5014 0.9724
6.5062 0.5252 -2.5014 0.9724
6.4798 0.7868 -2.5014 0.9724
6.3377 1.5621 -2.5014 0.9724
6.1914 2.0670 -2.5014 0.9724
5.7313 2.1736 -2.3490 0.9741
5.5403 2.6289 -2.3501 0.9741
5.3136 3.0678 -2.3513 0.9741
5.1871 3.2801 -2.3519 0.9741
4.9087 3.6886 -2.3530 0.9740
4.2558 4.4308 -2.3543 0.9740
2.3534 3.1319 -1.5013 0.9834
3.2835 5.1925 -2.3543 0.9740
3.0718 5.3205 -2.3543 0.9740
2.8551 5.4399 -2.3543 0.9740
2.1785 5.7443 -2.3543 0.9740
1.6624 5.7391 -2.2898 0.9747
0.9052 5.5699 -2.1625 0.9761
0.2226 5.5219 -2.1178 0.9766
0.0000 5.4103 -2.0733 0.9771
-0.4614 5.7158 -2.1975 0.9757
-1.1137 5.4553 -2.1337 0.9764
-1.5907 5.4918 -2.1911 0.9758
-1.8167 5.4415 -2.1984 0.9757
-2.8551 5.4399 -2.3543 0.9740
-3.0718 5.3205 -2.3543 0.9740
-3.2835 5.1925 -2.3543 0.9740
-3.4900 5.0561 -2.3543 0.9740
-3.8855 4.7588 -2.3543 0.9740
-4.0739 4.5985 -2.3543 0.9740
-4.2558 4.4308 -2.3543 0.9740
-4.4308 4.2558 -2.3543 0.9740
-4.7588 3.8855 -2.3543 0.9740
-3.0944 2.3253 -1.4833 0.9836
-5.0554 3.4895 -2.3540 0.9740
-5.1906 3.2824 -2.3535 0.9740
-5.3173 3.0700 -2.3529 0.9740
-5.4353 2.8527 -2.3524 0.9740
-5.5444 2.6308 -2.3518 0.9741
-5.8167 1.9419 -2.3500 0.9741
-6.3954 1.3056 -2.5014 0.9724
-6.4428 1.0471 -2.5014 0.9724
-3.5921 0.4362 -1.3867 0.9846
-3.5687 0.2881 -1.3720 0.9848
-3.5589 0.1434 -1.3649 0.9849
-2.8160 -0.0000 -1.1525 0.9879
-2.8203 -0.1137 -1.1552 0.9879
-2.8096 -0.2268 -1.1536 0.9879
-2.9323 -0.3561 -1.2089 0.9873
-3.0246 -0.4915 -1.2541 0.9868
-5.9342 -1.4626 -2.5014 0.9739
-5.8705 -1.7004 -2.5014 0.9739
-5.6227 -2.3956 -2.5014 0.9739
-5.5217 -2.6201 -2.5014 0.9739
-5.2930 -3.0559 -2.5014 0.9739
-5.0299 -3.4719 -2.5014 0.9739
-4.8860 -3.6716 -2.5014 0.9739
-4.5747 -4.0528 -2.5014 0.9739
-4.4078 -4.2338 -2.5014 0.9739
-3.8654 -4.7342 -2.5014 0.9739
-3.4719 -5.0299 -2.5014 0.9739
-3.2665 -5.1656 -2.5014 0.9739
-2.8403 -5.4117 -2.5014 0.9739
-2.3956 -5.6227 -2.5014 0.9739
-2.1673 -5.7146 -2.5014 0.9739
-1.7004 -5.8705 -2.5014 0.9739
-1.4626 -5.9342 -2.5014 0.9739
-1.2225 -5.9883 -2.5014 0.9739
-0.7367 -6.0672 -2.5014 0.9739
-0.4918 -6.0920 -2.5014 0.9739
0.4918 -6.0920 -2.5014 0.9739
0.7367 -6.0672 -2.5014 0.9739
0.9804 -6.0326 -2.5014 0.9739
1.2225 -5.9883 -2.5014 0.9739
3.2665 -5.1656 -2.5014 0.9739
3.4719 -5.0299 -2.5014 0.9739
4.2338 -4.4078 -2.5014 0.9739
4.4078 -4.2338 -2.5014 0.9739
4.5747 -4.0529 -2.5014 0.9739
5.4117 -2.8403 -2.5014 0.9739
5.5217 -2.6201 -2.5014 0.9739
5.6227 -2.3956 -2.5014 0.9739
5.7146 -2.1673 -2.5014 0.9739
5.7972 -1.9354 -2.5014 0.9739
6.0672 -0.7367 -2.5014 0.9739
6.1068 -0.2461 -2.5014 0.9739
6.0326 0.9804 -2.5014 0.9739
5.9883 1.2225 -2.5014 0.9739
5.9342 1.4626 -2.5014 0.9739
5.8705 1.7004 -2.5014 0.9739
5.7972 1.9354 -2.5014 0.9739
5.4057 2.0501 -2.3662 0.9753
5.2804 2.2498 -2.3491 0.9755
5.0847 2.6687 -2.3503 0.9755
4.5951 3.4530 -2.3524 0.9755
4.4533 3.6360 -2.3530 0.9755
4.1480 3.9842 -2.3539 0.9754
3.9849 4.1487 -2.3543 0.9754
2.6445 2.9851 -1.6322 0.9829
2.4435 2.9927 -1.5812 0.9834
3.2678 4.7342 -2.3543 0.9754
2.6733 5.0935 -2.3543 0.9754
2.0398 5.3786 -2.3543 0.9754
1.6004 5.5253 -2.3543 0.9754
1.1506 5.6362 -2.3543 0.9754
0.9228 5.6779 -2.3543 0.9754
0.4629 5.7338 -2.3543 0.9754
-0.2316 5.7478 -2.3543 0.9754
-0.4629 5.7338 -2.3543 0.9754
-0.6888 5.6729 -2.3389 0.9756
-0.9075 5.5845 -2.3156 0.9758
-1.3766 5.5853 -2.3543 0.9754
-1.8216 5.4564 -2.3543 0.9754
-2.0398 5.3786 -2.3543 0.9754
-2.6733 5.0935 -2.3543 0.9754
-3.0745 4.8619 -2.3543 0.9754
-3.2678 4.7342 -2.3543 0.9754
-3.4557 4.5987 -2.3543 0.9754
-3.8146 4.3058 -2.3543 0.9754
-3.9849 4.1487 -2.3543 0.9754
-4.4559 3.6381 -2.3543 0.9754
-3.0944 2.3253 -1.5842 0.9834
-4.7323 3.2665 -2.3534 0.9755
-4.8589 3.0726 -2.3529 0.9755
-5.1904 2.4629 -2.3513 0.9755
-5.5129 1.5968 -2.3490 0.9755
-5.6906 1.4026 -2.3987 0.9750
-3.0070 0.6139 -1.2561 0.9868
-2.8096 0.2268 -1.1536 0.9879
-2.8203 0.1137 -1.1552 0.9879
-2.3650 -0.0000 -1.0307 0.9897
-2.3670 -0.0954 -1.0324 0.9897
-2.3794 -0.2889 -1.0446 0.9896
-2.4021 -0.3904 -1.0606 0.9894
-5.5130 -1.5968 -2.5014 0.9753
-5.3666 -2.0353 -2.5014 0.9753
-5.2803 -2.2497 -2.5014 0.9753
-5.1854 -2.4605 -2.5014 0.9753
-5.0821 -2.6673 -2.5014 0.9753
-4.8510 -3.0676 -2.5014 0.9753
-4.5884 -3.4480 -2.5014 0.9753
-4.4459 -3.6300 -2.5014 0.9753
-4.2961 -3.8060 -2.5014 0.9753
-3.4480 -4.5885 -2.5014 0.9753
-3.2604 -4.7236 -2.5014 0.9753
-3.0676 -4.8510 -2.5014 0.9753
-2.6673 -5.0821 -2.5014 0.9753
-2.4605 -5.1854 -2.5014 0.9753
-2.2497 -5.2803 -2.5014 0.9753
-1.8175 -5.4442 -2.5014 0.9753
-1.3736 -5.5728 -2.5014 0.9753
-1.1481 -5.6236 -2.5014 0.9753
-0.9207 -5.6652 -2.5014 0.9753
-0.4618 -5.7209 -2.5014 0.9753
0.9207 -5.6652 -2.5014 0.9753
1.8175 -5.4442 -2.5014 0.9753
2.0353 -5.3666 -2.5014 0.9753
2.2497 -5.2803 -2.5014 0.9753
2.6673 -5.0821 -2.5014 0.9753
2.8698 -4.9706 -2.5014 0.9753
3.0676 -4.8510 -2.5014 0.9753
3.2604 -4.7236 -2.5014 0.9753
3.4480 -4.5884 -2.5014 0.9753
4.1394 -3.9759 -2.5014 0.9753
4.2961 -3.8060 -2.5014 0.9753
4.5884 -3.4480 -2.5014 0.9753
4.8510 -3.0676 -2.5014 0.9753
5.0821 -2.6673 -2.5014 0.9753
5.2803 -2.2497 -2.5014 0.9753
5.4442 -1.8175 -2.5014 0.9753
5.6236 -1.1481 -2.5014 0.9753
5.6652 -0.9207 -2.5014 0.9753
5.6977 -0.6918 -2.5014 0.9753
5.7209 -0.4618 -2.5014 0.9753
5.7349 -0.2311 -2.5014 0.9753
5.7209 0.4618 -2.5014 0.9753
5.6977 0.6918 -2.5014 0.9753
5.6652 0.9207 -2.5014 0.9753
5.4442 1.8175 -2.5014 0.9753
4.9586 2.1126 -2.3490 0.9768
4.7743 2.5057 -2.3499 0.9767
4.6706 2.6966 -2.3504 0.9767
4.4404 3.0650 -2.3514 0.9767
4.1811 3.4138 -2.3524 0.9767
4.0411 3.5800 -2.3529 0.9767
3.8944 3.7406 -2.3533 0.9767
3.0687 4.4458 -2.3543 0.9767
2.8872 4.5658 -2.3543 0.9767
2.1174 4.9698 -2.3543 0.9767
1.9156 5.0510 -2.3543 0.9767
1.7107 5.1241 -2.3543 0.9767
1.2928 5.2451 -2.3543 0.9767
1.0806 5.2929 -2.3543 0.9767
0.8666 5.3321 -2.3543 0.9767
0.6512 5.3627 -2.3543 0.9767
-0.2175 5.3977 -2.3543 0.9767
-0.4347 5.3846 -2.3543 0.9767
-0.8666 5.3321 -2.3543 0.9767
-1.0806 5.2929 -2.3543 0.9767
-1.2928 5.2451 -2.3543 0.9767
-1.5030 5.1888 -2.3543 0.9767
-1.9156 5.0511 -2.3543 0.9767
-2.1174 4.9698 -2.3543 0.9767
-2.3158 4.8805 -2.3543 0.9767
-2.5105 4.7833 -2.3543 0.9767
-2.7011 4.6784 -2.3543 0.9767
-3.5823 4.0435 -2.3543 0.9767
-3.8960 3.7422 -2.3543 0.9767
-4.1834 3.4157 -2.3537 0.9767
-3.0944 2.3253 -1.6869 0.9833
-4.8734 2.3124 -2.3509 0.9767
-5.1771 1.4996 -2.3490 0.9768
-5.5728 1.3736 -2.5014 0.9753
-2.4207 0.4942 -1.0767 0.9893
-2.3794 0.2889 -1.0446 0.9896
-2.2030 -0.0000 -1.0198 0.9903
-2.2080 -0.2681 -1.0295 0.9902
-2.2302 -0.3625 -1.0459 0.9901
-2.3852 -0.5879 -1.1371 0.9892
-4.9715 -2.1182 -2.5014 0.9765
-4.8822 -2.3166 -2.5014 0.9765
-4.7849 -2.5113 -2.5014 0.9765
-4.6799 -2.7020 -2.5014 0.9765
-4.5673 -2.8882 -2.5014 0.9765
-4.0449 -3.5835 -2.5014 0.9765
-3.4177 -4.1859 -2.5014 0.9765
-3.2464 -4.3201 -2.5014 0.9765
-3.0698 -4.4473 -2.5014 0.9765
-2.8882 -4.5674 -2.5014 0.9765
-2.3166 -4.8822 -2.5014 0.9765
-2.1182 -4.9715 -2.5014 0.9765
-1.7112 -5.1258 -2.5014 0.9765
-1.5035 -5.1906 -2.5014 0.9765
-1.2932 -5.2469 -2.5014 0.9765
-1.0809 -5.2947 -2.5014 0.9765
-0.8669 -5.3340 -2.5014 0.9765
-0.4348 -5.3864 -2.5014 0.9765
0.0000 -5.4039 -2.5014 0.9765
0.2176 -5.3996 -2.5014 0.9765
0.4348 -5.3864 -2.5014 0.9765
0.6514 -5.3645 -2.5014 0.9765
0.8668 -5.3339 -2.5014 0.9765
1.0809 -5.2947 -2.5014 0.9765
1.5035 -5.1906 -2.5014 0.9765
1.9163 -5.0528 -2.5014 0.9765
2.5113 -4.7849 -2.5014 0.9765
2.7020 -4.6800 -2.5014 0.9765
3.8973 -3.7434 -2.5014 0.9765
4.1859 -3.4177 -2.5014 0.9765
4.6799 -2.7020 -2.5014 0.9765
5.0528 -1.9162 -2.5014 0.9765
5.2469 -1.2933 -2.5014 0.9765
5.2947 -1.0809 -2.5014 0.9765
5.3339 -0.8669 -2.5014 0.9765
5.3864 -0.4349 -2.5014 0.9765
5.4039 -0.0000 -2.5014 0.9765
5.3645 0.6514 -2.5014 0.9765
5.3339 0.8668 -2.5014 0.9765
5.2947 1.0809 -2.5014 0.9765
5.1906 1.5035 -2.5014 0.9765
5.0528 1.9162 -2.5014 0.9765
4.6940 1.9999 -2.3618 0.9778
3.8039 3.3700 -2.3524 0.9778
3.5217 3.6665 -2.3532 0.9778
2.6425 2.9828 -1.8446 0.9826
2.4421 2.9910 -1.7874 0.9831
2.7184 4.2988 -2.3543 0.9778
2.5431 4.4048 -2.3543 0.9778
2.3637 4.5036 -2.3543 0.9778
2.1804 4.5951 -2.3543 0.9778
1.9936 4.6792 -2.3543 0.9778
1.8036 4.7557 -2.3543 0.9778
1.6106 4.8244 -2.3543 0.9778
1.4151 4.8854 -2.3543 0.9778
1.2172 4.9384 -2.3543 0.9778
0.8159 5.0203 -2.3543 0.9778
-0.0000 5.0862 -2.3543 0.9778
-0.4093 5.0697 -2.3543 0.9778
-0.6131 5.0491 -2.3543 0.9778
-1.0174 4.9834 -2.3543 0.9778
-1.2172 4.9384 -2.3543 0.9778
-1.4151 4.8854 -2.3543 0.9778
-1.6106 4.8244 -2.3543 0.9778
-1.9936 4.6792 -2.3543 0.9778
-2.1804 4.5951 -2.3543 0.9778
-2.7184 4.2988 -2.3543 0.9778
-2.8893 4.1859 -2.3543 0.9778
-3.0555 4.0661 -2.3543 0.9778
-3.5233 3.6682 -2.3543 0.9778
-3.9379 3.2151 -2.3532 0.9778
-4.1823 2.8868 -2.3523 0.9778
-4.3993 2.5400 -2.3514 0.9779
-4.5876 2.1769 -2.3505 0.9779
-4.7459 1.7999 -2.3495 0.9779
-2.3850 0.5879 -1.1370 0.9892
-2.2302 0.3624 -1.0459 0.9901
-2.2008 0.1777 -1.0220 0.9903
-2.0750 -0.3372 -1.0312 0.9907
-4.8370 -1.6148 -2.5014 0.9775
-4.6914 -1.9988 -2.5014 0.9775
-4.6071 -2.1861 -2.5014 0.9775
-4.4162 -2.5497 -2.5014 0.9775
-4.3100 -2.7255 -2.5014 0.9775
-3.8170 -3.3816 -2.5014 0.9775
-3.2251 -3.9501 -2.5014 0.9775
-2.8968 -4.1968 -2.5014 0.9775
-2.3698 -4.5153 -2.5014 0.9775
-2.1861 -4.6071 -2.5014 0.9775
-1.9988 -4.6914 -2.5014 0.9775
-1.4188 -4.8981 -2.5014 0.9775
-1.2204 -4.9513 -2.5014 0.9775
-0.8180 -5.0334 -2.5014 0.9775
-0.6147 -5.0623 -2.5014 0.9775
-0.4103 -5.0829 -2.5014 0.9775
-0.2053 -5.0953 -2.5014 0.9775
-0.0000 -5.0995 -2.5014 0.9775
1.2204 -4.9513 -2.5014 0.9775
1.6148 -4.8370 -2.5014 0.9775
1.8083 -4.7681 -2.5014 0.9775
2.1861 -4.6071 -2.5014 0.9775
2.5497 -4.4163 -2.5014 0.9775
2.8968 -4.1968 -2.5014 0.9775
