ply
format ascii 1.0
element vertex 1587
property float32 x
property float32 y
property float32 z
property float32 I
end_header
1.4244 5.7789 -0.7070 0.9763
1.1024 5.3995 -0.6546 0.9780
0.8757 5.3883 -0.6485 0.9783
0.4439 5.4983 -0.6553 0.9780
0.0000 5.4979 -0.6531 0.9781
-0.2156 5.3505 -0.6361 0.9787
-0.4381 5.4274 -0.6468 0.9783
-0.6419 5.2865 -0.6326 0.9788
-1.1109 5.4413 -0.6597 0.9779
-1.3099 5.3146 -0.6502 0.9782
-1.5887 5.4849 -0.6783 0.9773
-2.5338 5.3400 -0.7021 0.9765
-2.9350 5.5921 -0.7502 0.9749
-3.0816 5.3374 -0.7321 0.9755
-4.4281 5.4233 -0.8317 0.9722
-5.0804 5.2892 -0.8712 0.9709
-4.0669 3.3205 -0.6237 0.9791
-17.5978 12.1469 -2.5400 0.9175
-18.0726 11.4284 -2.5400 0.9175
-18.5181 10.6915 -2.5400 0.9175
-18.9336 9.9371 -2.5400 0.9175
-19.6718 8.3814 -2.5400 0.9175
-19.9934 7.5825 -2.5400 0.9175
-20.2824 6.7713 -2.5400 0.9175
-20.7615 5.1173 -2.5400 0.9175
-21.1060 3.4301 -2.5400 0.9175
-21.2270 2.5774 -2.5400 0.9175
-21.3135 1.7206 -2.5400 0.9175
-21.3655 0.8610 -2.5400 0.9175
-17.6943 -2.8756 -2.5400 0.9301
-15.8731 -8.3308 -2.5400 0.9301
-15.5248 -8.9632 -2.5400 0.9301
-15.1512 -9.5811 -2.5400 0.9301
-13.8859 -11.3375 -2.5400 0.9301
-12.9286 -12.4181 -2.5400 0.9301
-11.8874 -13.4181 -2.5400 0.9301
-11.3375 -13.8859 -2.5400 0.9301
-10.7692 -14.3312 -2.5400 0.9301
-9.0062 -14.2421 -2.3876 0.9342
-7.8310 -14.9207 -2.3876 0.9342
-6.4780 -15.2043 -2.3417 0.9354
-5.9761 -15.7577 -2.3879 0.9342
-5.3365 -15.9848 -2.3878 0.9342
-3.6277 -14.7180 -2.1478 0.9406
-1.7873 -14.7197 -2.1009 0.9419
-1.1881 -14.7168 -2.0920 0.9421
1.1791 -14.6056 -2.0762 0.9425
1.7783 -14.6457 -2.0904 0.9421
2.3778 -14.6313 -2.1003 0.9419
2.9787 -14.5906 -2.1100 0.9416
3.5871 -14.5534 -2.1238 0.9412
4.2089 -14.5306 -2.1435 0.9407
5.9086 -15.5798 -2.3609 0.9349
7.7400 -14.7474 -2.3599 0.9349
8.8976 -14.0704 -2.3588 0.9350
9.9932 -13.2985 -2.3570 0.9350
10.5161 -12.8799 -2.3560 0.9350
12.8488 -10.4907 -2.3503 0.9352
13.2537 -9.9595 -2.3490 0.9352
14.9210 -9.4355 -2.5014 0.9312
15.2889 -8.8270 -2.5014 0.9312
15.6319 -8.2043 -2.5014 0.9312
16.7455 -5.5905 -2.5014 0.9312
7.6499 -2.2158 -1.1285 0.9683
8.0892 -1.3146 -1.1612 0.9674
17.5254 -2.1280 -2.5014 0.9312
17.5968 -1.4205 -2.5014 0.9312
17.6541 0.0000 -2.5014 0.9312
17.6398 0.7108 -2.5014 0.9312
16.1222 3.9738 -2.3527 0.9351
15.9601 4.6229 -2.3543 0.9351
15.5364 5.8922 -2.3543 0.9351
13.5607 5.7777 -2.0885 0.9422
11.9056 5.6492 -1.8672 0.9482
10.5124 5.5173 -1.6822 0.9532
9.8645 5.6952 -1.6139 0.9550
8.8263 5.5814 -1.4797 0.9587
7.2939 5.4811 -1.2927 0.9638
6.8390 5.5838 -1.2510 0.9650
3.1334 2.7760 -0.5931 0.9832
2.8591 2.9766 -0.5848 0.9835
4.9677 5.6074 -1.0615 0.9702
3.9419 5.7108 -0.9832 0.9724
3.1374 5.4340 -0.8891 0.9750
2.6702 5.6272 -0.8825 0.9752
2.0702 5.4585 -0.8272 0.9767
1.8171 5.4429 -0.8131 0.9771
1.5885 5.4841 -0.8090 0.9772
1.4062 5.7051 -0.8326 0.9765
1.1076 5.4250 -0.7845 0.9779
0.8765 5.3930 -0.7742 0.9782
0.6521 5.3699 -0.7665 0.9784
0.0000 5.4968 -0.7788 0.9780
-0.2179 5.4087 -0.7670 0.9784
-0.4346 5.3841 -0.7654 0.9784
-0.6549 5.3938 -0.7699 0.9783
-1.3204 5.3570 -0.7817 0.9780
-1.5621 5.3932 -0.7956 0.9776
-1.8982 5.6858 -0.8493 0.9761
-2.2364 5.2491 -0.8084 0.9772
-2.4690 5.2034 -0.8161 0.9770
-2.8927 5.5116 -0.8820 0.9752
-3.2915 5.2051 -0.8726 0.9754
-3.6780 5.3284 -0.9174 0.9742
-4.6395 5.2368 -0.9913 0.9721
-5.6196 5.3976 -1.1040 0.9690
-2.5839 2.2891 -0.4891 0.9862
-4.0666 3.3203 -0.7439 0.9790
-14.7532 10.1834 -2.5400 0.9301
-15.1513 9.5811 -2.5400 0.9301
-15.5247 8.9632 -2.5400 0.9301
-15.8731 8.3308 -2.5400 0.9301
-16.1957 7.6849 -2.5400 0.9301
-16.4920 7.0266 -2.5400 0.9301
-16.7615 6.3568 -2.5400 0.9301
-17.2187 4.9875 -2.5400 0.9301
-17.6943 2.8756 -2.5400 0.9301
-17.9119 0.7218 -2.5400 0.9301
-15.4182 0.0000 -2.5400 0.9394
-15.4057 -0.6208 -2.5400 0.9394
-15.3682 -1.2407 -2.5400 0.9394
-15.3058 -1.8585 -2.5400 0.9394
-15.2186 -2.4733 -2.5400 0.9394
-15.1066 -3.0840 -2.5400 0.9394
-14.4163 -5.4674 -2.5400 0.9394
-14.1845 -6.0426 -2.5400 0.9394
-13.3526 -7.7091.4254 8.3285394
-13.0313 -8.2405 -2.5400 0.9394
-11.1196 -10.6806 -2.5400 0.9394
-9.7512 -11.9430 -2.5400 0.9394
-8.7179 -12.6301 -2.5282 0.9397
-7.6522 -12.1010 -2.3587 0.9436
-7.1526 -12.3887 -2.3566 0.9437
-6.1182 -12.8938 -2.3511 0.9438
-4.5301 -13.5693 -2.3567 0.9437
-3.9808 -13.7434 -2.3571 0.9436
-2.8629 -14.0236 -2.3579 0.9436
-0.5765 -14.3061 -2.3587 0.9436
0.0000 -14.3181 -2.3588 0.9436
0.5765 -14.3065 -2.3587 0.9436
1.1521 -14.2713 -2.3587 0.9436
1.7257 -14.2125 -2.3586 0.9436
2.2964 -14.1305 -2.3584 0.9436
2.8633 -14.0251 -2.3581 0.9436
3.4252 -13.8967 -2.3579 0.9436
4.5309 -13.5717 -2.3571 0.9436
5.0727 -13.3757 -2.3566 0.9437
5.6060 -13.1577 -2.3561 0.9437
6.1298 -12.9182 -2.3556 0.9437
6.6432 -12.6576 -2.3549 0.9437
7.6357 -12.0749 -2.3536 0.9437
8.1131 -11.7538 -2.3528 0.9437
8.5768 -11.4137 -2.3520 0.9438
9.4604 -10.6786 -2.3502 0.9438
9.8788 -10.2849 -2.3493 0.9438
10.3754 -9.9657 -2.3700 0.9433
11.7616 -9.6030 -2.5014 0.9403
12.1387 -9.1216 -2.5014 0.9403
12.4962 -8.6255 -2.5014 0.9403
12.8333 -8.1153 -2.5014 0.9403
13.1497 -7.5920 -2.5014 0.9403
13.7180 -6.5092 -2.5014 0.9403
14.1973 -5.3843 -2.5014 0.9403
7.2769 -2.4294 -1.2638 0.9694
7.3107 -1.8019 -1.2404 0.9699
7.5036 -1.2195 -1.2524 0.9697
9.2773 -1.1265 -1.5396 0.9628
15.1347 -1.2218 -2.5014 0.9403
15.1840 0.0000 -2.5014 0.9403
15.0733 1.8302 -2.5014 0.9403
13.5558 4.5256 -2.3543 0.9437
11.8586 5.6270 -2.1624 0.9482
9.8506 5.6873 -1.8738 0.9549
8.8424 5.5916 -1.7235 0.9585
8.4683 5.8452 -1.6951 0.9591
7.3901 5.5533 -1.5229 0.9632
6.5346 5.3352 -1.3897 0.9664
3.1323 2.7750 -0.6894 0.9832
2.8584 2.9759 -0.6798 0.9834
4.9441 5.5807 -1.2283 0.9702
4.4813 5.4885 -1.1673 0.9717
4.1819 5.5651 -1.1468 0.9722
2.8163 5.3659 -0.9983 0.9757
2.6444 5.5728 -1.0162 0.9753
2.3266 5.4607 -0.9778 0.9762
1.8092 5.4190 -0.9412 0.9771
1.5566 5.3741 -0.9217 0.9776
1.4073 5.7094 -0.9687 0.9764
1.1128 5.4508 -0.9165 0.9777
0.0000 5.5431 -0.9132 0.9778
-0.6495 5.3492 -0.8877 0.9784
-0.9136 5.6215 -0.9382 0.9772
-1.1105 5.4398 -0.9146 0.9777
-1.5772 5.4452 -0.9339 0.9773
-2.0468 5.3970 -0.9509 0.9769
-2.2384 5.2536 -0.9408 0.9771
-2.5206 5.3121 -0.9686 0.9764
-3.2787 5.1849 -1.0106 0.9754
-3.6253 5.2521 -1.0513 0.9745
-4.3648 5.3459 -1.1369 0.9724
-2.5839 2.2891 -0.5687 0.9861
-4.0665 3.3202 -0.8648 0.9789
-12.3260 9.2624 -2.5400 0.9394
-13.3526 7.7091 -2.5400 0.9394
-13.6522 7.1652 -2.5400 0.9394
-13.9296 6.6097 -2.5400 0.9394
-14.1844 6.0434 -2.5400 0.9394
-14.4163 5.4674 -2.5400 0.9394
-14.8095 4.2896 -2.5400 0.9394
-15.2186 2.4733 -2.5400 0.9394
-15.3058 1.8585 -2.5400 0.9394
-15.3682 1.2407 -2.5400 0.9394
-13.5024 -0.5441 -2.5400 0.9465
-13.4696 -1.0874 -2.5400 0.9465
-12.9798 -3.7597 -2.5400 0.9465
-12.8179 -4.2792 -2.5400 0.9465
-12.4320 -5.2968 -2.5400 0.9465
-11.9655 -6.2800 -2.5400 0.9465
-11.7029 -6.7567 -2.5400 0.9465
-11.4214 -7.2224 -2.5400 0.9465
-11.1213 -7.6765 -2.5400 0.9465
-10.8032 -8.1180 -2.5400 0.9465
-10.4675 -8.5465 -2.5400 0.9465
-9.7459 -9.3611 -2.5400 0.9465
-9.3476 -9.7318 -2.5363 0.9466
-8.4650 -10.3678 -2.5158 0.9470
-6.2486 -10.8229 -2.3490 0.9504
-4.8985 -11.4972 -2.3490 0.9504
-3.9629 -11.8704 -2.3522 0.9503
-3.4824 -12.0225 -2.3526 0.9503
-2.5044 -12.2672 -2.3533 0.9503
-1.0077 -12.4829 -2.3539 0.9503
1.0078 -12.4835 -2.3540 0.9503
2.0088 -12.3605 -2.3538 0.9503
2.9963 -12.1565 -2.3533 0.9503
3.4829 -12.0244 -2.3530 0.9503
4.4378 -11.7014 -2.3523 0.9503
4.9044 -11.5111 -2.3518 0.9503
5.8122 -11.0743 -2.3508 0.9504
6.2519 -10.8286 -2.3502 0.9504
6.6810 -10.5652 -2.3496 0.9504
7.0992 -10.2850 -2.3490 0.9504
7.6020 -10.1164 -2.3785 0.9498
8.8249 -9.9612 -2.5014 0.9473
9.5978 -9.2188 -2.5014 0.9473
9.9612 -8.8249 -2.5014 0.9473
10.6390 -7.9947 -2.5014 0.9473
12.4432 -4.7191 -2.5014 0.9473
6.9082 -2.0010 -1.3519 0.9712
6.9540 -1.7140 -1.3462 0.9713
7.0161 -1.4324 -1.3460 0.9713
7.1577 -1.1633 -1.3630 0.9709
8.4538 -1.0265 -1.6006 0.9659
13.2973 -0.5359 -2.5014 0.9473
13.3081 0.0000 -2.5014 0.9473
13.1357 2.1348 -2.5014 0.9473
12.0204 3.4818 -2.3522 0.9503
11.8771 3.9652 -2.3535 0.9503
11.5233 4.9096 -2.3543 0.9503
10.8986 5.7200 -2.3135 0. -2.4829 0.9477
0.0000 -13.1995 -2.4810 0.9477
1.6025 -13.1977 -2.4989 0.9473
3.1830 -12.9141 -2.5000 0.9473
4.2118 -12.6161 -2.5000 0.9473
6.1811 -11.7771 -2.5000 0.9473
8.4119 -10.3027 -2.5000 0.9473
9.2136 -9.5924 -2.5000 0.9473
9.9556 -8.8199 -2.5000 0.9473
10.3027 -8.4119 -2.5000 0.9473
10.6331 -7.9902 -2.5000 0.9473
10.9461 -7.5556 -2.5000 0.9473
11.2415 -7.1087 -2.5000 0.9473
11.7771 -6.1811 -2.5000 0.9473
12.2362 -5.2134 -2.5000 0.9473
12.4362 -4.7164 -2.5000 0.9473
12.7754 -3.7005 -2.5000 0.9473
13.1283 -2.1336 -2.5000 0.9473
13.2036 -1.6032 -2.5000 0.9473
13.2574 -1.0703 -2.5000 0.9473
13.2898 -0.5356 -2.5000 0.9473
13.2898 0.5356 -2.5000 0.9473
13.2036 1.6032 -2.5000 0.9473
11.4908 4.8958 -2.3477 0.9504
10.5203 4.9920 -2.1887 0.9537
7.1953 4.9666 -1.6433 0.9650
6.0895 4.9720 -1.4777 0.9685
9.3986 8.3264 -2.3601 0.9502
9.0609 8.7031 -2.3615 0.9502
8.3403 9.4142 -2.3640 0.9501
7.9585 9.7474 -2.3652 0.9501
7.5632 10.0648 -2.3664 0.9500
6.3031 10.9173 -2.3695 0.9500
4.9465 11.6097 -2.3720 0.9499
4.4763 11.8030 -2.3727 0.9499
3.0231 12.2651 -2.3744 0.9499
2.5272 12.3790 -2.3748 0.9499
2.0270 12.4725 -2.3751 0.9499
1.5233 12.5454 -2.3754 0.9499
1.0170 12.5976 -2.3756 0.9499
-0.5089 12.6289 -2.3757 0.9499
-2.0270 12.4724 -2.3751 0.9499
-3.0231 12.2650 -2.3743 0.9499
-4.4762 11.8028 -2.3727 0.9499
-5.4081 11.3973 -2.3712 0.9500
-5.8606 11.1663 -2.3703 0.9500
-7.1550 10.3658 -2.3674 0.9500
-7.5631 10.0646 -2.3663 0.9501
-8.3401 9.4140 -2.3640 0.9501
-8.7078 9.0657 -2.3627 0.9501
-9.0607 8.7029 -2.3614 0.9502
-9.3983 8.3262 -2.3600 0.9502
-7.1597 4.9421 -1.6352 0.9652
-8.5991 4.9647 -1.8663 0.9604
-11.6781 4.4289 -2.3476 0.9504
-11.8470 3.9551 -2.3476 0.9504
-12.1268 2.9890 -2.3476 0.9504
-11.7886 -0.9517 -2.5000 0.9528
-11.7407 -1.4256 -2.5000 0.9528
-11.4833 -2.8304 -2.5000 0.9528
-11.3600 -3.2905 -2.5000 0.9528
-11.0584 -4.1939 -2.5000 0.9528
-10.8806 -4.6358 -2.5000 0.9528
-10.4723 -5.4963 -2.5000 0.9528
-10.2424 -5.9135 -2.5000 0.9528
-9.9960 -6.3211 -2.5000 0.9528
-9.7334 -6.7185 -2.5000 0.9528
-9.4550 -7.1050 -2.5000 0.9528
-9.1612 -7.4799 -2.5000 0.9528
-8.5296 -8.1928 -2.5000 0.9528
-8.1928 -8.5296 -2.5000 0.9528
-7.8427 -8.8526 -2.5000 0.9528
-7.1050 -9.4550 -2.5000 0.9528
-6.7185 -9.7334 -2.5000 0.9528
-6.3211 -9.9960 -2.5000 0.9528
-5.9135 -10.2425 -2.5000 0.9528
-5.0701 -10.6851 -2.5000 0.9528
-4.1939 -11.0584 -2.5000 0.9528
-3.7452 -11.2183 -2.5000 0.9528
-3.2905 -11.3600 -2.5000 0.9528
-0.9517 -11.7886 -2.5000 0.9528
-0.4762 -11.8174 -2.5000 0.9528
-0.0000 -11.8270 -2.5000 0.9528
0.4762 -11.8174 -2.5000 0.9528
1.8972 -11.6738 -2.5000 0.9528
2.8304 -11.4833 -2.5000 0.9528
3.7452 -11.2183 -2.5000 0.9528
4.1939 -11.0584 -2.5000 0.9528
5.0701 -10.6851 -2.5000 0.9528
6.3211 -9.9960 -2.5000 0.9528
6.7185 -9.7334 -2.5000 0.9528
7.4799 -9.1612 -2.5000 0.9528
8.8526 -7.8427 -2.5000 0.9528
9.1613 -7.4799 -2.5000 0.9528
9.7334 -6.7185 -2.5000 0.9528
9.9960 -6.3211 -2.5000 0.9528
10.2425 -5.9135 -2.5000 0.9528
10.4723 -5.4963 -2.5000 0.9528
10.6851 -5.0701 -2.5000 0.9528
10.8806 -4.6358 -2.5000 0.9528
11.5880 -2.3657 -2.5000 0.9528
11.6738 -1.8972 -2.5000 0.9528
11.7408 -1.4256 -2.5000 0.9528
11.7886 -0.9517 -2.5000 0.9528
11.8270 -0.0000 -2.5000 0.9528
11.8174 0.4762 -2.5000 0.9528
11.7408 1.4256 -2.5000 0.9528
11.6738 1.8972 -2.5000 0.9528
11.5880 2.3657 -2.5000 0.9528
10.9506 2.6991 -2.3840 0.9549
10.6675 3.0899 -2.3476 0.9556
10.5344 3.5169 -2.3476 0.9556
9.6283 5.5589 -2.3501 0.9556
8.3453 7.3933 -2.3567 0.9554
7.0649 8.6529 -2.3613 0.9554
6.7136 8.9342 -2.3623 0.9553
5.9777 9.4530 -2.3642 0.9553
5.5942 9.6895 -2.3650 0.9553
4.7996 10.1148 -2.3666 0.9553
4.3896 10.3029 -2.3672 0.9552
2.2424 10.9841 -2.3697 0.9552
1.7985 11.0669 -2.3700 0.9552
1.3516 11.1314 -2.3702 0.9552
0.9023 11.1776 -2.3704 0.9552
0.4516 11.2053 -2.3705 0.9552
-0.0000 11.2146 -2.3705 0.9552
-0.4516 11.2053 -2.3705 0.9552
-0.9024 11.1776 -2.3704 0.9552
-1.7985 11.0668 -2.3700 0.9552
-2.2424 10.9840 -2.3697 0.9552
-2.6825 10.8831 -2.3693 0.9552
-3.5481 10.6278 -2.3684 0.9552
-3.9722 10.4739 -2.3678 0.9552
-4.3896 10.3027 -2.3672 0.9552
-4.7995 10.1147 -2.36628 0.9572
-6.7343 -8.2480 -2.5025 0.9572
-6.3959 -8.5115 -2.5022 0.9572
-6.0473 -8.7610 -2.5019 0.9572
-5.6889 -8.9963 -2.5016 0.9572
-4.9461 -9.4241 -2.5014 0.9572
-4.5627 -9.6156 -2.5014 0.9572
-3.3704 -10.0955 -2.5014 0.9572
-2.9611 -10.2230 -2.5014 0.9572
-2.1274 -10.4205 -2.4996 0.9572
-1.6927 -10.4158 -2.4801 0.9576
-1.2641 -10.4105 -2.4647 0.9578
-0.4190 -10.3978 -2.4457 0.9581
0.8368 -10.3654 -2.4440 0.9582
1.2571 -10.3528 -2.4510 0.9581
1.6803 -10.3395 -2.4619 0.9579
2.1077 -10.3240 -2.4764 0.9576
2.9611 -10.2230 -2.5014 0.9572
3.7741 -9.9516 -2.5014 0.9572
4.1718 -9.7915 -2.5014 0.9572
4.5626 -9.6156 -2.5014 0.9572
4.9461 -9.4241 -2.5014 0.9572
5.3216 -9.2173 -2.5014 0.9572
6.3938 -8.5086 -2.5014 0.9572
7.3728 -7.6759 -2.5014 0.9572
8.2443 -6.7312 -2.5014 0.9572
8.5086 -6.3938 -2.5014 0.9572
8.9955 -5.6884 -2.5014 0.9572
9.6156 -4.5627 -2.5014 0.9572
9.7915 -4.1718 -2.5014 0.9572
6.5486 -2.4836 -1.6460 0.9716
6.7157 -1.0914 -1.5991 0.9724
7.0804 -0.8597 -1.6763 0.9711
10.6087 -0.8564 -2.5014 0.9572
10.6346 -0.4286 -2.5014 0.9572
10.5656 1.2829 -2.5014 0.9572
9.6074 2.7828 -2.3508 0.9597
9.4918 3.1688 -2.3518 0.9597
9.3606 3.5500 -2.3529 0.9597
9.2141 3.9258 -2.3539 0.9597
8.4666 5.3540 -2.3543 0.9597
7.3685 5.5371 -2.1662 0.9628
3.1289 2.7720 -0.9824 0.9830
2.9449 2.8286 -0.9597 0.9834
2.8563 2.9738 -0.9691 0.9832
4.9679 5.6076 -1.7607 0.9697
4.4774 5.4838 -1.6638 0.9713
2.8696 5.4674 -1.4512 0.9749
2.3268 5.4610 -1.3951 0.9759
1.7817 5.3369 -1.3224 0.9771
1.5567 5.3742 -1.3150 0.9773
1.4083 5.7136 -1.3830 0.9761
0.8686 5.3444 -1.2725 0.9780
0.2241 5.5607 -1.3080 0.9774
-0.2210 5.4839 -1.2899 0.9777
-0.4293 5.3185 -1.2540 0.9783
-1.1012 5.3941 -1.2939 0.9776
-1.3050 5.2944 -1.2815 0.9778
-1.5351 5.2999 -1.2968 0.9776
-2.2459 5.2713 -1.3466 0.9767
-2.9067 5.5382 -1.4700 0.9746
-3.3026 5.2226 -1.4522 0.9749
-3.6103 5.2304 -1.4937 0.9742
-4.3904 5.3772 -1.6315 0.9719
-8.3606 5.7709 -2.3876 0.9591
-8.5862 5.4296 -2.3876 0.9591
-8.7979 5.0795 -2.3876 0.9591
-8.9953 4.7211 -2.3876 0.9591
-9.1781 4.3551 -2.3876 0.9591
-9.4986 3.6024 -2.3876 0.9591
-10.2512 3.4223 -2.5400 0.9566
-10.3807 3.0068 -2.5400 0.9566
-10.7286 1.3027 -2.5400 0.9566
-10.7723 0.8696 -2.5400 0.9566
-9.8070 0.0000 -2.5392 0.9603
-9.7997 -0.3949 -2.5394 0.9603
-9.7329 -1.1819 -2.5385 0.9603
-9.6766 -1.5726 -2.5383 0.9603
-9.5109 -2.3443 -2.5362 0.9603
-9.2789 -3.0978 -2.5328 0.9604
-8.8048 -4.1779 -2.5233 0.9605
-8.6161 -4.5221 -2.5195 0.9606
-6.9727 -6.6974 -2.5033 0.9608
-6.6966 -6.9719 -2.5030 0.9608
-6.1126 -7.4865 -2.5024 0.9609
-5.8055 -7.7257 -2.5021 0.9609
-5.4891 -7.9523 -2.5019 0.9609
-5.1639 -8.1660 -2.5016 0.9609
-4.8305 -8.3667 -2.5014 0.9609
-4.4897 -8.5544 -2.5014 0.9609
-4.1416 -8.7282 -2.5014 0.9609
-3.7868 -8.8879 -2.5014 0.9609
-3.4258 -9.0332 -2.5014 0.9609
-2.6879 -9.2795 -2.5014 0.9609
-2.3120 -9.3802 -2.5014 0.9609
-1.5497 -9.5358 -2.5014 0.9609
-0.7774 -9.6296 -2.5014 0.9609
-0.3890 -9.6531 -2.5014 0.9609
0.7774 -9.6296 -2.5014 0.9609
1.1645 -9.5905 -2.5014 0.9609
1.5497 -9.5359 -2.5014 0.9609
2.3120 -9.3802 -2.5014 0.9609
2.6879 -9.2795 -2.5014 0.9609
3.4258 -9.0332 -2.5014 0.9609
4.4897 -8.5544 -2.5014 0.9609
4.8305 -8.3666 -2.5014 0.9609
5.1635 -8.1654 -2.5014 0.9609
5.4880 -7.9508 -2.5014 0.9609
6.1100 -7.4834 -2.5014 0.9609
6.6924 -6.9675 -2.5014 0.9609
6.9675 -6.6924 -2.5014 0.9609
7.2313 -6.4064 -2.5014 0.9609
8.1653 -5.1635 -2.5014 0.9609
8.5544 -4.4897 -2.5014 0.9609
8.7282 -4.1416 -2.5014 0.9609
8.8879 -3.7868 -2.5014 0.9609
6.4716 -2.4544 -1.7921 0.9718
6.4241 -2.1447 -1.7536 0.9724
6.4257 -1.8612 -1.7321 0.9727
6.4578 -1.5917 -1.7221 0.9729
6.9181 -0.8400 -1.8044 0.9716
9.6610 -0.0000 -2.5014 0.9609
9.6531 0.3890 -2.5014 0.9609
9.6296 0.7774 -2.5014 0.9609
9.5905 1.1645 -2.5014 0.9609
9.5358 1.5497 -2.5014 0.9609
9.3499 1.9088 -2.4708 0.9613
8.8098 2.1714 -2.3493 0.9632
8.3608 3.5622 -2.3531 0.9631
8.2138 3.8975 -2.3540 0.9631
8.0514 4.2257 -2.3543 0.9631
7.8747 4.5465 -2.3543 0.9631
7.6853 4.8599 -2.3543 0.9631
7.4834 5.1654 -2.3543 0.9631
7.2693 5.4625 -2.3543 0.9631
7.0435 5.7508 -2.3543 0.9631
.1586 -3.0576 -2.5000 0.9609
9.2743 -2.6863 -2.5000 0.9609
9.3750 -2.3107 -2.5000 0.9609
9.4604 -1.9314 -2.5000 0.9609
9.6242 -0.7770 -2.5000 0.9609
9.6555 0.0000 -2.5000 0.9609
9.6242 0.7769 -2.5000 0.9609
9.4604 1.9313 -2.5000 0.9609
9.3750 2.3107 -2.5000 0.9609
9.2533 2.6802 -2.4943 0.9610
8.4777 3.2152 -2.3476 0.9632
8.3414 3.5539 -2.3476 0.9632
8.1916 3.8869 -2.3476 0.9632
7.8522 4.5334 -2.3476 0.9632
5.1748 4.9705 -1.8578 0.9708
5.2466 5.4623 -1.9610 0.9692
4.4023 4.9692 -1.7189 0.9729
3.7333 4.9682 -1.6090 0.9746
3.4289 4.9677 -1.5629 0.9754
4.8671 7.6966 -2.3578 0.9631
1.8830 4.9652 -1.3749 0.9783
2.8879 8.6504 -2.3613 0.9630
2.5377 8.7611 -2.3617 0.9630
2.1832 8.8575 -2.3620 0.9630
1.8250 8.9393 -2.3623 0.9630
1.1000 9.0589 -2.3627 0.9630
0.3675 9.1188 -2.3629 0.9630
-0.0000 9.1263 -2.3630 0.9630
-0.3675 9.1188 -2.3629 0.9630
-1.8250 8.9393 -2.3623 0.9630
-2.1832 8.8575 -2.3620 0.9630
-2.5377 8.7610 -2.3616 0.9630
-2.8879 8.6503 -2.3612 0.9630
-2.1157 4.9658 -1.3976 0.9779
-3.4213 4.9566 -1.5594 0.9754
-5.4669 7.2752 -2.3562 0.9631
-4.0366 4.9439 -1.6525 0.9740
-6.0303 6.8068 -2.3545 0.9631
-4.7588 4.9545 -1.7787 0.9720
-5.1575 4.9538 -1.8516 0.9709
-5.6059 4.9665 -1.9392 0.9695
-7.0325 5.7419 -2.3507 0.9632
-7.1721 4.9506 -2.2564 0.9646
-7.6628 4.8456 -2.3474 0.9632
-7.8522 4.5335 -2.3476 0.9632
-8.1915 3.8869 -2.3476 0.9632
-8.3414 3.5539 -2.3476 0.9632
-8.4777 3.2152 -2.3476 0.9632
-9.2743 2.6863 -2.5000 0.9609
-9.3749 2.3107 -2.5000 0.9609
-9.6242 0.7769 -2.5000 0.9609
-8.8238 -0.3556 -2.5000 0.9640
-8.8023 -0.7106 -2.5000 0.9640
-8.7166 -1.4166 -2.5000 0.9640
-8.6525 -1.7664 -2.5000 0.9640
-8.5743 -2.1134 -2.5000 0.9640
-8.4823 -2.4569 -2.5000 0.9640
-8.3765 -2.7965 -2.5000 0.9640
-8.2571 -3.1315 -2.5000 0.9640
-7.9783 -3.7858 -2.5000 0.9640
-7.2677 -5.0166 -2.5000 0.9640
-7.0599 -5.3051 -2.5000 0.9640
-6.8405 -5.5851 -2.5000 0.9640
-6.6101 -5.8560 -2.5000 0.9640
-6.3689 -6.1174 -2.5000 0.9640
-6.1175 -6.3689 -2.5000 0.9640
-5.8560 -6.6101 -2.5000 0.9640
-5.5851 -6.8405 -2.5000 0.9640
-5.3051 -7.0598 -2.5000 0.9640
-4.7199 -7.4639 -2.5000 0.9640
-4.1039 -7.8194 -2.5000 0.9640
-3.7858 -7.9783 -2.5000 0.9640
-3.4615 -8.1243 -2.5000 0.9640
-2.7965 -8.3765 -2.5000 0.9640
-2.4569 -8.4823 -2.5000 0.9640
-1.0644 -8.7666 -2.5000 0.9640
-0.3556 -8.8238 -2.5000 0.9640
1.0644 -8.7666 -2.5000 0.9640
1.4166 -8.7166 -2.5000 0.9640
1.7664 -8.6525 -2.5000 0.9640
2.1134 -8.5744 -2.5000 0.9640
2.7965 -8.3765 -2.5000 0.9640
3.1315 -8.2571 -2.5000 0.9640
3.4614 -8.1243 -2.5000 0.9640
3.7858 -7.9784 -2.5000 0.9640
4.1040 -7.8194 -2.5000 0.9640
4.4155 -7.6478 -2.5000 0.9640
5.0166 -7.2677 -2.5000 0.9640
5.3051 -7.0599 -2.5000 0.9640
6.1174 -6.3689 -2.5000 0.9640
6.3689 -6.1174 -2.5000 0.9640
6.8405 -5.5851 -2.5000 0.9640
7.0599 -5.3051 -2.5000 0.9640
7.2677 -5.0166 -2.5000 0.9640
7.4639 -4.7199 -2.5000 0.9640
7.6479 -4.4155 -2.5000 0.9640
7.8194 -4.1040 -2.5000 0.9640
7.9783 -3.7858 -2.5000 0.9640
8.1243 -3.4614 -2.5000 0.9640
8.2571 -3.1315 -2.5000 0.9640
8.3765 -2.7965 -2.5000 0.9640
8.6525 -1.7664 -2.5000 0.9640
8.7666 -1.0645 -2.5000 0.9640
8.8023 -0.7106 -2.5000 0.9640
8.8238 -0.3556 -2.5000 0.9640
8.8310 0.0000 -2.5000 0.9640
8.8023 0.7106 -2.5000 0.9640
8.6526 1.7664 -2.5000 0.9640
8.5744 2.1134 -2.5000 0.9640
7.7538 2.9406 -2.3476 0.9661
7.6291 3.2504 -2.3476 0.9661
7.3428 3.8538 -2.3476 0.9661
7.1816 4.1463 -2.3476 0.9661
7.0088 4.4321 -2.3476 0.9661
6.6020 4.9611 -2.3378 0.9663
6.0895 4.9720 -2.2255 0.9678
6.2132 5.5044 -2.3499 0.9661
5.1748 4.9705 -2.0313 0.9706
4.4023 4.9692 -1.8794 0.9728
4.0568 4.9687 -1.8159 0.9737
3.7333 4.9682 -1.7593 0.9745
3.4208 4.9560 -1.7048 0.9753
3.1336 4.9555 -1.6598 0.9759
2.8675 4.9668 -1.6236 0.9764
3.8686 7.3710 -2.3566 0.9660
3.2644 7.6618 -2.3577 0.9660
1.8830 4.9652 -1.5033 0.9782
2.3183 8.0037 -2.3589 0.9660
1.2235 4.9641 -1.4474 0.9790
1.3371 8.2275 -2.3597 0.9659
0.2000 4.9625 -1.4060 0.9796
-1.0048 8.2753 -2.3599 0.9659
-1.4366 4.9598 -1.4618 0.9788
-1.6557 4.9595 -1.4802 0.9785
-2.6021 4.9579 -1.5851 0.9770
-4.1612 7.2074 -2.3560 0.9660
-3.1273 4.9454 -1.6564 0.9760
-5.2572 6.4389 -2.3532 0.9660
-5.1575 4.9538 -2.0244 0.9707
-5.6060 4.9666 -2.1203 0.9693
-7.0088 4.4321 -2.3476 0.9661
-7.1816 4.1463 -2.3476 0.9661
-7.3427 3.8538 -2.3476 0.9661
-7.4920 3.5550 -2.3476 0.9661
-7.6290 3.2504 -2.3476 0.9661
-7.7537 2.9406 -2.3476 0.9661
-8.1171 2.7099 -2.4226 0.9651
-8.5743 2.1134 -2.5000 0.9640
-8.6525 1.7664 -2.5000 0.9640
-8.7166 1.4166 -2.5000 0.9640
-8.7666 1.0645 -2.5000 0.9640
-8.8023 0.7106 -2.5000 0.9640
-8.1214 -0.3273 -2.5000 0.9666
-8.0687 -0.9797 -2.5000 0.9666
-7.9637 -1.6258 -2.5000 0.9666
-7.5998 -2.8822 -2.5000 0.9666
-7.3432 -3.4844 -2.5000 0.9666
-7.1969 -3.7773 -2.5000 0.9666
-7.0390 -4.0640 -2.5000 0.9666
-6.8697 -4.3441 -2.5000 0.9666
-6.6892 -4.6172 -2.5000 0.9666
-6.4978 -4.8828 -2.5000 0.9666
-6.0839 -5.3898 -2.5000 0.9666
-5.6304 -5.8619 -2.5000 0.9666
-4.3441 -6.8697 -2.5000 0.9666
-3.4844 -7.3432 -2.5000 0.9666
-2.5738 -7.7097 -2.5000 0.9666
-1.3038 -8.0227 -2.5000 0.9666
-0.6540 -8.1016 -2.5000 0.9666
-0.3273 -8.1214 -2.5000 0.9666
0.0000 -8.1280 -2.5000 0.9666
0.3273 -8.1214 -2.5000 0.9666
1.3038 -8.0227 -2.5000 0.9666
1.9451 -7.8918 -2.5000 0.9666
2.5739 -7.7097 -2.5000 0.9666
2.8822 -7.5998 -2.5000 0.9666
3.1859 -7.4775 -2.5000 0.9666
3.4844 -7.3432 -2.5000 0.9666
4.0640 -7.0390 -2.5000 0.9666
4.6172 -6.6892 -2.5000 0.9666
4.8828 -6.4978 -2.5000 0.9666
6.0839 -5.3898 -2.5000 0.9666
6.2959 -5.1405 -2.5000 0.9666
6.4978 -4.8828 -2.5000 0.9666
7.3432 -3.4844 -2.5000 0.9666
7.4776 -3.1859 -2.5000 0.9666
7.5998 -2.8822 -2.5000 0.9666
7.8071 -2.2613 -2.5000 0.9666
7.8918 -1.9452 -2.5000 0.9666
7.9637 -1.6258 -2.5000 0.9666
8.1214 -0.3273 -2.5000 0.9666
8.1280 -0.0000 -2.5000 0.9666
8.0687 0.9797 -2.5000 0.9666
7.9637 1.6258 -2.5000 0.9666
7.8070 2.2613 -2.5000 0.9666
7.7097 2.5739 -2.5000 0.9666
7.1582 2.7147 -2.3547 0.9685
6.7582 3.5470 -2.3476 0.9686
6.6099 3.8162 -2.3476 0.9686
6.4509 4.0793 -2.3476 0.9686
6.2814 4.3357 -2.3476 0.9686
6.1017 4.5851 -2.3476 0.9686
4.4023 4.9692 -2.0419 0.9726
4.0568 4.9687 -1.9729 0.9735
3.7333 4.9682 -1.9114 0.9743
4.3452 6.2951 -2.3527 0.9685
4.0893 6.4667 -2.3533 0.9685
2.8675 4.9668 -1.7640 0.9763
2.3508 4.9542 -1.6866 0.9773
2.1106 4.9538 -1.6562 0.9777
1.8830 4.9652 -1.6333 0.9780
2.1316 7.3592 -2.3566 0.9684
1.0133 4.9638 -1.5582 0.9790
1.2294 7.5649 -2.3573 0.9684
0.4006 4.9628 -1.5314 0.9794
0.2000 4.9625 -1.5276 0.9794
-0.0000 4.9621 -1.5262 0.9794
-0.6168 7.6401 -2.3576 0.9684
-1.5329 7.5085 -2.3571 0.9684
-1.6557 4.9595 -1.6082 0.9784
-2.7160 7.1616 -2.3558 0.9685
-2.1077 4.9470 -1.6539 0.9777
-2.6021 4.9579 -1.7222 0.9768
-3.8265 6.6277 -2.3539 0.9685
-3.4213 4.9566 -1.8525 0.9751
-4.5938 6.1133 -2.3520 0.9685
-4.8348 5.9216 -2.3513 0.9685
-5.0678 5.7203 -2.3506 0.9685
-4.7588 4.9545 -2.1130 0.9717
-5.1575 4.9538 -2.1995 0.9705
-5.6062 4.9667 -2.3037 0.9691
-5.9121 4.8271 -2.3476 0.9686
-6.2814 4.3357 -2.3476 0.9686
-6.4509 4.0793 -2.3476 0.9686
-6.6099 3.8162 -2.3476 0.9686
-7.0217 2.9917 -2.3476 0.9686
-7.1772 2.7219 -2.3610 0.9684
-7.8070 2.2613 -2.5000 0.9666
-8.0687 0.9797 -2.5000 0.9666
-8.1016 0.6540 -2.5000 0.9666
-8.1214 0.3273 -2.5000 0.9666
-7.5209 0.0000 -2.5000 0.9688
-7.3689 -1.5044 -2.5000 0.9688
-7.2239 -2.0925 -2.5000 0.9688
-7.1338 -2.3816 -2.5000 0.9688
-6.7947 -3.2242 -2.5000 0.9688
-6.3566 -4.0197 -2.5000 0.9688
-6.1896 -4.2724 -2.5000 0.9688
-6.0125 -4.5181 -2.5000 0.9688
-5.6295 -4.9873 -2.5000 0.9688
-5.4241 -5.2099 -2.5000 0.9688
-4.9873 -5.6295 -2.5000 0.9688
-4.5181 -6.0125 -2.5000 0.9688
-4.2724 -6.1896 -2.5000 0.9688
-4.0197 -6.3566 -2.5000 0.9688
-3.4951 -6.6594 -2.5000 0.9688
-3.2241 -6.7948 -2.5000 0.9688
-2.9479 -6.9191 -2.5000 0.9688
-2.6669 -7.0321 -2.5000 0.9688
-2.0924 -7.2239 -2.5000 0.9688
-1.7999 -7.3023 -2.5000 0.9688
-1.5044 -7.3689 -2.5000 0.9688
-1.2064 -7.4235 -2.5000 0.9688
-0.6052 -7.4965 -2.5000 0.9688
0.0000 -7.5209 -2.5000 0.9688
0.3028 -7.5148 -2.5000 0.9688
0.9065 -7.4661 -2.5000 0.9688
1.2064 -7.4235 -2.5000 0.9688
1.7999 -7.3023 -2.5000 0.9688
2.0925 -7.2240 -2.5000 0.9688
2.3816 -7.1338 -2.5000 0.9688
2.9479 -6.9191 -2.5000 0.9688
3.4951 -6.6594 -2.5000 0.9688
4.0197 -6.3566 -2.5000 0.9688
4.2724 -6.1896 -2.5000 0.9688
4.5181 -6.0125 -2.5000 0.9688
4.7566 -5.8257 -2.5000 0.9688
4.9873 -5.6295 -2.5000 0.9688
5.2099 -5.4241 -2.5000 0.9688
5.4241 -5.2099 -2.5000 0.9688
5.6295 -4.9873 -2.5000 0.9688
5.8257 -4.7566 -2.5000 0.9688
6.0125 -4.5181 -2.5000 0.9688
6.1896 -4.2724 -2.5000 0.9688
6.3566 -4.0197 -2.5000 0.9688
6.6594 -3.4951 -2.5000 0.9688
7.1338 -2.3816 -2.5000 0.9688
7.2240 -2.0924 -2.5000 0.9688
7.3024 -1.7999 -2.5000 0.9688
7.3689 -1.5044 -2.5000 0.9688
7.4235 -1.2064 -2.5000 0.9688
7.4660 -0.9065 -2.5000 0.9688
7.4965 -0.6052 -2.5000 0.9688
7.5209 0.0000 -2.5000 0.9688
7.4965 0.6052 -2.5000 0.9688
7.4661 0.9065 -2.5000 0.9688
7.4235 1.2064 -2.5000 0.9688
7.3023 1.7999 -2.5000 0.9688
7.1338 2.3816 -2.5000 0.9688
7.0321 2.6669 -2.5000 0.9688
6.4973 2.7682 -2.3476 0.9707
6.3805 3.0276 -2.3476 0.9707
6.1162 3.5312 -2.3476 0.9707
5.9691 3.7746 -2.3476 0.9707
5.8122 4.0119 -2.3476 0.9707
4.4023 4.9692 -2.2068 0.9724
4.0568 4.9687 -2.1322 0.9733
3.7810 5.9792 -2.3516 0.9706
3.2891 6.2669 -2.3526 0.9706
2.3564 4.9659 -1.8271 0.9771
2.7752 6.5137 -2.3535 0.9706
1.8830 4.9652 -1.7651 0.9779
1.9707 6.8037 -2.3546 0.9706
1.2207 4.9524 -1.6955 0.9787
1.0109 4.9521 -1.6800 0.9789
0.8047 4.9517 -1.6676 0.9791
0.3997 4.9511 -1.6511 0.9793
-0.0000 4.9504 -1.6455 0.9793
-0.6010 4.9495 -1.6573 0.9792
-0.8043 4.9492 -1.6667 0.9791
-1.0103 4.9488 -1.6789 0.9789
-1.2197 4.9485 -1.6941 0.9787
-1.6557 4.9595 -1.7380 0.9782
-2.3528 4.9584 -1.8243 0.9771
-2.6021 4.9579 -1.8612 0.9767
-4.6862 5.2896 -2.3490 0.9707
-5.0934 4.8923 -2.3476 0.9707
-5.2863 4.6832 -2.3476 0.9707
-5.4706 4.4666 -2.3476 0.9707
-5.6460 4.2427 -2.3476 0.9707
-5.8122 4.0119 -2.3476 0.9707
-6.2534 3.2821 -2.3476 0.9707
-6.3805 3.0276 -2.3476 0.9707
-6.4973 2.7682 -2.3476 0.9707
-7.0321 2.6669 -2.5000 0.9688
-7.4660 0.9065 -2.5000 0.9688
-7.4965 0.6052 -2.5000 0.9688
-6.9909 -0.0000 -2.5000 0.9707
-6.8496 -1.3983 -2.5000 0.9707
-6.7877 -1.6730 -2.5000 0.9707
-6.5366 -2.4790 -2.5000 0.9707
-6.3159 -2.9969 -2.5000 0.9707
-5.9086 -3.7364 -2.5000 0.9707
-5.7534 -3.9713 -2.5000 0.9707
-4.6358 -5.2327 -2.5000 0.9707
-4.4213 -5.4152 -2.5000 0.9707
-3.9713 -5.7534 -2.5000 0.9707
-3.7364 -5.9086 -2.5000 0.9707
-2.7402 -6.4315 -2.5000 0.9707
-2.2138 -6.6311 -2.5000 0.9707
-1.9450 -6.7149 -2.5000 0.9707
-1.1214 -6.9003 -2.5000 0.9707
-0.5625 -6.9682 -2.5000 0.9707
-0.2815 -6.9852 -2.5000 0.9707
0.5625 -6.9682 -2.5000 0.9707
1.1214 -6.9003 -2.5000 0.9707
1.3984 -6.8496 -2.5000 0.9707
1.9450 -6.7149 -2.5000 0.9707
2.7402 -6.4314 -2.5000 0.9707
3.2488 -6.1901 -2.5000 0.9707
3.4954 -6.0543 -2.5000 0.9707
3.7364 -5.9086 -2.5000 0.9707
3.9713 -5.7534 -2.5000 0.9707
4.4213 -5.4152 -2.5000 0.9707
4.6358 -5.2327 -2.5000 0.9707
5.0418 -4.8427 -2.5000 0.9707
5.2327 -4.6358 -2.5000 0.9707
5.9086 -3.7364 -2.5000 0.9707
6.0543 -3.4954 -2.5000 0.9707
6.1901 -3.2488 -2.5000 0.9707
6.4315 -2.7402 -2.5000 0.9707
6.7149 -1.9450 -2.5000 0.9707
6.9399 -0.8427 -2.5000 0.9707
6.9682 -0.5625 -2.5000 0.9707
6.9852 0.2815 -2.5000 0.9707
6.9682 0.5625 -2.5000 0.9707
6.9399 0.8427 -2.5000 0.9707
6.9004 1.1214 -2.5000 0.9707
6.7149 1.9450 -2.5000 0.9707
6.5366 2.4790 -2.5000 0.9707
6.3146 2.6904 -2.4545 0.9713
5.8128 3.0508 -2.3476 0.9725
5.5484 3.5086 -2.3476 0.9725
5.2481 3.9437 -2.3476 0.9725
5.0850 4.1518 -2.3476 0.9725
4.9137 4.3532 -2.3476 0.9725
4.5475 4.7345 -2.3476 0.9725
4.0568 4.9687 -2.2938 0.9731
2.3563 4.9659 -1.9656 0.9769
1.6636 4.9833 -1.8787 0.9779
1.8305 6.3195 -2.3528 0.9724
1.2235 4.9641 -1.8283 0.9785
0.4006 4.9628 -1.7805 0.9791
0.2000 4.9625 -1.7760 0.9791
-0.0000 4.9621 -1.7745 0.9791
-0.8062 4.9608 -1.7973 0.9789
-1.6557 4.9595 -1.8698 0.9780
-2.1127 4.9587 -1.9275 0.9774
-3.2864 5.6923 -2.3505 0.9725
-3.4213 4.9566 -2.1538 0.9747
-4.1531 5.0866 -2.3483 0.9725
-4.3534 4.9140 -2.3477 0.9725
-4.7345 4.5475 -2.3476 0.9725
-4.9137 4.3532 -2.3476 0.9725
-5.4026 3.7292 -2.3476 0.9725
-5.5484 3.5086 -2.3476 0.9725
-5.8128 3.0508 -2.3476 0.9725
-6.6311 2.2138 -2.5000 0.9707
-6.7149 1.9450 -2.5000 0.9707
-6.7877 1.6730 -2.5000 0.9707
-6.8496 1.3984 -2.5000 0.9707
-6.9399 0.8426 -2.5000 0.9707
-6.9682 0.5625 -2.5000 0.9707
-6.9852 0.2815 -2.5000 0.9707
-6.5025 -0.5249 -2.5000 0.9724
-6.4761 -0.7863 -2.5000 0.9724
-6.3341 -1.5612 -2.5000 0.9724
-6.2661 -1.8150 -2.5000 0.9724
-6.0997 -2.3133 -2.5000 0.9724
-5.8938 -2.7966 -2.5000 0.9724
-5.7764 -3.0317 -2.5000 0.9724
-5.5137 -3.4867 -2.5000 0.9724
-5.3689 -3.7059 -2.5000 0.9724
-4.8830 -4.3260 -2.5000 0.9724
-4.5191 -4.7049 -2.5000 0.9724
-3.7059 -5.3689 -2.5000 0.9724
-3.0317 -5.7764 -2.5000 0.9724
-2.3133 -6.0997 -2.5000 0.9724
-2.0658 -6.1879 -2.5000 0.9724
-1.8150 -6.2661 -2.5000 0.9724
-1.5612 -6.3341 -2.5000 0.9724
-1.3049 -6.3918 -2.5000 0.9724
-1.0465 -6.4392 -2.5000 0.9724
-0.7863 -6.4761 -2.5000 0.9724
-0.5249 -6.5025 -2.5000 0.9724
-0.2627 -6.5184 -2.5000 0.9724
-0.0000 -6.5237 -2.5000 0.9724
0.2627 -6.5184 -2.5000 0.9724
1.0465 -6.4392 -2.5000 0.9724
1.3049 -6.3918 -2.5000 0.9724
1.5612 -6.3341 -2.5000 0.9724
1.8150 -6.2661 -2.5000 0.9724
2.7967 -5.8938 -2.5000 0.9724
3.4867 -5.5137 -2.5000 0.9724
4.1259 -5.0533 -2.5000 0.9724
4.7049 -4.5191 -2.5000 0.9724
5.3689 -3.7059 -2.5000 0.9724
5.6497 -3.2618 -2.5000 0.9724
5.7764 -3.0317 -2.5000 0.9724
5.8938 -2.7966 -2.5000 0.9724
6.0016 -2.5571 -2.5000 0.9724
6.0997 -2.3133 -2.5000 0.9724
6.1879 -2.0658 -2.5000 0.9724
6.2661 -1.8150 -2.5000 0.9724
6.3341 -1.5612 -2.5000 0.9724
6.4392 -1.0465 -2.5000 0.9724
6.4761 -0.7863 -2.5000 0.9724
6.5025 -0.5249 -2.5000 0.9724
6.5184 -0.2627 -2.5000 0.9724
6.5237 0.0000 -2.5000 0.9724
6.5184 0.2627 -2.5000 0.9724
6.4392 1.0465 -2.5000 0.9724
6.3918 1.3049 -2.5000 0.9724
6.3341 1.5612 -2.5000 0.9724
6.2661 1.8150 -2.5000 0.9724
6.1879 2.0658 -2.5000 0.9724
6.0997 2.3133 -2.5000 0.9724
5.4243 2.8469 -2.3476 0.9741
5.3053 3.0630 -2.3476 0.9741
5.1776 3.2741 -2.3476 0.9741
5.0416 3.4800 -2.3476 0.9741
4.5854 4.0623 -2.3476 0.9741
4.4181 4.2436 -2.3476 0.9741
4.2436 4.4181 -2.3476 0.9741
3.6803 4.8975 -2.3477 0.9741
2.8493 5.4289 -2.3496 0.9741
2.3564 4.9659 -2.1064 0.9767
1.8830 4.9652 -2.0350 0.9775
1.6636 4.9830 -2.0132 0.9777
1.7070 5.8933 -2.3513 0.9741
1.2235 4.9641 -1.9593 0.9783
1.0133 4.9638 -1.9414 0.9785
0.7398 6.0927 -2.3520 0.9741
0.2000 4.9625 -1.9032 0.9790
-0.0000 4.9621 -1.9016 0.9790
-0.4939 6.1178 -2.3521 0.9741
-0.6024 4.9612 -1.9152 0.9788
-0.8062 4.9608 -1.9260 0.9787
-2.1752 5.7354 -2.3507 0.9741
-2.1127 4.9587 -2.0656 0.9772
-2.3528 4.9584 -2.1032 0.9768
-3.0650 5.3087 -2.3491 0.9741
-3.1346 4.9571 -2.2475 0.9752
-3.8744 4.7452 -2.3476 0.9741
-4.0622 4.5854 -2.3476 0.9741
-4.4181 4.2436 -2.3476 0.9741
-4.5854 4.0623 -2.3476 0.9741
-4.7452 3.8743 -2.3476 0.9741
-4.8974 3.6801 -2.3476 0.9741
-5.1776 3.2741 -2.3476 0.9741
-5.3052 3.0630 -2.3476 0.9741
-5.4243 2.8469 -2.3476 0.9741
-6.0997 2.3133 -2.5000 0.9724
-6.1879 2.0658 -2.5000 0.9724
-6.2661 1.8150 -2.5000 0.9724
-6.3918 1.3049 -2.5000 0.9724
-6.4761 0.7863 -2.5000 0.9724
-2.6381 -0.0000 -1.0797 0.9887
-2.8591 -0.4647 -1.1855 0.9876
-5.9849 -1.2218 -2.5000 0.9739
-5.1627 -3.2647 -2.5000 0.9739
-4.8832 -3.6695 -2.5000 0.9739
-4.5721 -4.0506 -2.5000 0.9739
-4.4053 -4.2314 -2.5000 0.9739
-3.8632 -4.7315 -2.5000 0.9739
-3.6695 -4.8833 -2.5000 0.9739
-3.2647 -5.1627 -2.5000 0.9739
-3.0542 -5.2900 -2.5000 0.9739
-2.6186 -5.5186 -2.5000 0.9739
-2.3942 -5.6195 -2.5000 0.9739
-2.1660 -5.7114 -2.5000 0.9739
-1.9343 -5.7940 -2.5000 0.9739
-0.9798 -6.0292 -2.5000 0.9739
-0.7363 -6.0638 -2.5000 0.9739
-0.4915 -6.0885 -2.5000 0.9739
0.0000 -6.1083 -2.5000 0.9739
0.2460 -6.1034 -2.5000 0.9739
0.4915 -6.0885 -2.5000 0.9739
0.7363 -6.0638 -2.5000 0.9739
0.9798 -6.0292 -2.5000 0.9739
1.4618 -5.9308 -2.5000 0.9739
1.6994 -5.8672 -2.5000 0.9739
1.9343 -5.7940 -2.5000 0.9739
2.3942 -5.6195 -2.5000 0.9739
2.8387 -5.4087 -2.5000 0.9739
3.6695 -4.8833 -2.5000 0.9739
3.8632 -4.7315 -2.5000 0.9739
4.0506 -4.5722 -2.5000 0.9739
4.2314 -4.4053 -2.5000 0.9739
5.6195 -2.3943 -2.5000 0.9739
5.7114 -2.1660 -2.5000 0.9739
5.7940 -1.9343 -2.5000 0.9739
5.8672 -1.6995 -2.5000 0.9739
5.9308 -1.4618 -2.5000 0.9739
6.0885 -0.4915 -2.5000 0.9739
6.1034 -0.2460 -2.5000 0.9739
6.1083 -0.0000 -2.5000 0.9739
5.9849 1.2218 -2.5000 0.9739
5.8672 1.6994 -2.5000 0.9739
5.7940 1.9343 -2.5000 0.9739
5.7114 2.1660 -2.5000 0.9739
5.6196 2.3942 -2.5000 0.9739
5.1537 2.7049 -2.3821 0.9752
4.9754 2.8725 -2.3513 0.9755
4.8480 3.0657 -2.3476 0.9755
4.5856 3.4458 -2.3476 0.9755
4.1368 3.9734 -2.3476 0.9755
3.8036 4.2934 -2.3476 0.9755
3.6277 4.4431 -2.3476 0.9755
3.4458 4.5856 -2.3476 0.9755
3.0655 4.8478 -2.3475 0.9755
2.8608 4.9550 -2.3417 0.9756
2.6665 5.0805 -2.3483 0.9755
2.3564 4.9659 -2.2496 0.9765
1.8830 4.9652 -2.1734 0.9773
1.5974 5.5149 -2.3499 0.9755
1.2235 4.9641 -2.0925 0.9781
-0.0000 4.9621 -2.0309 0.9788
-0.6024 4.9612 -2.0454 0.9786
-0.8062 4.9608 -2.0570 0.9785
-2.1127 4.9587 -2.2060 0.9770
-2.3528 4.9583 -2.2462 0.9766
-2.6021 4.9579 -2.2917 0.9761
-2.8555 4.9458 -2.3373 0.9756
-3.2584 4.7206 -2.3476 0.9755
-3.9734 4.1368 -2.3476 0.9755
-4.2934 3.8036 -2.3476 0.9755
-4.5856 3.4458 -2.3476 0.9755
-4.7206 3.2584 -2.3476 0.9755
-4.8480 3.0657 -2.3476 0.9755
-5.7114 2.1660 -2.5000 0.9739
-5.9308 1.4618 -2.5000 0.9739
-5.9849 1.2218 -2.5000 0.9739
-2.8591 0.4646 -1.1855 0.9876
-2.6602 0.3230 -1.0968 0.9885
-2.4020 -0.0000 -1.0468 0.9896
-2.4095 -0.2926 -1.0578 0.9895
-5.5696 -1.3728 -2.5000 0.9753
-5.1825 -2.4591 -2.5000 0.9753
-5.0792 -2.6658 -2.5000 0.9753
-4.9678 -2.8682 -2.5000 0.9753
-4.8483 -3.0659 -2.5000 0.9753
-4.7209 -3.2586 -2.5000 0.9753
-4.2937 -3.8039 -2.5000 0.9753
-3.9737 -4.1371 -2.5000 0.9753
-3.6279 -4.4434 -2.5000 0.9753
-3.0658 -4.8483 -2.5000 0.9753
-2.2484 -5.2773 -2.5000 0.9753
-2.0341 -5.3636 -2.5000 0.9753
-1.8165 -5.4411 -2.5000 0.9753
-1.5959 -5.5098 -2.5000 0.9753
-0.9201 -5.6620 -2.5000 0.9753
-0.2310 -5.7317 -2.5000 0.9753
0.2310 -5.7317 -2.5000 0.9753
0.4616 -5.7177 -2.5000 0.9753
0.6914 -5.6945 -2.5000 0.9753
0.9202 -5.6620 -2.5000 0.9753
2.0341 -5.3636 -2.5000 0.9753
2.4591 -5.1825 -2.5000 0.9753
2.6658 -5.0793 -2.5000 0.9753
2.8682 -4.9678 -2.5000 0.9753
3.0659 -4.8483 -2.5000 0.9753
4.9678 -2.8682 -2.5000 0.9753
5.2773 -2.2484 -2.5000 0.9753
5.3636 -2.0341 -2.5000 0.9753
5.4411 -1.8165 -2.5000 0.9753
5.5098 -1.5960 -2.5000 0.9753
5.5696 -1.3728 -2.5000 0.9753
5.6621 -0.9202 -2.5000 0.9753
5.7177 -0.4616 -2.5000 0.9753
5.6620 0.9202 -2.5000 0.9753
5.6204 1.1474 -2.5000 0.9753
5.5697 1.3728 -2.5000 0.9753
5.5099 1.5959 -2.5000 0.9753
5.4411 1.8165 -2.5000 0.9753
5.1825 2.4591 -2.5000 0.9753
4.4331 3.0600 -2.3476 0.9768
4.1725 3.4068 -2.3476 0.9768
3.8849 3.7314 -2.3476 0.9768
3.7315 3.8849 -2.3476 0.9768
3.2360 4.3063 -2.3476 0.9768
2.8790 4.5527 -2.3476 0.9768
2.6933 4.6650 -2.3476 0.9768
2.5033 4.7696 -2.3476 0.9768
2.3092 4.8665 -2.3475 0.9768
2.1106 4.9538 -2.3467 0.9768
1.8810 4.9598 -2.3118 0.9771
1.2235 4.9641 -2.2282 0.9779
0.8647 5.3205 -2.3492 0.9768
0.6498 5.3512 -2.3493 0.9768
0.4006 4.9628 -2.1699 0.9785
-0.2171 5.3865 -2.3494 0.9768
-0.6024 4.9612 -2.1780 0.9784
-0.8062 4.9608 -2.1904 0.9783
-1.0781 5.2810 -2.3490 0.9768
-1.2898 5.2329 -2.3489 0.9768
-1.8793 4.9553 -2.3097 0.9771
-2.6933 4.6649 -2.3476 0.9768
-2.8790 4.5527 -2.3476 0.9768
-3.0599 4.4331 -2.3476 0.9768
-3.4067 4.1725 -2.3476 0.9768
-3.5720 4.0319 -2.3476 0.9768
-4.4331 3.0600 -2.3476 0.9768
-4.5527 2.8790 -2.3476 0.9768
-4.7056 2.7168 -2.3680 0.9766
-5.4411 1.8165 -2.5000 0.9753
-5.5696 1.3728 -2.5000 0.9753
-5.6204 1.1474 -2.5000 0.9753
-2.4304 0.3950 -1.0731 0.9893
-2.4095 0.2926 -1.0578 0.9895
-2.4007 0.1938 -1.0497 0.9895
-2.4011 0.0967 -1.0473 0.9896
-2.2418 0.0000 -1.0377 0.9902
-2.2376 -0.1806 -1.0391 0.9902
-5.2439 -1.2925 -2.5000 0.9765
-5.1876 -1.5026 -2.5000 0.9765
-4.9687 -2.1170 -2.5000 0.9765
-4.7822 -2.5099 -2.5000 0.9765
-4.5648 -2.8866 -2.5000 0.9765
-4.3177 -3.2446 -2.5000 0.9765
-4.1835 -3.4158 -2.5000 0.9765
-4.0426 -3.5814 -2.5000 0.9765
-3.8951 -3.7413 -2.5000 0.9765
-3.7413 -3.8951 -2.5000 0.9765
-3.5814 -4.0426 -2.5000 0.9765
-3.2445 -4.3177 -2.5000 0.9765
-3.0680 -4.4448 -2.5000 0.9765
-2.7004 -4.6773 -2.5000 0.9765
-2.1170 -4.9687 -2.5000 0.9765
-1.5026 -5.1876 -2.5000 0.9765
-0.4346 -5.3834 -2.5000 0.9765
0.0000 -5.4009 -2.5000 0.9765
0.4346 -5.3834 -2.5000 0.9765
1.0803 -5.2917 -2.5000 0.9765
1.9152 -5.0499 -2.5000 0.9765
2.1170 -4.9687 -2.5000 0.9765
2.3153 -4.8794 -2.5000 0.9765
2.5099 -4.7822 -2.5000 0.9765
2.7004 -4.6773 -2.5000 0.9765
3.5815 -4.0426 -2.5000 0.9765
4.0426 -3.5814 -2.5000 0.9765
4.3177 -3.2445 -2.5000 0.9765
4.4449 -3.0680 -2.5000 0.9765
4.5648 -2.8866 -2.5000 0.9765
4.7822 -2.5099 -2.5000 0.9765
5.0499 -1.9152 -2.5000 0.9765
5.1877 -1.5026 -2.5000 0.9765
5.2917 -1.0803 -2.5000 0.9765
5.3615 -0.6510 -2.5000 0.9765
5.3834 -0.4346 -2.5000 0.9765
5.3965 -0.2175 -2.5000 0.9765
5.3965 0.2175 -2.5000 0.9765
5.3833 0.4346 -2.5000 0.9765
5.2917 1.0803 -2.5000 0.9765
5.2440 1.2925 -2.5000 0.9765
5.1876 1.5026 -2.5000 0.9765
5.0499 1.9152 -2.5000 0.9765
4.7823 2.5099 -2.5000 0.9765
4.1739 2.8810 -2.3476 0.9779
4.0545 3.0467 -2.3476 0.9779
3.3631 3.7962 -2.3476 0.9779
3.2075 3.9285 -2.3476 0.9779
3.0467 4.0545 -2.3476 0.9779
2.8811 4.1739 -2.3476 0.9779
2.5358 4.3922 -2.3476 0.9779
2.1742 4.5820 -2.3476 0.9779
1.4110 4.8713 -2.3476 0.9779
1.2138 4.9246 -2.3477 0.9779
1.0109 4.9521 -2.3395 0.9780
0.4006 4.9628 -2.3047 0.9783
0.2000 4.9625 -2.2989 0.9783
-0.0000 4.9621 -2.2969 0.9784
-0.2043 5.0690 -2.3483 0.9779
-0.6016 4.9549 -2.3104 0.9782
-0.8043 4.9492 -2.3209 0.9781
-1.0103 4.9488 -2.3380 0.9780
-1.2138 4.9246 -2.3477 0.9779
-1.4110 4.8713 -2.3475 0.9779
-1.7984 4.7421 -2.3476 0.9779
-1.9879 4.6658 -2.3476 0.9779
-2.1742 4.5820 -2.3476 0.9779
-2.7106 4.2865 -2.3476 0.9779
-2.8810 4.1739 -2.3476 0.9779
-3.0467 4.0545 -2.3476 0.9779
-3.5132 3.6577 -2.3476 0.9779
-3.6577 3.5133 -2.3476 0.9779
-3.9285 3.2075 -2.3476 0.9779
-4.0545 3.0467 -2.3476 0.9779
-4.8794 2.3153 -2.5000 0.9765
-4.9687 2.1170 -2.5000 0.9765
-5.1229 1.7103 -2.5000 0.9765
-5.1876 1.5026 -2.5000 0.9765
-5.2439 1.2925 -2.5000 0.9765
-2.3009 0.4697 -1.0870 0.9897
-2.2422 0.2722 -1.0455 0.9901
-2.2399 0.0903 -1.0377 0.9902
-2.0970 -0.0845 -1.0295 0.9907
-2.0926 -0.1689 -1.0298 0.9907
-4.6887 -1.9977 -2.5000 0.9775
-4.6045 -2.1849 -2.5000 0.9775
-4.5128 -2.3685 -2.5000 0.9775
-4.4138 -2.5483 -2.5000 0.9775
-4.3076 -2.7239 -2.5000 0.9775
-4.0744 -3.0617 -2.5000 0.9775
-3.9478 -3.2233 -2.5000 0.9775
-3.8148 -3.3796 -2.5000 0.9775
-3.3796 -3.8148 -2.5000 0.9775
-3.0617 -4.0744 -2.5000 0.9775
-2.7240 -4.3076 -2.5000 0.9775
-2.5483 -4.4138 -2.5000 0.9775
-2.3685 -4.5128 -2.5000 0.9775
-2.1849 -4.6045 -2.5000 0.9775
-1.4179 -4.8953 -2.5000 0.9775
-1.2197 -4.9485 -2.5000 0.9775
-1.0195 -4.9936 -2.5000 0.9775
-0.4101 -5.0800 -2.5000 0.9775
-0.2052 -5.0924 -2.5000 0.9775
0.4101 -5.0800 -2.5000 0.9775
0.6143 -5.0594 -2.5000 0.9775
0.8175 -5.0306 -2.5000 0.9775
1.9977 -4.6887 -2.5000 0.9775
2.8952 -4.1944 -2.5000 0.9775
3.0617 -4.0744 -2.5000 0.9775
3.3797 -3.8148 -2.5000 0.9775
3.6757 -3.5305 -2.5000 0.9775
3.8148 -3.3796 -2.5000 0.9775
3.9478 -3.2233 -2.5000 0.9775
4.0744 -3.0617 -2.5000 0.9775
4.1944 -2.8952 -2.5000 0.9775
4.3076 -2.7239 -2.5000 0.9775
4.4137 -2.5483 -2.5000 0.9775
4.6045 -2.1849 -2.5000 0.9775
4.6887 -1.9977 -2.5000 0.9775
4.7654 -1.8073 -2.5000 0.9775
4.8954 -1.4180 -2.5000 0.9775
4.9936 -1.0194 -2.5000 0.9775
5.0594 -0.6143 -2.5000 0.9775
5.0800 -0.4101 -2.5000 0.9775
5.0306 0.8176 -2.5000 0.9775
4.8954 1.4179 -2.5000 0.9775
4.7654 1.8073 -2.5000 0.9775
4.6887 1.9977 -2.5000 0.9775
4.6045 2.1848 -2.5000 0.9775
4.5128 2.3685 -2.5000 0.9775
3.7072 3.0268 -2.3476 0.9789
3.5823 3.1736 -2.3476 0.9789
3.4516 3.3153 -2.3476 0.9789
3.3153 3.4516 -2.3476 0.9789
3.1736 3.5823 -2.3476 0.9789
3.0268 3.7072 -2.3476 0.9789
2.7187 3.9387 -2.3476 0.9789
2.5579 4.0450 -2.3476 0.9789
2.2241 4.2377 -2.3476 0.9789
1.6971 4.4749 -2.3476 0.9789
1.5155 4.5396 -2.3476 0.9789
1.1453 4.6468 -2.3476 0.9789
0.7677 4.7239 -2.3476 0.9789
0.3851 4.7704 -2.3476 0.9789
0.1927 4.7820 -2.3476 0.9789
-0.0000 4.7859 -2.3476 0.9789
-0.3851 4.7704 -2.3476 0.9789
-0.7677 4.7239 -2.3476 0.9789
-0.9573 4.6892 -2.3476 0.9789
-1.1453 4.6468 -2.3476 0.9789
-1.3315 4.5969 -2.3476 0.9789
-2.2241 4.2377 -2.3476 0.9789
-2.5579 4.0450 -2.3476 0.9789
-2.7187 3.9387 -2.3476 0.9789
-2.8751 3.8260 -2.3476 0.9789
-3.0268 3.7072 -2.3476 0.9789
-3.3153 3.4516 -2.3476 0.9789
-3.7071 3.0268 -2.3476 0.9789
-3.9492 2.7260 -2.3539 0.9788
-4.2643 2.6966 -2.4749 0.9778
-4.5128 2.3685 -2.5000 0.9775
-4.7654 1.8073 -2.5000 0.9775
-4.8343 1.6139 -2.5000 0.9775
-4.8953 1.4179 -2.5000 0.9775
-4.9485 1.2197 -2.5000 0.9775
-2.1259 0.4340 -1.0643 0.9904
-2.0926 0.1689 -1.0298 0.9907
-2.0970 0.0845 -1.0295 0.9907
-1.9780 0.0000 -1.0261 0.9911
-1.9769 -0.0797 -1.0264 0.9911
-1.9739 -0.2397 -1.0315 0.9911
-1.9734 -0.3207 -1.0372 0.9910
-4.5058 -1.7088 -2.5000 0.9785
-4.4333 -1.8889 -2.5000 0.9785
-4.3537 -2.0658 -2.5000 0.9785
-4.2670 -2.2395 -2.5000 0.9785
-3.9659 -2.7375 -2.5000 0.9785
-3.8525 -2.8950 -2.5000 0.9785
-3.0477 -3.7328 -2.5000 0.9785
-2.7375 -3.9659 -2.5000 0.9785
-2.4095 -4.1733 -2.5000 0.9785
-2.0658 -4.3537 -2.5000 0.9785
-1.5260 -4.5710 -2.5000 0.9785
-1.1533 -4.6789 -2.5000 0.9785
-0.9639 -4.7216 -2.5000 0.9785
-0.7730 -4.7566 -2.5000 0.9785
-0.5808 -4.7838 -2.5000 0.9785
-0.3878 -4.8033 -2.5000 0.9785
-0.1940 -4.8151 -2.5000 0.9785
-0.0000 -4.8190 -2.5000 0.9785
0.1940 -4.8151 -2.5000 0.9785
0.5809 -4.7838 -2.5000 0.9785
0.7730 -4.7566 -2.5000 0.9785
0.9639 -4.7216 -2.5000 0.9785
1.1533 -4.6789 -2.5000 0.9785
1.5260 -4.5710 -2.5000 0.9785
1.7088 -4.5058 -2.5000 0.9785
2.0658 -4.3537 -2.5000 0.9785
2.2395 -4.2670 -2.5000 0.9785
2.7375 -3.9659 -2.5000 0.9785
3.1956 -3.6071 -2.5000 0.9785
3.4755 -3.3382 -2.5000 0.9785
3.7328 -3.0477 -2.5000 0.9785
3.8525 -2.8950 -2.5000 0.9785
4.2670 -2.2395 -2.5000 0.9785
4.3537 -2.0659 -2.5000 0.9785
4.4334 -1.8889 -2.5000 0.9785
4.5710 -1.5260 -2.5000 0.9785
4.6287 -1.3407 -2.5000 0.9785
4.8190 0.0000 -2.5000 0.9785
4.8033 0.3878 -2.5000 0.9785
4.7838 0.5809 -2.5000 0.9785
4.7216 0.9639 -2.5000 0.9785
4.6790 1.1533 -2.5000 0.9785
4.6287 1.3407 -2.5000 0.9785
4.5710 1.5260 -2.5000 0.9785
4.1734 2.4095 -2.5000 0.9785
4.0729 2.5756 -2.5000 0.9785
3.9000 2.6919 -2.4584 0.9789
3.6223 2.7220 -2.3507 0.9798
3.5053 2.8619 -2.3476 0.9798
3.3872 3.0008 -2.3476 0.9798
3.2636 3.1347 -2.3476 0.9798
2.7185 3.6176 -2.3476 0.9798
2.5706 3.7242 -2.3476 0.9798
2.4186 3.8247 -2.3476 0.9798
1.7737 4.1631 -2.3476 0.9798
1.4330 4.2923 -2.3476 0.9798
1.2590 4.3465 -2.3476 0.9798
1.0830 4.3937 -2.3476 0.9798
0.7259 4.4666 -2.3476 0.9798
0.3641 4.5105 -2.3476 0.9798
0.1822 4.5216 -2.3476 0.9798
-0.0000 4.5252 -2.3476 0.9798
-0.3641 4.5105 -2.3476 0.9798
-0.5454 4.4922 -2.3476 0.9798
-1.4330 4.2923 -2.3476 0.9798
-1.7737 4.1631 -2.3476 0.9798
-1.9399 4.0883 -2.3476 0.9798
-2.1030 4.0069 -2.3476 0.9798
-2.2626 3.9189 -2.3476 0.9798
-2.5706 3.7242 -2.3476 0.9798
-3.1347 3.2636 -2.3476 0.9798
-3.3872 3.0008 -2.3476 0.9798
-3.5052 2.8619 -2.3476 0.9798
-4.2670 2.2395 -2.5000 0.9785
-4.3537 2.0659 -2.5000 0.9785
-4.5058 1.7088 -2.5000 0.9785
-4.6287 1.3407 -2.5000 0.9785
-2.4132 0.5948 -1.2894 0.9889
-1.9734 0.3207 -1.0372 0.9910
-1.9739 0.2397 -1.0315 0.9911
-1.9729 0.1593 -1.0269 0.9911
-1.8752 -0.2277 -1.0346 0.9914
-1.8739 -0.3045 -1.0398 0.9914
-4.3842 -1.2699 -2.5000 0.9794
-4.3296 -1.4454 -2.5000 0.9794
-4.2679 -1.6186 -2.5000 0.9794
-4.1238 -1.9567 -2.5000 0.9794
-4.0416 -2.1212 -2.5000 0.9794
-3.9530 -2.2822 -2.5000 0.9794
-3.7565 -2.5929 -2.5000 0.9794
-3.6491 -2.7421 -2.5000 0.9794
-3.5357 -2.8868 -2.5000 0.9794
-3.4166 -3.0268 -2.5000 0.9794
-3.2919 -3.1619 -2.5000 0.9794
-3.1619 -3.2919 -2.5000 0.9794
-2.8868 -3.5357 -2.5000 0.9794
-2.4396 -3.8579 -2.5000 0.9794
-2.1212 -4.0417 -2.5000 0.9794
-1.9567 -4.1238 -2.5000 0.9794
-1.7891 -4.1992 -2.5000 0.9794
-1.6186 -4.2679 -2.5000 0.9794
-1.0924 -4.4319 -2.5000 0.9794
-0.9130 -4.4722 -2.5000 0.9794
-0.7322 -4.5054 -2.5000 0.9794
0.1838 -4.5608 -2.5000 0.9794
0.7322 -4.5054 -2.5000 0.9794
0.9130 -4.4722 -2.5000 0.9794
1.4454 -4.3296 -2.5000 0.9794
1.6186 -4.2679 -2.5000 0.9794
1.9568 -4.1238 -2.5000 0.9794
2.1212 -4.0417 -2.5000 0.9794
2.2822 -3.9530 -2.5000 0.9794
2.4396 -3.8579 -2.5000 0.9794
2.5929 -3.7565 -2.5000 0.9794
2.7421 -3.6491 -2.5000 0.9794
3.1619 -3.2919 -2.5000 0.9794
3.5357 -2.8868 -2.5000 0.9794
3.6490 -2.7421 -2.5000 0.9794
3.8579 -2.4396 -2.5000 0.9794
3.9530 -2.2822 -2.5000 0.9794
4.0417 -2.1212 -2.5000 0.9794
4.2679 -1.6186 -2.5000 0.9794
4.3296 -1.4454 -2.5000 0.9794
4.3843 -1.2699 -2.5000 0.9794
4.4318 -1.0924 -2.5000 0.9794
4.5054 -0.7322 -2.5000 0.9794
4.5608 -0.1838 -2.5000 0.9794
4.5497 0.3673 -2.5000 0.9794
4.5312 0.5502 -2.5000 0.9794
4.5054 0.7322 -2.5000 0.9794
4.4319 1.0924 -2.5000 0.9794
4.3843 1.2699 -2.5000 0.9794
4.2679 1.6186 -2.5000 0.9794
4.1238 1.9567 -2.5000 0.9794
3.9530 2.2822 -2.5000 0.9794
3.8579 2.4396 -2.5000 0.9794
3.7565 2.5929 -2.5000 0.9794
3.5835 2.6928 -2.4551 0.9798
3.3297 2.7186 -2.3544 0.9806
3.2083 2.8423 -2.3476 0.9806
2.9692 3.0912 -2.3476 0.9806
2.7108 3.3201 -2.3476 0.9806
2.5749 3.4266 -2.3476 0.9806
1.9919 3.7953 -2.3476 0.9806
1.8375 3.8724 -2.3476 0.9806
1.5199 4.0077 -2.3476 0.9806
1.3573 4.0656 -2.3476 0.9806
1.1925 4.1170 -2.3476 0.9806
1.0258 4.1617 -2.3476 0.9806
0.8574 4.1996 -2.3476 0.9806
0.5167 4.2550 -2.3476 0.9806
0.3449 4.2723 -2.3476 0.9806
0.1726 4.2828 -2.3476 0.9806
-0.1726 4.2828 -2.3476 0.9806
-0.6876 4.2307 -2.3476 0.9806
-1.1925 4.1170 -2.3476 0.9806
-1.3573 4.0656 -2.3476 0.9806
-1.5199 4.0077 -2.3476 0.9806
-1.9919 3.7953 -2.3476 0.9806
-2.2908 3.6227 -2.3476 0.9806
-2.5749 3.4266 -2.3476 0.9806
-2.8423 3.2083 -2.3476 0.9806
-2.9692 3.0912 -2.3476 0.9806
-3.2083 2.8423 -2.3476 0.9806
-3.3338 2.7220 -2.3573 0.9806
-3.7565 2.5929 -2.5000 0.9794
-3.8579 2.4396 -2.5000 0.9794
-3.9529 2.2822 -2.5000 0.9794
-4.0416 2.1212 -2.5000 0.9794
-4.1992 1.7891 -2.5000 0.9794
-4.3843 1.2699 -2.5000 0.9794
-1.8981 0.4678 -1.0707 0.9911
-1.8751 0.2277 -1.0346 0.9914
-1.7936 -0.0723 -1.0364 0.9917
-1.7902 -0.1445 -1.0369 0.9917
-1.7863 -0.2169 -1.0389 0.9917
-1.7819 -0.2896 -1.0423 0.9917
-1.7776 -0.3629 -1.0475 0.9917
-4.1073 -1.3712 -2.5000 0.9802
-4.0487 -1.5355 -2.5000 0.9802
-3.9836 -1.6973 -2.5000 0.9802
-3.7500 -2.1651 -2.5000 0.9802
-3.6598 -2.3143 -2.5000 0.9802
-3.5636 -2.4598 -2.5000 0.9802
-3.4617 -2.6013 -2.5000 0.9802
-3.2411 -2.8714 -2.5000 0.9802
-3.1229 -2.9996 -2.5000 0.9802
-2.8714 -3.2411 -2.5000 0.9802
-2.7385 -3.3541 -2.5000 0.9802
-2.4598 -3.5636 -2.5000 0.9802
-2.3143 -3.6598 -2.5000 0.9802
-2.0123 -3.8341 -2.5000 0.9802
-1.8563 -3.9120 -2.5000 0.9802
-1.5355 -4.0487 -2.5000 0.9802
-1.3712 -4.1073 -2.5000 0.9802
-1.2047 -4.1591 -2.5000 0.9802
-0.8661 -4.2426 -2.5000 0.9802
0.0000 -4.3301 -2.5000 0.9802
0.3484 -4.3161 -2.5000 0.9802
0.5219 -4.2985 -2.5000 0.9802
0.8661 -4.2426 -2.5000 0.9802
1.3712 -4.1073 -2.5000 0.9802
1.6973 -3.9836 -2.5000 0.9802
2.0123 -3.8341 -2.5000 0.9802
2.6013 -3.4617 -2.5000 0.9802
2.8714 -3.2411 -2.5000 0.9802
3.3541 -2.7386 -2.5000 0.9802
3.4617 -2.6013 -2.5000 0.9802
3.6598 -2.3143 -2.5000 0.9802
3.8341 -2.0123 -2.5000 0.9802
3.9836 -1.6972 -2.5000 0.9802
4.1073 -1.3712 -2.5000 0.9802
4.3161 -0.3484 -2.5000 0.9802
4.3266 -0.1744 -2.5000 0.9802
4.3266 0.1744 -2.5000 0.9802
4.2043 1.0363 -2.5000 0.9802
4.1592 1.2047 -2.5000 0.9802
4.0487 1.5355 -2.5000 0.9802
3.9836 1.6972 -2.5000 0.9802
3.2978 2.6926 -2.4580 0.9805
2.9325 2.8167 -2.3476 0.9814
2.8167 2.9325 -2.3476 0.9814
