ply
format ascii 1.0
element vertex 1575
property float32 x
property float32 y
property float32 z
property float32 I
end_header
-19.5171 -28.2754 -1.7424 0.8714
-24.5364 -38.8012 -2.3282 0.8320
-10.2552 -24.0699 -1.3269 0.9005
-6.4300 -22.1988 -1.1721 0.9116
-3.2508 -15.9233 -0.8242 0.9370
-1.8434 -45.7430 -2.3217 0.8325
1.0714 -26.5877 -1.3495 0.8989
3.6843 -45.6388 -2.3221 0.8324
5.5197 -45.4588 -2.3223 0.8324
7.3468 -45.2065 -2.3227 0.8324
10.9650 -44.4865 -2.3236 0.8323
9.4499 -28.3057 -1.5134 0.8873
12.5363 -26.4196 -1.4830 0.8895
24.6840 -39.0346 -2.3422 0.8311
10.7587 -15.5866 -0.9605 0.9270
11.6963 -15.5651 -0.9874 0.9250
25.6194 -24.6077 -1.8015 0.8674
20.5444 -15.4381 -1.3033 0.9022
43.6492 -22.9089 -2.5000 0.8208
44.4605 -21.0968 -2.4957 0.8211
45.3441 -15.1381 -2.4244 0.8258
47.0759 -13.6357 -2.4856 0.8218
48.2992 -9.8604 -2.5000 0.8208
49.1356 -3.9667 -2.5000 0.8208
49.2555 -1.9849 -2.5000 0.8208
46.7655 3.7753 -2.3794 0.8287
45.3552 9.2594 -2.3476 0.8308
44.9707 11.0843 -2.3489 0.8307
44.0755 14.7147 -2.3565 0.8302
18.8134 8.0156 -1.0371 0.9214
17.0881 8.1084 -0.9592 0.9270
15.5712 8.1724 -0.8918 0.9320
12.9614 8.1963 -0.7777 0.9404
12.4831 8.6165 -0.7692 0.9411
11.0745 9.0420 -0.7251 0.9443
9.2714 9.6526 -0.6788 0.9478
6.6627 9.6526 -0.5948 0.9541
5.4787 8.6639 -0.5199 0.9598
4.2512 8.1001 -0.4639 0.9640
3.8720 8.1602 -0.4581 0.9645
3.5608 8.3575 -0.4607 0.9643
2.9657 8.8834 -0.4750 0.9632
2.7878 9.6247 -0.5082 0.9607
1.8912 9.2637 -0.4795 0.9628
1.5733 9.6811 -0.4974 0.9615
1.1757 9.6826 -0.4947 0.9617
-0.0000 9.6811 -0.4910 0.9620
-0.3902 9.6812 -0.4914 0.9619
-1.1331 9.3317 -0.4767 0.9631
-3.4538 8.1063 -0.4469 0.9653
-3.8650 8.1453 -0.4572 0.9645
-24.3495 38.5055 -2.3105 0.8332
-28.9327 35.4361 -2.3200 0.8326
-29.1517 32.9055 -2.2295 0.8386
-28.9235 30.1125 -2.1175 0.8460
-31.2749 30.0399 -2.1992 0.8406
-10.2447 7.6983 -0.6499 0.9500
-23.6050 14.9269 -1.4164 0.8942
-29.4803 15.4725 -1.6885 0.8752
-29.7562 14.1195 -1.6703 0.8764
-29.3388 11.1267 -1.5913 0.8819
-29.3388 8.4981 -1.5491 0.8849
-29.3388 7.2314 -1.5324 0.8860
-46.1528 3.7258 -2.3482 0.8307
-34.0959 0.0000 -2.5000 0.8722
-33.9853 -2.7436 -2.5000 0.8722
-33.8473 -4.1098 -2.5000 0.8722
-32.7497 -9.4861 -2.5000 0.8722
-32.3412 -10.7971 -2.5000 0.8722
-31.0009 -13.2082 -2.4708 0.8736
-28.3553 -14.8820 -2.3480 0.8795
-27.7391 -16.0152 -2.3485 0.8794
-27.0825 -17.1260 -2.3495 0.8794
-26.3738 -18.2045 -2.3497 0.8794
-15.6565 -16.3001 -1.6572 0.9133
-14.3899 -16.2428 -1.5911 0.9166
-11.1603 -16.1684 -1.4405 0.9242
-9.2827 -16.0781 -1.3613 0.9282
-8.4531 -16.1060 -1.3337 0.9296
-7.6334 -16.0872 -1.3056 0.9311
-6.8464 -16.0690 -1.2807 0.9323
-6.0875 -16.0516 -1.2587 0.9335
-3.9442 -16.0022 -1.2084 0.9360
-3.2530 -15.9340 -1.1924 0.9369
-1.2869 -15.9410 -1.1726 0.9379
0.6406 -15.8966 -1.1665 0.9382
1.9266 -15.8670 -1.1719 0.9379
3.8997 -15.8215 -1.1948 0.9367
4.5782 -15.8059 -1.2066 0.9361
10.1901 -26.8691 -2.1070 0.8911
8.2512 -15.7213 -1.3018 0.9313
9.0390 -15.6561 -1.3255 0.9301
9.9172 -15.6829 -1.3605 0.9283
14.9593 -15.5743 -1.5834 0.9170
23.0929 -22.1810 -2.3478 0.8795
23.9779 -21.2425 -2.3488 0.8794
18.9531 -15.4748 -1.7941 0.9065
20.5444 -15.4381 -1.8843 0.9021
27.0609 -17.1123 -2.3476 0.8795
30.1905 -15.8452 -2.5000 0.8722
30.8041 -14.6167 -2.5000 0.8722
31.3676 -13.3645 -2.5000 0.8722
31.8803 -12.0906 -2.5000 0.8722
32.3413 -10.7971 -2.5000 0.8722
32.7498 -9.4861 -2.5000 0.8722
33.4069 -6.8201 -2.5000 0.8722
33.6544 -5.4694 -2.5000 0.8722
33.8474 -4.1098 -2.5000 0.8722
34.0683 1.3729 -2.5000 0.8722
33.9853 2.7436 -2.5000 0.8722
33.8473 4.1098 -2.5000 0.8722
33.4070 6.8201 -2.5000 0.8722
32.3414 10.7971 -2.5000 0.8722
17.2491 7.3492 -1.3748 0.9276
17.1269 8.1268 -1.3900 0.9268
15.6087 9.0117 -1.3215 0.9303
11.2402 8.4464 -1.0309 0.9452
10.3517 8.4519 -0.9799 0.9478
9.9513 8.8161 -0.9748 0.9481
6.9665 8.5325 -0.8077 0.9568
6.4600 8.5967 -0.7885 0.9578
6.0859 8.8169 -0.7855 0.9579
6.0522 9.5708 -0.8303 0.9556
4.3430 8.2749 -0.6852 0.9632
3.8720 8.1602 -0.6623 0.9644
3.5608 8.3575 -0.6661 0.9642
3.0259 9.0638 -0.7006 0.9624
1.8910 9.2628 -0.6932 0.9628
1.5733 9.6811 -0.7192 0.9614
-0.0000 9.6811 -0.7098 0.9619
-0.7823 9.6898 -0.7128 0.9618
-1.1329 9.3300 -0.6891 0.9630
-2.2426 9.0984 -0.6871 0.9631
-2.5234 8.7118 -0.6650 0.9643
-3.0958 8.1630 -0.6401 0.9656
-3.5144 8.2485 -0.6574 0.9647
-17.9418 28.3727 -2.4614 0.8740
-19.0697 27.6272 -2.4614 0.8740
-21.2309 26.0032 -2.4614 0.8740
-22.2608 25.1272 -2.4614 0.8740
-23.4345 22.5091 -2.3825 0.8778
-23.5720 20.8829 -2.3091 0.8813
-24.4175 19.9363 -2.3113 0.8812
-25.2246 18.9550 -2.3135 0.8811
-28.8066 13.6689 -2.3379 0.8800
-29.3556 12.5072 -2.3396 0.8799
-29.3388 9.7947 -2.2679 0.8833
-29.3388 7.2314 -2.2156 0.8859
-29.4566 6.0136 -2.2044 0.8864
-34.0683 1.3729 -2.5000 0.8722
-26.0307 0.0000 -2.4991 0.9007
-26.0168 -1.0484 -2.4998 0.9007
-25.9557 -2.0954 -2.5000 0.9006
-25.2835 -6.2318 -2.5000 0.9006
-25.0120 -7.2448 -2.5000 0.9006
-24.7000 -8.2461 -2.5000 0.9006
-23.9564 -10.2069 -2.5000 0.9006
-23.5260 -11.1632 -2.5000 0.9006
-23.0575 -12.1015 -2.5000 0.9006
-22.5515 -13.0201 -2.5000 0.9006
-20.9088 -13.2219 -2.3750 0.9054
-20.1243 -13.8908 -2.3476 0.9064
-12.2664 -16.3236 -1.9603 0.9212
-13.0699 -20.6684 -2.3477 0.9064
-9.2827 -16.0781 -1.7824 0.9281
-8.4531 -16.1060 -1.7463 0.9295
-7.6334 -16.0872 -1.7095 0.9309
-4.6397 -16.0182 -1.6010 0.9352
-3.2524 -15.9313 -1.5610 0.9368
-2.5956 -15.9711 -1.5534 0.9370
-2.9435 -24.2416 -2.3444 0.9065
-1.9649 -24.3398 -2.3443 0.9065
-0.9833 -24.3990 -2.3443 0.9065
0.0000 -24.4191 -2.3444 0.9065
1.9651 -24.3417 -2.3445 0.9065
2.9438 -24.2443 -2.3447 0.9065
3.9179 -24.1081 -2.3449 0.9065
3.2331 -15.8369 -1.5518 0.9371
4.5782 -15.8059 -1.5798 0.9360
9.5816 -22.4888 -2.3468 0.9064
7.5339 -15.8773 -1.6872 0.9318
8.2512 -15.7213 -1.7046 0.9311
9.9172 -15.6829 -1.7814 0.9281
11.7531 -15.6406 -1.8783 0.9244
12.7514 -15.6176 -1.9357 0.9222
14.9961 -15.6126 -2.0783 0.9167
17.6373 -16.9409 -2.3478 0.9064
18.3034 -16.2152 -2.3476 0.9064
20.1242 -13.8907 -2.3476 0.9064
22.5515 -13.0201 -2.5000 0.9006
23.5260 -11.1632 -2.5000 0.9006
23.9564 -10.2069 -2.5000 0.9006
25.0120 -7.2448 -2.5000 0.9006
25.7029 -4.1771 -2.5000 0.9006
25.8503 -3.1388 -2.5000 0.9006
25.9557 -2.0954 -2.5000 0.9006
26.0401 0.0000 -2.5000 0.9006
25.9557 2.0954 -2.5000 0.9006
24.2785 2.9480 -2.3480 0.9064
23.9585 4.8912 -2.3476 0.9064
23.4873 6.8032 -2.3476 0.9064
23.2022 7.7460 -2.3484 0.9064
15.6087 9.0117 -1.7303 0.9301
12.9614 8.1963 -1.4723 0.9402
12.4831 8.6165 -1.4562 0.9409
11.2402 8.4464 -1.3498 0.9451
10.3450 8.4465 -1.2822 0.9477
10.0494 9.6526 -1.3378 0.9455
9.2714 9.6526 -1.2849 0.9476
6.0317 8.7384 -1.0194 0.9582
6.0522 9.5708 -1.0871 0.9555
4.7107 8.1592 -0.9045 0.9628
4.2512 8.1001 -0.8782 0.9639
3.8720 8.1602 -0.8671 0.9644
3.2375 8.5367 -0.8765 0.9640
1.9806 8.0357 -0.7946 0.9673
1.5733 9.6811 -0.9416 0.9614
0.7815 9.6811 -0.9325 0.9617
-0.7816 9.6811 -0.9325 0.9617
-1.9649 9.6246 -0.9431 0.9613
-2.1954 8.9070 -0.8807 0.9638
-2.4742 8.5418 -0.8538 0.9649
-3.4538 8.1063 -0.8459 0.9652
-4.4213 8.4240 -0.9134 0.9625
-10.2516 17.7562 -1.9684 0.9209
-13.7028 21.6691 -2.4614 0.9021
-15.4020 20.4963 -2.4614 0.9021
-17.0013 19.1904 -2.4614 0.9021
-18.4904 17.7602 -2.4614 0.9021
-21.0998 14.5641 -2.4614 0.9021
-21.6692 13.7028 -2.4614 0.9021
-22.7015 11.9146 -2.4614 0.9021
-22.9718 10.9003 -2.4411 0.9029
-22.9368 9.7724 -2.3936 0.9047
-22.8755 7.6369 -2.3153 0.9076
-23.1012 6.6913 -2.3090 0.9079
-26.0190 1.0485 -2.5000 0.9006
-21.0291 -0.8475 -2.5000 0.9187
-20.9779 -1.6935 -2.5000 0.9187
-20.8927 -2.5368 -2.5000 0.9187
-20.6208 -4.2098 -2.5000 0.9187
-20.4346 -5.0367 -2.5000 0.9187
-18.6354 -9.7806 -2.5000 0.9187
-18.2265 -10.5231 -2.5000 0.9187
-14.9232 -13.2208 -2.3683 0.9228
-13.1054 -14.7929 -2.3476 0.9235
-12.4991 -15.3087 -2.3476 0.9235
-10.5674 -16.7110 -2.3486 0.9234
-9.1986 -17.5266 -2.3512 0.9234
-6.0875 -16.0516 -2.0392 0.9332
-5.3532 -16.0346 -2.0080 0.9342
-4.6397 -16.0182 -1.9809 0.9350
-3.9442 -16.0022 -1.9577 0.9358
-1.9521 -16.0772 -1.9238 0.9368
2.5762 -15.8520 -1.9077 0.9374
5.2714 -15.7899 -1.9774 0.9351
7.7587 -18.2103 -2.3513 0.9234
9.1965 -17.5225 -2.3507 0.9234
9.0147 -15.6140 -2.1416 0.9299
10.5644 -16.7062 -2.3479 0.9235
11.2269 -16.2651 -2.3476 0.9235
11.8726 -15.7995 -2.3476 0.9235
12.4991 -15.3086 -2.3476 0.9235
13.6904 -14.2532 -2.3476 0.9235
14.2532 -13.6904 -2.3476 0.9235
16.8252 -12.6433 -2.5000 0.9187
17.3206 -11.9556 -2.5000 0.9187
19.3620 -8.2494 -2.5000 0.9187
19.6785 -7.4630 -2.5000 0.9187
20.2152 -5.8554 -2.5000 0.9187
20.6208 -4.2098 -2.5000 0.9187
20.8927 -2.5368 -2.5000 0.9187
20.9779 -1.6935 -2.5000 0.9187
21.0291 -0.8474 -2.5000 0.9187
21.0461 0.0000 -2.5000 0.9187
20.9779 1.6935 -2.5000 0.9187
19.5072 3.1702 -2.3476 0.9235
19.1889 4.7296 -2.3476 0.9235
18.9829 5.4985 -2.3476 0.9235
17.1250 7.2963 -2.2112 0.9278
15.6096 8.1925 -2.0941 0.9315
15.6087 9.0117 -2.1409 0.9300
12.4831 8.6165 -1.8018 0.9407
10.0494 9.6526 -1.6552 0.9454
7.2759 8.2128 -1.3033 0.9568
6.1715 8.2128 -1.2203 0.9595
4.7440 8.2169 -1.1271 0.9625
4.2594 8.1157 -1.0887 0.9638
3.5608 8.3575 -1.0791 0.9641
3.2577 8.5898 -1.0913 0.9637
2.7878 9.6247 -1.1903 0.9604
1.1578 9.5357 -1.1410 0.9620
0.3238 8.0361 -0.9553 0.9681
-0.3868 9.5978 -1.1410 0.9620
-1.3042 8.0248 -0.9657 0.9678
-2.4906 8.5986 -1.0634 0.9646
-2.7920 8.3628 -1.0473 0.9651
-9.7346 16.8608 -2.3127 0.9246
-10.3975 16.4423 -2.3109 0.9246
-11.0427 15.9981 -2.3091 0.9247
-13.7408 15.5101 -2.4614 0.9199
-14.3541 14.9442 -2.4614 0.9199
-14.9442 14.3541 -2.4614 0.9199
-16.0508 13.1051 -2.4614 0.9199
-17.0533 11.7710 -2.4614 0.9199
-17.5134 11.0748 -2.4614 0.9199
-18.7207 8.8830 -2.4614 0.9199
-19.0632 8.1220 -2.4614 0.9199
-20.2464 4.9903 -2.4770 0.9194
-20.7558 3.3731 -2.4978 0.9188
-20.9690 1.6928 -2.4989 0.9188
-21.0248 0.8473 -2.4995 0.9187
-17.6441 0.0000 -2.5000 0.9312
-17.6298 -0.7105 -2.5000 0.9312
-16.9475 -4.9089 -2.5000 0.9312
-16.7361 -5.5873 -2.5000 0.9312
-16.4975 -6.2567 -2.5000 0.9312
-16.2322 -6.9159 -2.5000 0.9312
-15.9406 -7.5639 -2.5000 0.9312
-15.2803 -8.8221 -2.5000 0.9312
-14.5208 -10.0230 -2.5000 0.9312
-14.1055 -10.5996 -2.5000 0.9312
-13.6673 -11.1589 -2.5000 0.9312
-13.2068 -11.7002 -2.5000 0.9312
-12.2226 -12.7250 -2.5000 0.9312
-10.7858 -13.2102 -2.4164 0.9334
-9.9534 -13.2456 -2.3476 0.9353
-8.2843 -14.3488 -2.3476 0.9353
-6.4943 -15.2427 -2.3476 0.9353
-5.8754 -15.4922 -2.3476 0.9353
-5.2472 -15.7171 -2.3478 0.9352
-3.9658 -16.0899 -2.3480 0.9352
-3.2453 -15.8964 -2.2988 0.9366
-1.9976 -16.4519 -2.3482 0.9352
-1.3336 -16.5191 -2.3482 0.9352
0.6673 -16.5592 -2.3482 0.9352
1.3335 -16.5185 -2.3481 0.9352
1.9975 -16.4510 -2.3480 0.9352
3.3146 -16.2356 -2.3479 0.9352
5.2468 -15.7159 -2.3476 0.9353
7.6998 -14.6707 -2.3476 0.9353
8.8553 -14.0036 -2.3476 0.9353
9.9534 -13.2456 -2.3476 0.9353
10.7790 -13.2019 -2.4149 0.9335
11.6822 -13.1865 -2.4961 0.9313
12.2225 -12.7250 -2.5000 0.9312
13.2068 -11.7002 -2.5000 0.9312
14.1054 -10.5996 -2.5000 0.9312
14.9127 -9.4302 -2.5000 0.9312
15.2802 -8.8221 -2.5000 0.9312
15.6231 -8.1996 -2.5000 0.9312
15.9406 -7.5639 -2.5000 0.9312
16.2322 -6.9159 -2.5000 0.9312
17.1314 -4.2225 -2.5000 0.9312
17.2875 -3.5293 -2.5000 0.9312
17.6441 0.0000 -2.5000 0.9312
17.6298 0.7104 -2.5000 0.9312
17.5155 2.1268 -2.5000 0.9312
16.7275 2.7185 -2.4012 0.9338
16.2337 3.3141 -2.3476 0.9353
15.4918 5.8753 -2.3476 0.9353
15.2427 6.4943 -2.3476 0.9353
14.2995 8.2558 -2.3395 0.9355
11.3764 8.5488 -2.0163 0.9441
9.1593 8.1145 -1.7338 0.9518
8.3652 8.7091 -1.7110 0.9524
6.7055 8.2128 -1.5023 0.9581
6.1715 8.2128 -1.4556 0.9593
6.0317 8.7384 -1.5045 0.9580
6.0522 9.5708 -1.6045 0.9553
4.7107 8.1592 -1.3349 0.9627
2.7878 9.6247 -1.4198 0.9603
1.9306 7.8328 -1.1430 0.9679
1.7879 8.7581 -1.2665 0.9645
1.0750 8.8534 -1.2636 0.9646
0.7173 8.8856 -1.2631 0.9646
0.3168 7.8629 -1.1150 0.9687
-0.0000 8.9149 -1.2632 0.9646
-1.0760 8.8617 -1.2648 0.9646
-1.2512 7.6990 -1.1052 0.9690
-1.9649 9.6246 -1.3918 0.9611
-2.2426 9.0984 -1.3277 0.9629
-3.0958 8.1630 -1.2370 0.9653
-3.4538 8.1063 -1.2485 0.9650
-3.8872 8.1921 -1.2848 0.9640
-4.4213 8.4240 -1.3480 0.9623
-8.1669 14.1455 -2.3143 0.9361
-9.2755 13.4379 -2.3135 0.9362
-9.8029 13.0453 -2.3121 0.9362
-10.3140 12.6323 -2.3107 0.9362
-10.8079 12.1996 -2.3093 0.9363
-13.4563 10.9867 -2.4614 0.9322
-14.2967 9.8683 -2.4614 0.9322
-15.0444 8.6859 -2.4614 0.9322
-15.3819 8.0731 -2.4614 0.9322
-16.3305 6.1933 -2.4747 0.9319
-16.8261 4.8737 -2.4821 0.9317
-17.0752 4.2087 -2.4918 0.9314
-17.2770 3.5271 -2.4985 0.9312
-17.4077 2.8290 -2.4988 0.9312
-15.1754 0.0000 -2.5000 0.9403
-15.1631 -0.6111 -2.5000 0.9403
-15.1262 -1.2211 -2.5000 0.9403
-15.0648 -1.8292 -2.5000 0.9403
-14.9789 -2.4343 -2.5000 0.9403
-14.1893 -5.3813 -2.5000 0.9403
-13.9611 -5.9482 -2.5000 0.9403
-13.7102 -6.5056 -2.5000 0.9403
-13.1423 -7.5877 -2.5000 0.9403
-12.1319 -9.1165 -2.5000 0.9403
-11.7550 -9.5976 -2.5000 0.9403
-10.5124 -10.9445 -2.5000 0.9403
-9.5976 -11.7550 -2.5000 0.9403
-9.1165 -12.1319 -2.5000 0.9403
-8.1108 -12.8261 -2.5000 0.9403
-7.5877 -13.1423 -2.5000 0.9403
-5.6314 -13.2173 -2.3668 0.9434
-4.5126 -13.5169 -2.3476 0.9439
-3.9647 -13.6877 -2.3476 0.9439
-3.4104 -13.8362 -2.3476 0.9439
-1.7177 -14.1464 -2.3476 0.9439
-1.1467 -14.2041 -2.3476 0.9439
-0.5738 -14.2387 -2.3476 0.9439
-0.0000 -14.2503 -2.3476 0.9439
0.5738 -14.2388 -2.3476 0.9439
1.1467 -14.2041 -2.3476 0.9439
2.8504 -13.9623 -2.3476 0.9439
3.9647 -13.6877 -2.3476 0.9439
4.5126 -13.5169 -2.3476 0.9439
6.2658 -13.2050 -2.4079 0.9425
6.9258 -13.1960 -2.4551 0.9414
8.1107 -12.8261 -2.5000 0.9403
9.5976 -11.7550 -2.5000 0.9403
10.0632 -11.3589 -2.5000 0.9403
10.5124 -10.9445 -2.5000 0.9403
10.9445 -10.5124 -2.5000 0.9403
11.3588 -10.0632 -2.5000 0.9403
11.7549 -9.5976 -2.5000 0.9403
12.8261 -8.1107 -2.5000 0.9403
13.1423 -7.5877 -2.5000 0.9403
13.4371 -7.0524 -2.5000 0.9403
14.1892 -5.3813 -2.5000 0.9403
14.5762 -4.2221 -2.5000 0.9403
6.8904 -0.8366 -1.1435 0.9723
6.9207 -0.5587 -1.1438 0.9722
6.9904 -0.2817 -1.1525 0.9720
8.8798 0.0000 -1.4629 0.9646
15.1631 0.6110 -2.5000 0.9403
14.9789 2.4343 -2.5000 0.9403
13.9623 2.8504 -2.3476 0.9439
13.6877 3.9647 -2.3476 0.9439
13.3242 5.0532 -2.3476 0.9439
12.8744 6.1090 -2.3476 0.9439
12.6180 6.6224 -2.3476 0.9439
8.4886 8.1535 -1.9390 0.9534
7.2759 8.2128 -1.8076 0.9565
6.7055 8.2128 -1.7467 0.9579
6.1715 8.2128 -1.6924 0.9592
6.0317 8.7384 -1.7492 0.9579
6.0522 9.5708 -1.8655 0.9551
4.7107 8.1592 -1.5521 0.9625
4.3290 8.2482 -1.5346 0.9629
3.8720 8.1602 -1.4880 0.9640
3.5608 8.3575 -1.4966 0.9638
3.2802 8.6493 -1.5239 0.9632
3.0259 9.0638 -1.5742 0.9620
2.7878 9.6247 -1.6507 0.9602
1.8886 7.6625 -1.3001 0.9685
1.3946 8.5811 -1.4322 0.9654
1.0421 8.5826 -1.4243 0.9656
0.6211 7.6936 -1.2716 0.9692
0.3101 7.6959 -1.2688 0.9693
-0.0000 8.5837 -1.4141 0.9658
-0.3459 8.5823 -1.4150 0.9658
-0.6928 8.5809 -1.4182 0.9657
-1.9649 9.6246 -1.6182 0.9610
-2.2292 9.0442 -1.5345 0.9629
-3.5144 8.2485 -1.4771 0.9643
-3.8872 8.1921 -1.4938 0.9639
-7.5084 11.8736 -2.3143 0.9446
-7.9804 11.5616 -2.3143 0.9446
-9.3111 10.5100 -2.3131 0.9447
-9.7219 10.1216 -2.3120 0.9447
-10.4951 9.2978 -2.3099 0.9447
-11.9446 8.9758 -2.4614 0.9412
-12.2963 8.4875 -2.4614 0.9412
-12.6281 7.9855 -2.4614 0.9412
-13.2352 6.9464 -2.4624 0.9412
-13.5389 6.4243 -2.4687 0.9411
-14.0914 5.3441 -2.4827 0.9407
-14.5403 4.2116 -2.4938 0.9405
-14.8641 3.0345 -2.4992 0.9404
-14.9765 2.4339 -2.4996 0.9403
-15.0647 1.8292 -2.5000 0.9403
-15.1262 1.2211 -2.5000 0.9403
-15.1631 0.6111 -2.5000 0.9403
-13.2575 -1.0703 -2.5000 0.9473
-13.2036 -1.6032 -2.5000 0.9473
-12.7754 -3.7005 -2.5000 0.9473
-12.6161 -4.2119 -2.5000 0.9473
-12.0164 -5.7019 -2.5000 0.9473
-11.7771 -6.1811 -2.5000 0.9473
-11.2415 -7.1087 -2.5000 0.9473
-10.9462 -7.5556 -2.5000 0.9473
-9.9556 -8.8199 -2.5000 0.9473
-7.9902 -10.6330 -2.5000 0.9473
-7.5556 -10.9461 -2.5000 0.9473
-6.6503 -11.5186 -2.5000 0.9473
-6.1811 -11.7771 -2.5000 0.9473
-5.7019 -12.0164 -2.5000 0.9473
-5.2126 -12.2362 -2.5000 0.9473
-3.1831 -12.9141 -2.5000 0.9473
-0.0000 -13.1941 -2.4800 0.9477
0.5317 -13.1936 -2.4819 0.9477
1.6016 -13.1902 -2.4975 0.9474
2.1335 -13.1283 -2.5000 0.9473
2.6604 -13.0318 -2.5000 0.9473
3.1830 -12.9141 -2.5000 0.9473
5.2151 -12.2362 -2.5000 0.9473
6.1811 -11.7771 -2.5000 0.9473
6.6503 -11.5186 -2.5000 0.9473
7.5556 -10.9461 -2.5000 0.9473
7.9902 -10.6330 -2.5000 0.9473
8.4121 -10.3027 -2.5000 0.9473
8.8199 -9.9556 -2.5000 0.9473
9.5924 -9.2136 -2.5000 0.9473
10.3027 -8.4119 -2.5000 0.9473
10.6330 -7.9902 -2.5000 0.9473
11.2415 -7.1087 -2.5000 0.9473
11.5186 -6.6503 -2.5000 0.9473
11.7771 -6.1811 -2.5000 0.9473
12.0164 -5.7018 -2.5000 0.9473
12.7754 -3.7005 -2.5000 0.9473
12.9140 -3.1830 -2.5000 0.9473
6.5957 -1.0719 -1.2560 0.9732
6.5933 -0.8006 -1.2484 0.9733
6.6211 -0.5345 -1.2486 0.9733
6.6771 -0.2691 -1.2561 0.9732
6.7309 0.0000 -1.2652 0.9730
13.2898 0.5356 -2.5000 0.9473
13.2036 1.6032 -2.5000 0.9473
13.1283 2.1336 -2.5000 0.9473
13.0317 2.6605 -2.5000 0.9473
11.9966 3.4749 -2.3476 0.9504
11.8470 3.9551 -2.3476 0.9504
11.4903 4.8955 -2.3476 0.9504
10.8164 6.2449 -2.3476 0.9504
10.2471 7.0731 -2.3403 0.9506
9.1883 8.1402 -2.3073 0.9513
7.9185 8.2441 -2.1486 0.9545
6.0522 9.5708 -2.1284 0.9550
3.8720 8.1602 -1.6977 0.9639
3.5608 8.3575 -1.7075 0.9637
3.2963 8.6917 -1.7472 0.9629
2.7878 9.6247 -1.8834 0.9600
1.7140 8.3959 -1.6106 0.9657
1.3647 8.3973 -1.5991 0.9660
0.3036 7.5346 -1.4174 0.9698
-1.0194 8.3956 -1.5896 0.9662
-1.9649 9.6246 -1.8464 0.9608
-2.2426 9.0984 -1.7613 0.9626
-2.5234 8.7118 -1.7048 0.9638
-3.8872 8.1921 -1.7044 0.9638
-4.4213 8.4240 -1.7882 0.9620
-6.1590 10.6677 -2.3153 0.9511
-6.9945 10.1333 -2.3143 0.9511
-8.1649 9.2163 -2.3143 0.9511
-8.5294 8.8800 -2.3143 0.9511
-8.8791 8.5285 -2.3141 0.9511
-9.5291 7.7803 -2.3123 0.9512
-9.8311 7.3875 -2.3114 0.9512
-10.4020 6.5778 -2.3133 0.9511
-10.6859 6.1695 -2.3193 0.9510
-12.1687 5.1846 -2.4862 0.9476
-12.5933 4.2042 -2.4955 0.9474
-13.0309 2.6603 -2.4998 0.9473
-13.1283 2.1336 -2.5000 0.9473
-13.2575 1.0702 -2.5000 0.9473
-13.2898 0.5355 -2.5000 0.9473
-11.8174 -0.4762 -2.5000 0.9528
-11.5880 -2.3657 -2.5000 0.9528
-11.0584 -4.1939 -2.5000 0.9528
-10.8806 -4.6358 -2.5000 0.9528
-10.4723 -5.4963 -2.5000 0.9528
-9.9961 -6.3211 -2.5000 0.9528
-9.7334 -6.7185 -2.5000 0.9528
-9.4550 -7.1050 -2.5000 0.9528
-9.1613 -7.4799 -2.5000 0.9528
-8.8526 -7.8427 -2.5000 0.9528
-8.5297 -8.1928 -2.5000 0.9528
-8.1929 -8.5296 -2.5000 0.9528
-5.0701 -10.6851 -2.5000 0.9528
-3.7452 -11.2183 -2.5000 0.9528
-3.2905 -11.3600 -2.5000 0.9528
-2.8304 -11.4833 -2.5000 0.9528
-1.8972 -11.6738 -2.5000 0.9528
-0.9517 -11.7886 -2.5000 0.9528
-0.4762 -11.8174 -2.5000 0.9528
0.0000 -11.8270 -2.5000 0.9528
1.8971 -11.6738 -2.5000 0.9528
2.3657 -11.5880 -2.5000 0.9528
3.2905 -11.3600 -2.5000 0.9528
3.7452 -11.2183 -2.5000 0.9528
4.1939 -11.0584 -2.5000 0.9528
4.6359 -10.8806 -2.5000 0.9528
5.4963 -10.4723 -2.5000 0.9528
5.9133 -10.2425 -2.5000 0.9528
6.3212 -9.9960 -2.5000 0.9528
6.7185 -9.7334 -2.5000 0.9528
7.1049 -9.4550 -2.5000 0.9528
8.5296 -8.1928 -2.5000 0.9528
9.7334 -6.7185 -2.5000 0.9528
9.9960 -6.3211 -2.5000 0.9528
10.2425 -5.9135 -2.5000 0.9528
10.8806 -4.6358 -2.5000 0.9528
11.2183 -3.7452 -2.5000 0.9528
11.4833 -2.8304 -2.5000 0.9528
6.2725 -1.0194 -1.3433 0.9744
6.3076 -0.5092 -1.3376 0.9745
11.7407 1.4256 -2.5000 0.9528
11.5879 2.3657 -2.5000 0.9528
11.0214 2.7165 -2.3994 0.9547
10.6675 3.0899 -2.3476 0.9556
10.5344 3.5169 -2.3476 0.9556
10.3843 3.9382 -2.3476 0.9556
9.8339 5.1612 -2.3476 0.9556
9.6181 5.5530 -2.3476 0.9556
9.3867 5.9358 -2.3476 0.9556
9.1400 6.3089 -2.3476 0.9556
8.8786 6.6718 -2.3476 0.9556
7.6386 7.9526 -2.3309 0.9559
7.3138 8.2556 -2.3314 0.9559
4.7107 8.1592 -1.9915 0.9622
3.8720 8.1602 -1.9092 0.9637
3.2963 8.6917 -1.9649 0.9627
3.0259 9.0638 -2.0199 0.9617
1.6750 8.2048 -1.7701 0.9663
1.3336 8.2062 -1.7574 0.9666
0.5770 7.1482 -1.5159 0.9711
-0.0000 8.2085 -1.7351 0.9670
-0.3308 8.2072 -1.7362 0.9670
-0.6625 8.2058 -1.7402 0.9669
-0.9962 8.2045 -1.7470 0.9668
-2.5234 8.7118 -1.9172 0.9636
-3.0958 8.1630 -1.8454 0.9649
-3.8872 8.1921 -1.9167 0.9636
-4.4213 8.4240 -2.0110 0.9619
-6.2217 9.0137 -2.3151 0.9562
-6.9244 8.4809 -2.3143 0.9562
-8.1952 7.2603 -2.3143 0.9562
-9.5776 5.5296 -2.3377 0.9558
-10.0135 4.7514 -2.3428 0.9557
-10.8498 4.6226 -2.4929 0.9529
-11.0445 4.1886 -2.4968 0.9529
-11.2152 3.7442 -2.4993 0.9528
-11.3588 3.2901 -2.4997 0.9528
-11.5880 2.3657 -2.5000 0.9528
-11.6738 1.8972 -2.5000 0.9528
-11.7886 0.9517 -2.5000 0.9528
-10.6286 -0.4283 -2.5000 0.9572
-10.6027 -0.8559 -2.5000 0.9572
-10.5596 -1.2822 -2.5000 0.9572
-10.4222 -2.1277 -2.5000 0.9572
-10.2172 -2.9595 -2.5000 0.9572
-10.0898 -3.3685 -2.5000 0.9572
-9.9460 -3.7720 -2.5000 0.9572
-9.7860 -4.1694 -2.5000 0.9572
-8.5038 -6.3902 -2.5000 0.9572
-7.3687 -7.6716 -2.5000 0.9572
-7.0538 -7.9621 -2.5000 0.9572
-6.7275 -8.2396 -2.5000 0.9572
-5.6852 -8.9904 -2.5000 0.9572
-5.3186 -9.2121 -2.5000 0.9572
-4.5601 -9.6102 -2.5000 0.9572
-4.1695 -9.7860 -2.5000 0.9572
-3.3685 -10.0898 -2.5000 0.9572
-2.9595 -10.2172 -2.5000 0.9572
-2.5457 -10.3281 -2.5000 0.9572
-2.1277 -10.4222 -2.5000 0.9572
-1.2822 -10.5596 -2.5000 0.9572
-0.8559 -10.6027 -2.5000 0.9572
1.2821 -10.5596 -2.5000 0.9572
1.7063 -10.4995 -2.5000 0.9572
2.1277 -10.4222 -2.5000 0.9572
3.3685 -10.0898 -2.5000 0.9572
4.5601 -9.6102 -2.5000 0.9572
5.3186 -9.2121 -2.5000 0.9572
5.6852 -8.9904 -2.5000 0.9572
6.0426 -8.7542 -2.5000 0.9572
6.3902 -8.5038 -2.5000 0.9572
6.7274 -8.2396 -2.5000 0.9572
7.0538 -7.9621 -2.5000 0.9572
7.3686 -7.6716 -2.5000 0.9572
7.6716 -7.3686 -2.5000 0.9572
7.9620 -7.0538 -2.5000 0.9572
8.2396 -6.7274 -2.5000 0.9572
9.2121 -5.3186 -2.5000 0.9572
9.4187 -4.9433 -2.5000 0.9572
9.6102 -4.5601 -2.5000 0.9572
9.9459 -3.7720 -2.5000 0.9572
10.0898 -3.3685 -2.5000 0.9572
10.3281 -2.5457 -2.5000 0.9572
6.0736 -1.2399 -1.4569 0.9749
5.9410 -0.9655 -1.4146 0.9756
5.9229 -0.4782 -1.3965 0.9759
5.9983 -0.2417 -1.4109 0.9756
6.0848 0.0000 -1.4301 0.9753
10.6027 0.8559 -2.5000 0.9572
10.4995 1.7063 -2.5000 0.9572
10.4222 2.1277 -2.5000 0.9572
10.3281 2.5457 -2.5000 0.9572
9.5944 2.7791 -2.3476 0.9598
9.4747 3.1631 -2.3476 0.9598
9.0243 4.2821 -2.3476 0.9598
8.8446 4.6420 -2.3476 0.9598
8.6505 4.9944 -2.3476 0.9598
8.4424 5.3386 -2.3476 0.9598
7.7373 6.3173 -2.3476 0.9598
7.4767 6.6237 -2.3476 0.9598
5.9526 7.9215 -2.3288 0.9601
5.6296 8.1559 -2.3291 0.9601
4.7107 8.1592 -2.2143 0.9620
4.2576 8.1121 -2.1532 0.9631
3.8720 8.1602 -2.1228 0.9636
3.5608 8.3575 -2.1350 0.9634
3.2487 8.5662 -2.1532 0.9631
2.0469 7.0669 -1.7292 0.9702
1.8888 7.6633 -1.8550 0.9681
1.6371 8.0189 -1.9235 0.9669
0.9740 8.0216 -1.8991 0.9673
0.5703 7.0647 -1.6658 0.9713
-0.3233 8.0211 -1.8867 0.9676
-0.6474 8.0198 -1.8910 0.9675
-0.9736 8.0185 -1.8984 0.9674
-1.9649 9.6247 -2.3087 0.9604
-2.1954 8.9070 -2.1560 0.9630
-2.5234 8.7118 -2.1316 0.9634
-2.7920 8.3628 -2.0721 0.9644
-3.0958 8.1630 -2.0518 0.9648
-3.5144 8.2485 -2.1072 0.9638
-3.8872 8.1921 -2.1311 0.9634
-4.4213 8.4240 -2.2360 0.9617
-5.2679 8.3304 -2.3165 0.9603
-5.5977 8.1096 -2.3159 0.9603
-6.2298 7.6301 -2.3150 0.9603
-7.1625 6.8797 -2.3341 0.9600
-7.4685 6.6165 -2.3450 0.9598
-7.7310 6.3121 -2.3457 0.9598
-8.2173 5.6720 -2.3466 0.9598
-8.4411 5.3378 -2.3472 0.9598
-9.0243 4.2821 -2.3476 0.9598
-9.1894 3.9152 -2.3476 0.9598
-10.0895 3.3683 -2.4999 0.9572
-10.2172 2.9594 -2.5000 0.9572
-10.3281 2.5456 -2.5000 0.9572
-10.4222 2.1277 -2.5000 0.9572
-10.4995 1.7063 -2.5000 0.9572
-10.5597 1.2821 -2.5000 0.9572
-10.6027 0.8559 -2.5000 0.9572
-10.6286 0.4283 -2.5000 0.9572
-9.6477 -0.3888 -2.5000 0.9609
-9.6242 -0.7770 -2.5000 0.9609
-9.4604 -1.9314 -2.5000 0.9609
-9.2743 -2.6863 -2.5000 0.9609
-9.1586 -3.0576 -2.5000 0.9609
-8.8829 -3.7846 -2.5000 0.9609
-8.7233 -4.1392 -2.5000 0.9609
-8.5496 -4.4871 -2.5000 0.9609
-8.3619 -4.8278 -2.5000 0.9609
-8.1608 -5.1606 -2.5000 0.9609
-6.6886 -6.9636 -2.5000 0.9609
-6.1066 -7.4792 -2.5000 0.9609
-5.8005 -7.7190 -2.5000 0.9609
-5.1606 -8.1608 -2.5000 0.9609
-4.8278 -8.3619 -2.5000 0.9609
-4.4872 -8.5495 -2.5000 0.9609
-3.7846 -8.8829 -2.5000 0.9609
-3.4239 -9.0281 -2.5000 0.9609
-3.0576 -9.1586 -2.5000 0.9609
-2.3107 -9.3749 -2.5000 0.9609
-1.5489 -9.5305 -2.5000 0.9609
1.1639 -9.5851 -2.5000 0.9609
1.9313 -9.4604 -2.5000 0.9609
2.6864 -9.2743 -2.5000 0.9609
3.7846 -8.8829 -2.5000 0.9609
5.4850 -7.9463 -2.5000 0.9609
5.8005 -7.7190 -2.5000 0.9609
6.1066 -7.4792 -2.5000 0.9609
6.6886 -6.9636 -2.5000 0.9609
7.2272 -6.4028 -2.5000 0.9609
7.7190 -5.8005 -2.5000 0.9609
7.9463 -5.4850 -2.5000 0.9609
8.3619 -4.8278 -2.5000 0.9609
8.8829 -3.7846 -2.5000 0.9609
9.0281 -3.4239 -2.5000 0.9609
9.2743 -2.6863 -2.5000 0.9609
6.1597 -1.5182 -1.6426 0.9741
5.9017 -1.2049 -1.5596 0.9754
5.8543 -0.9514 -1.5357 0.9758
5.8507 -0.7104 -1.5260 0.9759
5.8621 -0.4732 -1.5227 0.9760
5.9219 -0.2387 -1.5345 0.9758
5.9933 -0.0000 -1.5518 0.9755
6.1873 0.2493 -1.6033 0.9747
9.6242 0.7769 -2.5000 0.9609
9.5851 1.1638 -2.5000 0.9609
9.4604 1.9314 -2.5000 0.9609
9.2743 2.6863 -2.5000 0.9609
8.3413 3.5539 -2.3476 0.9632
7.6632 4.8459 -2.3476 0.9632
7.4619 5.1506 -2.3476 0.9632
7.2485 5.4469 -2.3476 0.9632
7.0233 5.7343 -2.3476 0.9632
6.5391 6.2809 -2.3476 0.9632
6.2808 6.5391 -2.3476 0.9632
6.0125 6.7867 -2.3476 0.9632
5.7261 7.0132 -2.3442 0.9633
4.8033 7.5958 -2.3269 0.9635
4.4931 7.7823 -2.3267 0.9636
3.8527 8.1195 -2.3269 0.9635
3.5227 8.2682 -2.3270 0.9635
3.1870 8.4034 -2.3270 0.9635
2.8460 8.5248 -2.3270 0.9635
2.0493 7.0750 -1.9071 0.9700
1.8889 7.6638 -2.0437 0.9679
1.6001 7.8381 -2.0713 0.9675
0.9520 7.8407 -2.0450 0.9679
0.2850 7.0718 -1.8325 0.9712
-0.6328 7.8390 -2.0363 0.9680
-0.9517 7.8377 -2.0442 0.9679
-1.1496 7.0733 -1.8554 0.9708
-2.4906 8.5986 -2.3178 0.9637
-3.0958 8.1630 -2.2604 0.9646
-3.4747 8.1554 -2.2953 0.9640
-3.8377 8.0879 -2.3179 0.9637
-4.1590 7.9244 -2.3172 0.9637
-4.7821 7.5622 -2.3166 0.9637
-5.0821 7.3627 -2.3164 0.9637
-6.0125 6.7867 -2.3476 0.9632
-6.2809 6.5391 -2.3476 0.9632
-6.7867 6.0125 -2.3476 0.9632
-7.0233 5.7343 -2.3476 0.9632
-7.2485 5.4469 -2.3476 0.9632
-7.4619 5.1506 -2.3476 0.9632
-7.6633 4.8460 -2.3476 0.9632
-9.1586 3.0576 -2.5000 0.9609
-9.2743 2.6863 -2.5000 0.9609
-9.3750 2.3107 -2.5000 0.9609
-9.4604 1.9313 -2.5000 0.9609
-9.5304 1.5489 -2.5000 0.9609
-9.6242 0.7769 -2.5000 0.9609
-9.6477 0.3888 -2.5000 0.9609
-8.8238 -0.3556 -2.5000 0.9640
-8.8023 -0.7106 -2.5000 0.9640
-8.7666 -1.0645 -2.5000 0.9640
-8.5744 -2.1134 -2.5000 0.9640
-8.4823 -2.4569 -2.5000 0.9640
-8.1243 -3.4615 -2.5000 0.9640
-7.8195 -4.1039 -2.5000 0.9640
-6.8405 -5.5851 -2.5000 0.9640
-6.6101 -5.8560 -2.5000 0.9640
-6.3689 -6.1174 -2.5000 0.9640
-5.8560 -6.6101 -2.5000 0.9640
-5.5851 -6.8405 -2.5000 0.9640
-5.3051 -7.0599 -2.5000 0.9640
-4.7199 -7.4638 -2.5000 0.9640
-4.4155 -7.6479 -2.5000 0.9640
-4.1040 -7.8194 -2.5000 0.9640
-3.7858 -7.9783 -2.5000 0.9640
-3.4614 -8.1243 -2.5000 0.9640
-2.7965 -8.3765 -2.5000 0.9640
-2.4569 -8.4823 -2.5000 0.9640
-1.7664 -8.6525 -2.5000 0.9640
-1.4166 -8.7166 -2.5000 0.9640
-1.0645 -8.7666 -2.5000 0.9640
-0.7107 -8.8023 -2.5000 0.9640
-0.3556 -8.8238 -2.5000 0.9640
-0.0000 -8.8310 -2.5000 0.9640
0.7106 -8.8023 -2.5000 0.9640
2.4569 -8.4823 -2.5000 0.9640
2.7965 -8.3765 -2.5000 0.9640
3.1315 -8.2571 -2.5000 0.9640
4.1039 -7.8194 -2.5000 0.9640
4.4155 -7.6479 -2.5000 0.9640
4.7198 -7.4638 -2.5000 0.9640
5.0165 -7.2677 -2.5000 0.9640
5.5851 -6.8405 -2.5000 0.9640
5.8560 -6.6101 -2.5000 0.9640
6.1174 -6.3689 -2.5000 0.9640
6.3689 -6.1174 -2.5000 0.9640
6.6101 -5.8560 -2.5000 0.9640
6.8405 -5.5851 -2.5000 0.9640
7.0598 -5.3051 -2.5000 0.9640
7.4638 -4.7199 -2.5000 0.9640
7.6478 -4.4155 -2.5000 0.9640
7.9783 -3.7858 -2.5000 0.9640
8.2571 -3.1315 -2.5000 0.9640
8.3765 -2.7965 -2.5000 0.9640
8.4823 -2.4569 -2.5000 0.9640
5.7828 -0.9398 -1.6585 0.9759
5.7853 -0.7025 -1.6498 0.9761
6.0455 0.2436 -1.7128 0.9752
8.6525 1.7664 -2.5000 0.9640
8.5743 2.1134 -2.5000 0.9640
7.7537 2.9406 -2.3476 0.9661
7.4920 3.5550 -2.3476 0.9661
7.3428 3.8538 -2.3476 0.9661
7.0088 4.4321 -2.3476 0.9661
6.8247 4.7107 -2.3476 0.9661
6.2071 5.4990 -2.3476 0.9661
5.4990 6.2071 -2.3476 0.9661
5.2446 6.4235 -2.3476 0.9661
4.9817 6.6295 -2.3476 0.9661
4.7107 6.8247 -2.3476 0.9661
4.4288 7.0036 -2.3458 0.9661
4.1251 7.1450 -2.3356 0.9663
3.5217 7.4218 -2.3256 0.9664
3.2195 7.5564 -2.3252 0.9664
2.6002 7.7885 -2.3245 0.9664
2.0517 7.0832 -2.0876 0.9698
1.8842 7.6447 -2.2289 0.9678
-0.0000 7.6555 -2.1672 0.9687
-0.3085 7.6542 -2.1686 0.9687
-0.6178 7.6529 -2.1735 0.9686
-1.9610 7.9559 -2.3197 0.9665
-2.2793 7.8690 -2.3192 0.9665
-2.5939 7.7698 -2.3189 0.9665
-2.9043 7.6581 -2.3186 0.9665
-3.2099 7.5340 -2.3183 0.9665
-4.1243 7.1434 -2.3351 0.9663
-4.9817 6.6295 -2.3476 0.9661
-5.2446 6.4235 -2.3476 0.9661
-5.7445 5.9807 -2.3476 0.9661
-6.2071 5.4990 -2.3476 0.9661
-6.6295 4.9817 -2.3476 0.9661
-7.1816 4.1463 -2.3476 0.9661
-7.4920 3.5550 -2.3476 0.9661
-7.6291 3.2504 -2.3476 0.9661
-7.8977 2.9952 -2.3912 0.9655
-8.4823 2.4569 -2.5000 0.9640
-8.6525 1.7664 -2.5000 0.9640
-8.7166 1.4166 -2.5000 0.9640
-8.8023 0.7106 -2.5000 0.9640
-8.1280 0.0000 -2.5000 0.9666
-8.0227 -1.3038 -2.5000 0.9666
-7.9637 -1.6258 -2.5000 0.9666
-7.8918 -1.9452 -2.5000 0.9666
-7.7097 -2.5739 -2.5000 0.9666
-7.5998 -2.8822 -2.5000 0.9666
-7.4776 -3.1859 -2.5000 0.9666
-7.1970 -3.7773 -2.5000 0.9666
-6.6892 -4.6172 -2.5000 0.9666
-6.2960 -5.1405 -2.5000 0.9666
-6.0839 -5.3898 -2.5000 0.9666
-5.8619 -5.6304 -2.5000 0.9666
-5.3898 -6.0839 -2.5000 0.9666
-5.1405 -6.2960 -2.5000 0.9666
-4.8828 -6.4979 -2.5000 0.9666
-4.3441 -6.8697 -2.5000 0.9666
-4.0640 -7.0390 -2.5000 0.9666
-3.7772 -7.1970 -2.5000 0.9666
-2.8822 -7.5998 -2.5000 0.9666
-1.3038 -8.0227 -2.5000 0.9666
-0.6540 -8.1016 -2.5000 0.9666
-0.0000 -8.1280 -2.5000 0.9666
0.3273 -8.1214 -2.5000 0.9666
0.9797 -8.0687 -2.5000 0.9666
1.3038 -8.0227 -2.5000 0.9666
2.2613 -7.8071 -2.5000 0.9666
2.5739 -7.7097 -2.5000 0.9666
2.8822 -7.5998 -2.5000 0.9666
3.4844 -7.3432 -2.5000 0.9666
4.0640 -7.0390 -2.5000 0.9666
4.3441 -6.8697 -2.5000 0.9666
5.1405 -6.2960 -2.5000 0.9666
5.3898 -6.0839 -2.5000 0.9666
5.8619 -5.6304 -2.5000 0.9666
6.4978 -4.8828 -2.5000 0.9666
7.0390 -4.0640 -2.5000 0.9666
7.1970 -3.7772 -2.5000 0.9666
7.4775 -3.1859 -2.5000 0.9666
5.7445 -0.4637 -1.7726 0.9762
5.8496 0.0000 -1.7992 0.9758
5.9852 0.2412 -1.8424 0.9752
8.0687 0.9797 -2.5000 0.9666
7.9637 1.6258 -2.5000 0.9666
7.8918 1.9451 -2.5000 0.9666
7.7096 2.5738 -2.5000 0.9666
6.8955 3.2720 -2.3476 0.9686
6.6099 3.8162 -2.3476 0.9686
6.2814 4.3358 -2.3476 0.9686
5.7130 5.0612 -2.3476 0.9686
5.5045 5.2872 -2.3476 0.9686
5.2872 5.5046 -2.3476 0.9686
4.8271 5.9121 -2.3476 0.9686
4.0793 6.4509 -2.3476 0.9686
3.5470 6.7582 -2.3476 0.9686
2.6935 7.1021 -2.3363 0.9687
2.0541 7.0915 -2.2709 0.9696
1.8080 7.3356 -2.3238 0.9689
1.2116 7.4551 -2.3231 0.9689
0.5722 7.0884 -2.1873 0.9707
0.2856 7.0876 -2.1818 0.9708
-0.3016 7.4837 -2.3037 0.9691
-0.6041 7.4824 -2.3089 0.9691
-0.9084 7.4812 -2.3180 0.9690
-1.1522 7.0894 -2.2092 0.9704
-1.8051 7.3233 -2.3199 0.9689
-2.0982 7.2438 -2.3196 0.9689
-2.3972 7.1803 -2.3283 0.9688
-2.6957 7.1079 -2.3382 0.9687
-3.2720 6.8956 -2.3476 0.9686
-4.0793 6.4509 -2.3476 0.9686
-4.3358 6.2814 -2.3476 0.9686
-5.2872 5.5046 -2.3476 0.9686
-5.5046 5.2872 -2.3476 0.9686
-5.9122 4.8271 -2.3476 0.9686
-6.1017 4.5851 -2.3476 0.9686
-6.4509 4.0793 -2.3476 0.9686
-6.7582 3.5470 -2.3476 0.9686
-7.5346 2.8575 -2.4785 0.9668
-7.8071 2.2613 -2.5000 0.9666
-7.9637 1.6258 -2.5000 0.9666
-8.0227 1.3038 -2.5000 0.9666
-8.1016 0.6540 -2.5000 0.9666
-8.1214 0.3273 -2.5000 0.9666
-7.5148 -0.3029 -2.5000 0.9688
-7.4235 -1.2064 -2.5000 0.9688
-7.1338 -2.3816 -2.5000 0.9688
-7.0321 -2.6669 -2.5000 0.9688
-6.7948 -3.2242 -2.5000 0.9688
-6.5133 -3.7605 -2.5000 0.9688
-6.3566 -4.0197 -2.5000 0.9688
-6.1896 -4.2724 -2.5000 0.9688
-6.0125 -4.5181 -2.5000 0.9688
-5.8257 -4.7566 -2.5000 0.9688
-5.6295 -4.9873 -2.5000 0.9688
-5.4241 -5.2099 -2.5000 0.9688
-4.2723 -6.1896 -2.5000 0.9688
-3.7605 -6.5133 -2.5000 0.9688
-3.2242 -6.7948 -2.5000 0.9688
-1.7999 -7.3023 -2.5000 0.9688
-1.5044 -7.3689 -2.5000 0.9688
-0.9066 -7.4660 -2.5000 0.9688
-0.6052 -7.4965 -2.5000 0.9688
-0.3029 -7.5148 -2.5000 0.9688
0.9065 -7.4661 -2.5000 0.9688
1.5044 -7.3689 -2.5000 0.9688
1.7999 -7.3024 -2.5000 0.9688
2.0924 -7.2239 -2.5000 0.9688
2.9479 -6.9191 -2.5000 0.9688
3.2241 -6.7948 -2.5000 0.9688
3.4951 -6.6594 -2.5000 0.9688
4.0196 -6.3566 -2.5000 0.9688
4.5181 -6.0125 -2.5000 0.9688
5.2099 -5.4241 -2.5000 0.9688
5.6294 -4.9873 -2.5000 0.9688
5.8257 -4.7566 -2.5000 0.9688
6.0125 -4.5181 -2.5000 0.9688
6.1896 -4.2724 -2.5000 0.9688
6.3566 -4.0197 -2.5000 0.9688
6.9190 -2.9479 -2.5000 0.9688
7.0321 -2.6669 -2.5000 0.9688
7.2239 -2.0925 -2.5000 0.9688
5.8736 -1.4477 -2.0108 0.9748
5.7266 -1.1691 -1.9428 0.9757
5.6886 -0.9245 -1.9157 0.9760
5.6889 -0.6908 -1.9049 0.9761
5.7554 -0.2319 -1.9147 0.9760
7.4661 0.9065 -2.5000 0.9688
7.1338 2.3816 -2.5000 0.9688
6.2534 3.2821 -2.3476 0.9707
6.1162 3.5312 -2.3476 0.9707
5.6460 4.2427 -2.3476 0.9707
5.2863 4.6832 -2.3476 0.9707
5.0934 4.8923 -2.3476 0.9707
4.6832 5.2863 -2.3476 0.9707
4.4666 5.4706 -2.3476 0.9707
4.0119 5.8123 -2.3476 0.9707
3.7746 5.9691 -2.3476 0.9707
3.2821 6.2534 -2.3476 0.9707
1.9649 6.7836 -2.3476 0.9707
0.2839 7.0443 -2.3435 0.9707
-0.2839 7.0449 -2.3437 0.9707
-1.1330 6.9708 -2.3476 0.9707
-1.6902 6.8572 -2.3476 0.9707
-2.2365 6.6990 -2.3476 0.9707
-2.5044 6.6035 -2.3476 0.9707
-3.0276 6.3805 -2.3476 0.9707
-3.7746 5.9691 -2.3476 0.9707
-4.0119 5.8122 -2.3476 0.9707
-4.2427 5.6460 -2.3476 0.9707
-4.4666 5.4706 -2.3476 0.9707
-5.0934 4.8923 -2.3476 0.9707
-5.2863 4.6832 -2.3476 0.9707
-5.4706 4.4666 -2.3476 0.9707
-5.6460 4.2427 -2.3476 0.9707
-5.8123 4.0119 -2.3476 0.9707
-6.2535 3.2821 -2.3476 0.9707
-6.4973 2.7682 -2.3476 0.9707
-7.1338 2.3816 -2.5000 0.9688
-7.2240 2.0924 -2.5000 0.9688
-7.3024 1.7999 -2.5000 0.9688
-7.3689 1.5044 -2.5000 0.9688
-6.9909 0.0000 -2.5000 0.9707
-6.9852 -0.2815 -2.5000 0.9707
-6.8496 -1.3984 -2.5000 0.9707
-6.7878 -1.6730 -2.5000 0.9707
-6.7149 -1.9450 -2.5000 0.9707
-6.6311 -2.2138 -2.5000 0.9707
-6.5366 -2.4790 -2.5000 0.9707
-6.3159 -2.9969 -2.5000 0.9707
-5.9086 -3.7364 -2.5000 0.9707
-5.5888 -4.1997 -2.5000 0.9707
-5.0418 -4.8427 -2.5000 0.9707
-4.8428 -5.0418 -2.5000 0.9707
-3.7364 -5.9086 -2.5000 0.9707
-3.4954 -6.0543 -2.5000 0.9707
-2.9969 -6.3159 -2.5000 0.9707
-2.7402 -6.4315 -2.5000 0.9707
-2.2138 -6.6311 -2.5000 0.9707
-1.9450 -6.7149 -2.5000 0.9707
-1.6730 -6.7877 -2.5000 0.9707
-1.3984 -6.8496 -2.5000 0.9707
-0.8427 -6.9399 -2.5000 0.9707
-0.2815 -6.9852 -2.5000 0.9707
-0.0000 -6.9909 -2.5000 0.9707
0.5625 -6.9682 -2.5000 0.9707
0.8426 -6.9399 -2.5000 0.9707
1.3983 -6.8496 -2.5000 0.9707
2.4790 -6.5366 -2.5000 0.9707
2.7402 -6.4315 -2.5000 0.9707
3.2488 -6.1901 -2.5000 0.9707
3.7364 -5.9086 -2.5000 0.9707
3.9713 -5.7534 -2.5000 0.9707
4.1997 -5.5888 -2.5000 0.9707
5.4151 -4.4213 -2.5000 0.9707
5.5888 -4.1997 -2.5000 0.9707
5.9086 -3.7364 -2.5000 0.9707
6.0543 -3.4954 -2.5000 0.9707
6.1901 -3.2488 -2.5000 0.9707
6.3159 -2.9969 -2.5000 0.9707
6.4314 -2.7402 -2.5000 0.9707
6.7149 -1.9450 -2.5000 0.9707
5.7067 -0.4607 -2.0474 0.9760
5.7486 -0.2317 -2.0574 0.9759
6.9003 1.1214 -2.5000 0.9707
6.3428 2.7024 -2.4655 0.9711
5.6852 3.2824 -2.3476 0.9725
5.2481 3.9437 -2.3476 0.9725
4.9137 4.3532 -2.3476 0.9725
4.7345 4.5475 -2.3476 0.9725
3.7292 5.4026 -2.3476 0.9725
3.0507 5.8128 -2.3476 0.9725
2.5731 6.0394 -2.3476 0.9725
2.3279 6.1381 -2.3476 0.9725
1.8264 6.3055 -2.3476 0.9725
1.5710 6.3739 -2.3476 0.9725
1.3131 6.4320 -2.3476 0.9725
1.0530 6.4797 -2.3476 0.9725
0.5282 6.5434 -2.3476 0.9725
0.2643 6.5594 -2.3476 0.9725
-0.0000 6.5647 -2.3476 0.9725
-0.2643 6.5594 -2.3476 0.9725
-1.0531 6.4797 -2.3476 0.9725
-1.3131 6.4320 -2.3476 0.9725
-1.8264 6.3055 -2.3476 0.9725
-3.2824 5.6852 -2.3476 0.9725
-3.5086 5.5484 -2.3476 0.9725
-3.7292 5.4026 -2.3476 0.9725
-3.9437 5.2481 -2.3476 0.9725
-4.3532 4.9137 -2.3476 0.9725
-4.5475 4.7345 -2.3476 0.9725
-4.9137 4.3532 -2.3476 0.9725
-5.0851 4.1518 -2.3476 0.9725
-5.8128 3.0508 -2.3476 0.9725
-5.9309 2.8142 -2.3476 0.9725
-6.3327 2.6981 -2.4616 0.9712
-6.5366 2.4790 -2.5000 0.9707
-6.6311 2.2138 -2.5000 0.9707
-6.7149 1.9450 -2.5000 0.9707
-6.7877 1.6730 -2.5000 0.9707
-6.8496 1.3983 -2.5000 0.9707
-6.9004 1.1214 -2.5000 0.9707
-6.9399 0.8426 -2.5000 0.9707
-6.9682 0.5625 -2.5000 0.9707
-3.5687 -0.2881 -1.3720 0.9848
-3.5921 -0.4362 -1.3867 0.9846
-6.3918 -1.3049 -2.5000 0.9724
-6.3341 -1.5612 -2.5000 0.9724
-6.1879 -2.0658 -2.5000 0.9724
-6.0997 -2.3133 -2.5000 0.9724
-6.0017 -2.5571 -2.5000 0.9724
-5.8938 -2.7966 -2.5000 0.9724
-5.6497 -3.2618 -2.5000 0.9724
-5.5137 -3.4867 -2.5000 0.9724
-5.3689 -3.7059 -2.5000 0.9724
-5.0533 -4.1259 -2.5000 0.9724
-4.8830 -4.3260 -2.5000 0.9724
-4.7049 -4.5191 -2.5000 0.9724
-4.5191 -4.7049 -2.5000 0.9724
-4.3260 -4.8830 -2.5000 0.9724
-4.1259 -5.0533 -2.5000 0.9724
-3.4867 -5.5137 -2.5000 0.9724
-3.0317 -5.7764 -2.5000 0.9724
-2.3133 -6.0997 -2.5000 0.9724
-1.5612 -6.3341 -2.5000 0.9724
-1.3049 -6.3918 -2.5000 0.9724
-0.7863 -6.4761 -2.5000 0.9724
-0.5249 -6.5025 -2.5000 0.9724
-0.2627 -6.5184 -2.5000 0.9724
-0.0000 -6.5237 -2.5000 0.9724
0.2627 -6.5184 -2.5000 0.9724
0.5249 -6.5025 -2.5000 0.9724
1.5612 -6.3341 -2.5000 0.9724
2.3133 -6.0997 -2.5000 0.9724
2.7967 -5.8938 -2.5000 0.9724
3.0317 -5.7764 -2.5000 0.9724
4.1258 -5.0533 -2.5000 0.9724
4.3260 -4.8830 -2.5000 0.9724
4.5191 -4.7049 -2.5000 0.9724
4.7049 -4.5191 -2.5000 0.9724
5.2153 -3.9190 -2.5000 0.9724
5.7764 -3.0317 -2.5000 0.9724
5.8938 -2.7967 -2.5000 0.9724
6.0016 -2.5571 -2.5000 0.9724
6.2661 -1.8150 -2.5000 0.9724
5.6675 -0.9210 -2.2004 0.9757
5.6953 -0.6915 -2.1986 0.9757
5.7003 -0.4602 -2.1916 0.9758
6.5236 -0.0000 -2.5000 0.9724
6.4730 0.2608 -2.4826 0.9726
6.4761 0.7863 -2.5000 0.9724
6.4392 1.0465 -2.5000 0.9724
6.3918 1.3049 -2.5000 0.9724
6.2661 1.8150 -2.5000 0.9724
5.7114 2.7101 -2.4226 0.9733
5.4243 2.8469 -2.3476 0.9741
5.3052 3.0630 -2.3476 0.9741
5.1776 3.2741 -2.3476 0.9741
4.8974 3.6801 -2.3476 0.9741
4.5854 4.0623 -2.3476 0.9741
3.8743 4.7452 -2.3476 0.9741
3.2741 5.1776 -2.3476 0.9741
3.0630 5.3052 -2.3476 0.9741
2.8469 5.4243 -2.3476 0.9741
2.6261 5.5345 -2.3476 0.9741
2.4012 5.6358 -2.3476 0.9741
2.1723 5.7279 -2.3476 0.9741
1.9399 5.8107 -2.3476 0.9741
1.7043 5.8841 -2.3476 0.9741
0.7384 6.0813 -2.3476 0.9741
0.2467 6.1210 -2.3476 0.9741
-0.2467 6.1210 -2.3476 0.9741
-1.2254 6.0022 -2.3476 0.9741
-1.4661 5.9480 -2.3476 0.9741
-2.4012 5.6358 -2.3476 0.9741
-2.6262 5.5345 -2.3476 0.9741
-2.8469 5.4243 -2.3476 0.9741
-3.0630 5.3053 -2.3476 0.9741
-3.2741 5.1776 -2.3476 0.9741
-3.6802 4.8974 -2.3476 0.9741
-4.0623 4.5854 -2.3476 0.9741
-4.4181 4.2436 -2.3476 0.9741
-4.5854 4.0623 -2.3476 0.9741
-4.8974 3.6801 -2.3476 0.9741
-5.0416 3.4800 -2.3476 0.9741
-5.1776 3.2741 -2.3476 0.9741
-5.4243 2.8469 -2.3476 0.9741
-5.7032 2.7062 -2.4191 0.9733
-6.2661 1.8150 -2.5000 0.9724
-6.3341 1.5612 -2.5000 0.9724
-3.5589 0.1434 -1.3649 0.9849
-2.8160 -0.0000 -1.1525 0.9879
-2.8204 -0.1137 -1.1552 0.9879
-2.9323 -0.3560 -1.2089 0.9873
-3.0246 -0.4916 -1.2541 0.9868
-3.0070 -0.6139 -1.2561 0.9868
-5.8672 -1.6994 -2.5000 0.9739
-5.7940 -1.9343 -2.5000 0.9739
-5.7114 -2.1661 -2.5000 0.9739
-5.1627 -3.2647 -2.5000 0.9739
-4.8833 -3.6695 -2.5000 0.9739
-4.5722 -4.0506 -2.5000 0.9739
-4.2314 -4.4054 -2.5000 0.9739
-3.8632 -4.7316 -2.5000 0.9739
-3.2647 -5.1627 -2.5000 0.9739
-2.6186 -5.5186 -2.5000 0.9739
-2.1661 -5.7114 -2.5000 0.9739
-1.9343 -5.7940 -2.5000 0.9739
-0.9799 -6.0292 -2.5000 0.9739
-0.0000 -6.1083 -2.5000 0.9739
0.4915 -6.0885 -2.5000 0.9739
0.7362 -6.0638 -2.5000 0.9739
0.9798 -6.0292 -2.5000 0.9739
1.2218 -5.9849 -2.5000 0.9739
1.6994 -5.8672 -2.5000 0.9739
1.9343 -5.7940 -2.5000 0.9739
2.8387 -5.4087 -2.5000 0.9739
3.2647 -5.1627 -2.5000 0.9739
3.4699 -5.0271 -2.5000 0.9739
3.6695 -4.8833 -2.5000 0.9739
4.2314 -4.4053 -2.5000 0.9739
4.4053 -4.2314 -2.5000 0.9739
4.5721 -4.0506 -2.5000 0.9739
4.7315 -3.8632 -2.5000 0.9739
5.1627 -3.2647 -2.5000 0.9739
5.4086 -2.8387 -2.5000 0.9739
5.8671 -1.6994 -2.5000 0.9739
5.9309 -1.4618 -2.5000 0.9739
5.9849 -1.2218 -2.5000 0.9739
6.0292 -0.9799 -2.5000 0.9739
6.1034 0.2460 -2.5000 0.9739
6.0885 0.4915 -2.5000 0.9739
6.0638 0.7363 -2.5000 0.9739
5.9849 1.2218 -2.5000 0.9739
5.9308 1.4618 -2.5000 0.9739
5.8672 1.6994 -2.5000 0.9739
5.6195 2.3942 -2.5000 0.9739
5.5186 2.6186 -2.5000 0.9739
4.9675 2.8680 -2.3476 0.9755
4.7206 3.2584 -2.3476 0.9755
4.5856 3.4458 -2.3476 0.9755
3.6277 4.4431 -2.3476 0.9755
3.4458 4.5856 -2.3476 0.9755
3.2584 4.7206 -2.3476 0.9755
3.0657 4.8480 -2.3476 0.9755
2.6656 5.0789 -2.3476 0.9755
2.2483 5.2770 -2.3476 0.9755
2.0340 5.3632 -2.3476 0.9755
1.8164 5.4408 -2.3476 0.9755
1.5958 5.5095 -2.3476 0.9755
1.1473 5.6200 -2.3476 0.9755
0.6914 5.6941 -2.3476 0.9755
0.4615 5.7173 -2.3476 0.9755
-0.0000 5.7360 -2.3476 0.9755
-0.2310 5.7313 -2.3476 0.9755
-0.4616 5.7174 -2.3476 0.9755
-0.6914 5.6941 -2.3476 0.9755
-1.8164 5.4408 -2.3476 0.9755
-2.0340 5.3632 -2.3476 0.9755
-2.8680 4.9675 -2.3476 0.9755
-3.4458 4.5856 -2.3476 0.9755
-3.6277 4.4431 -2.3476 0.9755
-4.1368 3.9734 -2.3476 0.9755
-4.4431 3.6277 -2.3476 0.9755
-5.1675 2.7121 -2.3885 0.9751
-5.8673 1.6994 -2.5000 0.9739
-5.9308 1.4618 -2.5000 0.9739
-3.0070 0.6139 -1.2561 0.9868
-2.8096 0.2268 -1.1536 0.9879
-2.8204 0.1136 -1.1552 0.9879
-2.3650 -0.0000 -1.0307 0.9897
-2.4021 -0.3904 -1.0606 0.9894
-5.5099 -1.5960 -2.5000 0.9753
-5.4411 -1.8165 -2.5000 0.9753
-5.3636 -2.0341 -2.5000 0.9753
-5.2773 -2.2484 -2.5000 0.9753
-5.0793 -2.6658 -2.5000 0.9753
-4.4434 -3.6279 -2.5000 0.9753
-4.1371 -3.9737 -2.5000 0.9753
-3.9737 -4.1371 -2.5000 0.9753
-3.8039 -4.2937 -2.5000 0.9753
-3.2586 -4.7209 -2.5000 0.9753
-2.8682 -4.9678 -2.5000 0.9753
-2.6658 -5.0793 -2.5000 0.9753
-2.0341 -5.3636 -2.5000 0.9753
-1.8165 -5.4411 -2.5000 0.9753
-0.6915 -5.6945 -2.5000 0.9753
-0.2310 -5.7317 -2.5000 0.9753
0.2310 -5.7317 -2.5000 0.9753
0.4616 -5.7177 -2.5000 0.9753
0.6914 -5.6945 -2.5000 0.9753
0.9202 -5.6620 -2.5000 0.9753
1.1474 -5.6204 -2.5000 0.9753
1.8165 -5.4411 -2.5000 0.9753
2.0341 -5.3636 -2.5000 0.9753
2.2484 -5.2773 -2.5000 0.9753
2.4591 -5.1825 -2.5000 0.9753
2.6658 -5.0793 -2.5000 0.9753
2.8681 -4.9678 -2.5000 0.9753
3.2586 -4.7209 -2.5000 0.9753
3.4461 -4.5859 -2.5000 0.9753
3.8039 -4.2937 -2.5000 0.9753
4.2937 -3.8039 -2.5000 0.9753
4.5858 -3.4461 -2.5000 0.9753
4.8483 -3.0659 -2.5000 0.9753
4.9678 -2.8682 -2.5000 0.9753
5.1825 -2.4591 -2.5000 0.9753
5.3636 -2.0341 -2.5000 0.9753
5.4411 -1.8165 -2.5000 0.9753
5.5098 -1.5959 -2.5000 0.9753
5.5696 -1.3728 -2.5000 0.9753
5.6621 -0.9202 -2.5000 0.9753
5.6945 -0.6914 -2.5000 0.9753
5.7177 -0.4616 -2.5000 0.9753
5.7316 -0.2310 -2.5000 0.9753
5.7363 -0.0000 -2.5000 0.9753
5.7317 0.2310 -2.5000 0.9753
5.7177 0.4616 -2.5000 0.9753
5.6945 0.6914 -2.5000 0.9753
5.6620 0.9202 -2.5000 0.9753
5.6204 1.1474 -2.5000 0.9753
5.5696 1.3728 -2.5000 0.9753
5.5098 1.5959 -2.5000 0.9753
5.3635 2.0341 -2.5000 0.9753
5.2773 2.2484 -2.5000 0.9753
4.3063 3.2360 -2.3476 0.9768
4.0319 3.5720 -2.3476 0.9768
3.5720 4.0320 -2.3476 0.9768
3.2360 4.3063 -2.3476 0.9768
3.0599 4.4331 -2.3476 0.9768
2.8789 4.5527 -2.3476 0.9768
2.6933 4.6650 -2.3476 0.9768
2.5033 4.7696 -2.3476 0.9768
2.1114 4.9556 -2.3476 0.9768
1.9101 5.0366 -2.3476 0.9768
1.7058 5.1094 -2.3476 0.9768
0.6493 5.3474 -2.3476 0.9768
0.4334 5.3692 -2.3476 0.9768
0.2169 5.3823 -2.3476 0.9768
-0.0000 5.3866 -2.3476 0.9768
-0.2169 5.3823 -2.3476 0.9768
-0.4335 5.3692 -2.3476 0.9768
-0.6493 5.3474 -2.3476 0.9768
-0.8641 5.3169 -2.3476 0.9768
-1.7058 5.1094 -2.3476 0.9768
-3.0600 4.4331 -2.3476 0.9768
-3.4068 4.1725 -2.3476 0.9768
-3.5720 4.0320 -2.3476 0.9768
-3.7315 3.8848 -2.3476 0.9768
-4.1725 3.4068 -2.3476 0.9768
-4.3063 3.2360 -2.3476 0.9768
-4.4331 3.0600 -2.3476 0.9768
-4.5578 2.8821 -2.3502 0.9767
-5.5696 1.3728 -2.5000 0.9753
-2.4021 0.3904 -1.0606 0.9894
-2.2030 0.0000 -1.0198 0.9903
-2.3851 -0.5879 -1.1371 0.9892
-4.8794 -2.3153 -2.5000 0.9765
-4.7823 -2.5099 -2.5000 0.9765
-4.6773 -2.7004 -2.5000 0.9765
-4.5648 -2.8866 -2.5000 0.9765
-4.4449 -3.0681 -2.5000 0.9765
-4.0426 -3.5814 -2.5000 0.9765
-3.4158 -4.1836 -2.5000 0.9765
-3.0681 -4.4448 -2.5000 0.9765
-2.7004 -4.6773 -2.5000 0.9765
-2.3153 -4.8794 -2.5000 0.9765
-2.1170 -4.9687 -2.5000 0.9765
-1.7103 -5.1229 -2.5000 0.9765
-1.0803 -5.2917 -2.5000 0.9765
-0.6510 -5.3615 -2.5000 0.9765
-0.2175 -5.3965 -2.5000 0.9765
0.4346 -5.3834 -2.5000 0.9765
0.6510 -5.3615 -2.5000 0.9765
0.8663 -5.3309 -2.5000 0.9765
1.0803 -5.2917 -2.5000 0.9765
1.2926 -5.2439 -2.5000 0.9765
1.5027 -5.1876 -2.5000 0.9765
1.7103 -5.1229 -2.5000 0.9765
1.9152 -5.0499 -2.5000 0.9765
2.1169 -4.9687 -2.5000 0.9765
2.3153 -4.8794 -2.5000 0.9765
2.5099 -4.7822 -2.5000 0.9765
2.8866 -4.5648 -2.5000 0.9765
3.0680 -4.4448 -2.5000 0.9765
3.4157 -4.1836 -2.5000 0.9765
4.1835 -3.4158 -2.5000 0.9765
4.4448 -3.0681 -2.5000 0.9765
4.8794 -2.3153 -2.5000 0.9765
4.9687 -2.1170 -2.5000 0.9765
5.0499 -1.9152 -2.5000 0.9765
5.1229 -1.7103 -2.5000 0.9765
5.3615 -0.6510 -2.5000 0.9765
5.3834 -0.4346 -2.5000 0.9765
5.3965 -0.2175 -2.5000 0.9765
5.3834 0.4346 -2.5000 0.9765
5.3309 0.8664 -2.5000 0.9765
5.2917 1.0803 -2.5000 0.9765
5.1876 1.5026 -2.5000 0.9765
5.1230 1.7103 -2.5000 0.9765
4.7822 2.5099 -2.5000 0.9765
4.6698 2.6961 -2.4960 0.9765
4.3079 2.7241 -2.3593 0.9778
4.0545 3.0467 -2.3476 0.9779
3.9285 3.2075 -2.3476 0.9779
3.3631 3.7962 -2.3476 0.9779
3.2075 3.9285 -2.3476 0.9779
2.8810 4.1739 -2.3476 0.9779
2.3569 4.4907 -2.3476 0.9779
2.1742 4.5820 -2.3476 0.9779
1.9879 4.6658 -2.3476 0.9779
1.7984 4.7421 -2.3476 0.9779
1.2137 4.9243 -2.3476 0.9779
1.0145 4.9691 -2.3476 0.9779
0.8135 5.0060 -2.3476 0.9779
0.6113 5.0347 -2.3476 0.9779
0.4081 5.0552 -2.3476 0.9779
0.2042 5.0675 -2.3476 0.9779
0.0000 5.0717 -2.3476 0.9779
-0.4081 5.0552 -2.3476 0.9779
-1.7984 4.7421 -2.3476 0.9779
-1.9879 4.6658 -2.3476 0.9779
-2.1742 4.5820 -2.3476 0.9779
-2.3569 4.4907 -2.3476 0.9779
-2.5358 4.3922 -2.3476 0.9779
-2.7106 4.2865 -2.3476 0.9779
-2.8810 4.1739 -2.3476 0.9779
-3.3631 3.7962 -2.3476 0.9779
-3.5133 3.6577 -2.3476 0.9779
-3.6577 3.5133 -2.3476 0.9779
-3.9285 3.2075 -2.3476 0.9779
-4.1770 2.8831 -2.3493 0.9779
-4.3050 2.7223 -2.3577 0.9778
-4.8794 2.3153 -2.5000 0.9765
-5.0499 1.9152 -2.5000 0.9765
-5.1876 1.5026 -2.5000 0.9765
-2.2466 0.4586 -1.0614 0.9899
-2.0595 -0.0830 -1.0111 0.9909
-2.0571 -0.1661 -1.0123 0.9908
-2.0750 -0.3372 -1.0312 0.9907
-2.9436 -0.8526 -1.5032 0.9864
-4.7654 -1.8073 -2.5000 0.9775
-4.4138 -2.5483 -2.5000 0.9775
-4.3076 -2.7239 -2.5000 0.9775
-4.1944 -2.8952 -2.5000 0.9775
-3.9479 -3.2233 -2.5000 0.9775
-3.6757 -3.5305 -2.5000 0.9775
-3.3797 -3.8148 -2.5000 0.9775
-3.2233 -3.9478 -2.5000 0.9775
-2.5483 -4.4138 -2.5000 0.9775
-2.1849 -4.6045 -2.5000 0.9775
-1.8073 -4.7654 -2.5000 0.9775
-1.4180 -4.8954 -2.5000 0.9775
-1.2197 -4.9485 -2.5000 0.9775
-0.8176 -5.0306 -2.5000 0.9775
-0.0000 -5.0966 -2.5000 0.9775
0.2052 -5.0924 -2.5000 0.9775
0.4101 -5.0800 -2.5000 0.9775
1.2197 -4.9485 -2.5000 0.9775
1.4179 -4.8954 -2.5000 0.9775
1.6139 -4.8343 -2.5000 0.9775
1.8073 -4.7654 -2.5000 0.9775
2.7239 -4.3076 -2.5000 0.9775
2.8952 -4.1944 -2.5000 0.9775
3.0617 -4.0744 -2.5000 0.9775
3.3796 -3.8148 -2.5000 0.9775
3.5305 -3.6757 -2.5000 0.9775
3.6756 -3.5305 -2.5000 0.9775
3.9478 -3.2233 -2.5000 0.9775
4.1944 -2.8952 -2.5000 0.9775
4.3076 -2.7239 -2.5000 0.9775
4.7654 -1.8073 -2.5000 0.9775
4.9485 -1.2197 -2.5000 0.9775
5.0594 -0.6143 -2.5000 0.9775
5.0800 -0.4101 -2.5000 0.9775
5.0965 -0.0000 -2.5000 0.9775
5.0924 0.2052 -2.5000 0.9775
5.0800 0.4101 -2.5000 0.9775
5.0594 0.6143 -2.5000 0.9775
4.9484 1.2197 -2.5000 0.9775
4.8343 1.6139 -2.5000 0.9775
4.7654 1.8073 -2.5000 0.9775
4.6045 2.1849 -2.5000 0.9775
4.4138 2.5483 -2.5000 0.9775
4.2687 2.6994 -2.4774 0.9777
3.8355 2.8822 -2.3534 0.9789
3.7071 3.0268 -2.3476 0.9789
3.5823 3.1736 -2.3476 0.9789
3.3153 3.4516 -2.3476 0.9789
3.0268 3.7072 -2.3476 0.9789
2.8751 3.8260 -2.3476 0.9789
2.5579 4.0450 -2.3476 0.9789
2.2241 4.2377 -2.3476 0.9789
