ply
format ascii 1.0
element vertex 1573
property float32 x
property float32 y
property float32 z
property float32 I
end_header
13.4108 46.2993 -2.4445 0.8244
1.8346 7.4430 -0.3888 0.9698
1.4957 7.3264 -0.3792 0.9705
0.8944 7.3658 -0.3763 0.9707
1.8233 45.2431 -2.2963 0.8341
-5.4772 45.1091 -2.3045 0.8336
-5.2440 25.6868 -1.3296 0.9003
-5.2419 21.2671 -1.1108 0.9160
-5.2213 13.7675 -0.7467 0.9427
-5.8710 12.3729 -0.6945 0.9466
-4.2105 8.0224 -0.4595 0.9644
-4.3032 7.4534 -0.4365 0.9661
-4.9431 7.1613 -0.4413 0.9657
-9.2906 12.3636 -0.7843 0.9399
-10.9491 12.3590 -0.8374 0.9360
-12.8616 12.3538 -0.9044 0.9311
-13.9412 12.3508 -0.9446 0.9281
-15.1230 12.3476 -0.9901 0.9248
-16.4269 12.3440 -1.0421 0.9210
-11.3254 7.1618 -0.6796 0.9477
-25.9384 12.3079 -1.4560 0.8914
-19.1664 7.2688 -1.0396 0.9212
-25.0718 7.2621 -1.3238 0.9007
-38.3708 7.8335 -1.9861 0.8548
-45.6467 7.4184 -2.3453 0.8309
-45.9532 5.5797 -2.3476 0.8308
-46.1406 3.7249 -2.3476 0.8308
-49.2558 1.9849 -2.5000 0.8208
-33.8475 -4.1098 -2.5000 0.8722
-33.1053 -8.1598 -2.5000 0.8722
-32.7499 -9.4861 -2.5000 0.8722
-28.9263 -13.7257 -2.3476 0.8795
-28.3502 -14.8793 -2.3476 0.8795
-27.7281 -16.0088 -2.3476 0.8795
-27.0610 -17.1123 -2.3476 0.8795
-25.2394 -17.4215 -2.2487 0.8843
-23.1839 -17.4216 -2.1263 0.8902
-21.3376 -17.4216 -2.0198 0.8954
-14.2244 -17.4217 -1.6491 0.9137
-13.0916 -17.4217 -1.5979 0.9163
-11.0169 -17.4218 -1.5114 0.9207
-9.1437 -17.4218 -1.4427 0.9241
-8.2667 -17.4218 -1.4139 0.9256
-7.4227 -17.4218 -1.3885 0.9269
-5.0463 -17.4219 -1.3299 0.9298
-4.2941 -17.4219 -1.3156 0.9306
-3.5567 -17.4219 -1.3038 0.9312
-0.7021 -17.4219 -1.2785 0.9325
0.0000 -17.4220 -1.2774 0.9325
0.7021 -17.4220 -1.2785 0.9325
5.0187 -30.8815 -2.2940 0.8821
7.9788 -32.3711 -2.4445 0.8748
10.5577 -31.6241 -2.4445 0.8748
16.6699 -28.8732 -2.4445 0.8748
17.8190 -28.1785 -2.4445 0.8748
18.9392 -27.4382 -2.4445 0.8748
20.0287 -26.6533 -2.4445 0.8748
21.0856 -25.8252 -2.4445 0.8748
25.0917 -17.3196 -2.2355 0.8849
28.3537 -14.8811 -2.3479 0.8795
28.9272 -13.7261 -2.3477 0.8795
31.8804 -12.0906 -2.5000 0.8722
33.6546 -5.4694 -2.5000 0.8722
33.8475 -4.1098 -2.5000 0.8722
33.5693 2.7100 -2.4694 0.8736
30.7807 6.2839 -2.3035 0.8816
30.4178 7.4973 -2.2970 0.8819
29.2780 11.1037 -2.2959 0.8820
28.8015 12.2712 -2.2955 0.8820
28.2778 13.4180 -2.2950 0.8820
27.0930 15.6422 -2.2938 0.8821
25.7320 17.7615 -2.2925 0.8821
23.0816 22.1702 -2.3466 0.8795
23.0473 23.9948 -2.4395 0.8751
21.0856 25.8252 -2.4445 0.8748
4.2342 6.1343 -0.5465 0.9705
17.8190 28.1785 -2.4445 0.8748
15.4938 29.5210 -2.4445 0.8748
11.8225 31.1733 -2.4445 0.8748
10.5577 31.6241 -2.4445 0.8748
9.2757 32.0235 -2.4445 0.8748
1.5164 7.4278 -0.5559 0.9701
1.1914 7.3310 -0.5446 0.9707
0.6370 7.8911 -0.5805 0.9687
1.2625 31.3291 -2.2990 0.8818
-1.2640 31.3659 -2.3017 0.8817
-5.0437 31.0352 -2.3054 0.8815
-5.2440 25.6869 -1.9223 0.9002
-5.2419 21.2671 -1.6060 0.9159
-5.2265 15.6552 -1.2102 0.9359
-5.8710 12.3729 -1.0042 0.9466
-4.1782 7.9610 -0.6592 0.9646
-4.3091 7.4636 -0.6319 0.9660
-4.6459 7.3470 -0.6374 0.9657
-9.2906 12.3636 -1.1339 0.9399
-10.0927 12.3614 -1.1701 0.9380
-11.8686 12.3565 -1.2562 0.9336
-12.8616 12.3538 -1.3076 0.9310
-13.9412 12.3508 -1.3656 0.9280
-15.1230 12.3476 -1.4315 0.9247
-11.5336 7.2934 -1.0006 0.9467
-21.3397 12.3205 -1.8067 0.9059
-25.9383 12.3079 -2.1051 0.8912
-18.3059 7.7994 -1.4590 0.9233
-31.6030 5.1360 -2.3476 0.8795
-31.7842 3.8593 -2.3476 0.8795
-26.0192 -1.0485 -2.5000 0.9006
-25.8505 -3.1388 -2.5000 0.9006
-25.5141 -5.2087 -2.5000 0.9006
-25.0122 -7.2449 -2.5000 0.9006
-23.5261 -11.1633 -2.5000 0.9006
-20.9052 -13.2197 -2.3746 0.9054
-20.1243 -13.8908 -2.3476 0.9064
-19.5487 -14.6899 -2.3476 0.9064
-18.9414 -15.4651 -2.3476 0.9064
-18.3032 -16.2153 -2.3476 0.9064
-17.6355 -16.9391 -2.3476 0.9064
-15.4343 -17.4217 -2.2345 0.9107
-11.0169 -17.4218 -1.9789 0.9205
-5.8163 -17.4219 -1.7633 0.9289
-4.2941 -17.4219 -1.7226 0.9304
-2.8313 -17.4219 -1.6945 0.9315
-0.7021 -17.4219 -1.6740 0.9323
3.8340 -23.5915 -2.2946 0.9084
3.1812 -15.5824 -1.5268 0.9381
8.0632 -24.1523 -2.4445 0.9027
10.9157 -23.0043 -2.4445 0.9027
11.8331 -22.5461 -2.4445 0.9027
12.7314 -22.0514 -2.4445 0.9027
13.6090 -21.5209 -2.4445 0.9027
14.4645 -20.9554 -2.4445 0.9027
18.3638 -17.6386 -2.4445 0.9027
19.0592 -16.8849 -2.4445 0.9027
20.3862 -15.3193 -2.4482 0.9026
21.0972 -14.5623 -2.4611 0.9021
21.7113 -13.7294 -2.4662 0.9019
22.8079 -11.9705 -2.4729 0.9017
23.2747 -11.0440 -2.4733 0.9017
23.7038 -10.0992 -2.4736 0.9016
24.1635 -9.1640 -2.4810 0.9014
24.5504 -8.1961 -2.4848 0.9012
24.8770 -7.2057 -2.4865 0.9012
25.1615 -6.2017 -2.4879 0.9011
25.4032 -5.1861 -2.4891 0.9011
25.6018 -4.1607 -2.4901 0.9010
25.7567 -3.1274 -2.4909 0.9010
25.8767 -2.0890 -2.4924 0.9009
26.0005 -1.0478 -2.4982 0.9007
26.0185 1.0486 -2.4999 0.9007
25.9559 2.0954 -2.5000 0.9006
25.7295 3.1241 -2.4883 0.9011
24.5365 3.9876 -2.3865 0.9049
23.7885 4.8565 -2.3309 0.9070
22.5461 11.8331 -2.4445 0.9027
21.5208 13.6090 -2.4445 0.9027
20.3560 15.2965 -2.4445 0.9027
19.7236 16.1038 -2.4445 0.9027
19.0591 16.8849 -2.4445 0.9027
16.8849 19.0591 -2.4445 0.9027
4.2342 6.1343 -0.7156 0.9705
11.8331 22.5461 -2.4445 0.9027
9.9805 23.4252 -2.4445 0.9027
8.0632 24.1523 -2.4445 0.9027
6.6426 22.9327 -2.2921 0.9085
0.9100 7.4942 -0.7248 0.9701
1.9239 23.8321 -2.2954 0.9084
0.9632 23.9017 -2.2965 0.9084
-0.9641 23.9237 -2.2987 0.9083
-1.9275 23.8761 -2.2997 0.9082
-3.8457 23.6636 -2.3016 0.9082
-5.2419 21.2671 -2.1028 0.9157
-5.2331 18.0668 -1.8058 0.9272
-5.2723 12.3746 -1.2914 0.9474
-4.2436 8.0856 -0.8767 0.9640
-4.6813 7.4030 -0.8409 0.9654
-9.2906 12.3636 -1.4847 0.9397
-10.9491 12.3590 -1.5852 0.9358
-11.8685 12.3565 -1.6449 0.9335
-13.9412 12.3508 -1.7881 0.9279
-16.4269 12.3440 -1.9727 0.9207
-20.9124 12.0738 -2.3183 0.9075
-21.3863 11.2244 -2.3188 0.9075
-21.8254 10.3563 -2.3193 0.9075
-18.5583 7.9069 -1.9367 0.9221
-23.4874 6.8032 -2.3476 0.9064
-23.9587 4.8912 -2.3476 0.9064
-24.1362 3.9225 -2.3476 0.9064
-24.2746 2.9475 -2.3476 0.9064
-25.9559 2.0954 -2.5000 0.9006
-26.0192 1.0486 -2.5000 0.9006
-21.0463 0.0000 -2.5000 0.9187
-21.0292 -0.8475 -2.5000 0.9187
-20.9780 -1.6935 -2.5000 0.9187
-20.8928 -2.5369 -2.5000 0.9187
-20.7737 -3.3761 -2.5000 0.9187
-20.6209 -4.2098 -2.5000 0.9187
-20.4347 -5.0367 -2.5000 0.9187
-19.6786 -7.4631 -2.5000 0.9187
-19.0143 -9.0224 -2.5000 0.9187
-18.6355 -9.7807 -2.5000 0.9187
-18.2266 -10.5231 -2.5000 0.9187
-17.3207 -11.9556 -2.5000 0.9187
-16.1657 -13.1989 -2.4790 0.9194
-14.2533 -13.6905 -2.3476 0.9235
-13.6905 -14.2533 -2.3476 0.9235
-13.1056 -14.7930 -2.3476 0.9235
-12.4992 -15.3087 -2.3476 0.9235
-11.8726 -15.7996 -2.3476 0.9235
-10.5628 -16.7037 -2.3476 0.9235
-9.8816 -17.1155 -2.3476 0.9235
-9.2816 -17.6847 -2.3724 0.9227
-8.2667 -17.4218 -2.2906 0.9253
-7.4227 -17.4218 -2.2495 0.9266
-6.6072 -17.4218 -2.2133 0.9277
-5.8163 -17.4219 -2.1818 0.9287
-2.1154 -17.4219 -2.0847 0.9317
0.0000 -17.4220 -2.0695 0.9322
0.7021 -17.4220 -2.0712 0.9322
1.4065 -17.4220 -2.0762 0.9320
5.3707 -18.5417 -2.2930 0.9252
7.2976 -19.2421 -2.4445 0.9204
9.5638 -18.2222 -2.4445 0.9204
10.2897 -17.8223 -2.4445 0.9204
10.9990 -17.3936 -2.4446 0.9204
13.0183 -15.9446 -2.4451 0.9204
15.5531 -13.7789 -2.4682 0.9197
16.0947 -13.1409 -2.4681 0.9197
16.6101 -12.4817 -2.4680 0.9197
17.0987 -11.8024 -2.4679 0.9197
17.9920 -10.3877 -2.4678 0.9197
18.7945 -8.9181 -2.4711 0.9196
19.1404 -8.1550 -2.4714 0.9196
19.9897 -5.7901 -2.4721 0.9196
20.2083 -4.9809 -2.4723 0.9196
20.3941 -4.1635 -2.4725 0.9196
20.6657 -2.5093 -2.4728 0.9196
20.8028 -0.8383 -2.4731 0.9196
20.8205 -0.0000 -2.4732 0.9196
20.8044 0.8384 -2.4733 0.9196
20.7543 1.6755 -2.4733 0.9195
20.6704 2.5098 -2.4734 0.9195
19.8527 5.7504 -2.4552 0.9201
19.5660 6.5321 -2.4503 0.9203
19.2421 7.2976 -2.4445 0.9204
18.9327 8.0665 -2.4445 0.9204
18.5925 8.8223 -2.4445 0.9204
18.2222 9.5637 -2.4445 0.9204
16.4520 12.3630 -2.4445 0.9204
15.9410 13.0154 -2.4445 0.9204
12.3629 16.4521 -2.4445 0.9204
4.2342 6.1343 -0.8854 0.9704
10.2897 17.8223 -2.4445 0.9204
9.5638 18.2222 -2.4445 0.9204
8.8223 18.5925 -2.4445 0.9204
6.8426 18.0425 -2.2921 0.9252
6.1106 18.3034 -2.2921 0.9252
5.3686 18.5346 -2.2921 0.9252
4.6180 18.7358 -2.2921 0.9252
1.1832 7.2803 -0.8761 0.9707
0.0000 19.3243 -2.2955 0.9251
-0.7784 19.3158 -2.2963 0.9251
-1.5561 19.2759 -2.2972 0.9251
-2.3319 19.2047 -2.2980 0.9250
-4.6348 18.8042 -2.3005 0.9250
-5.2331 18.0668 -2.2343 0.9270
-5.2265 15.6552 -1.9605 0.9357
-5.2213 13.7675 -1.7490 0.9424
-5.2723 12.3746 -1.5978 0.9473
-6.4929 12.3712 -1.6596 0.9453
-4.3666 7.5632 -1.0374 0.9654
-4.6839 7.4070 -1.0410 0.9653
-9.2906 12.3636 -1.8370 0.9396
-10.0927 12.3614 -1.8956 0.9377
-10.9491 12.3590 -1.9613 0.9357
-10.8818 7.5111 -1.5706 0.9481
-11.2442 7.1104 -1.5803 0.9478
-16.8695 9.7396 -2.3139 0.9245
-17.2511 9.0541 -2.3143 0.9245
-17.9301 7.6393 -2.3151 0.9245
-18.4389 6.9930 -2.3425 0.9236
-18.7462 6.2584 -2.3476 0.9235
-19.3639 3.9532 -2.3476 0.9235
-19.5074 3.1703 -2.3476 0.9235
-21.0292 0.8475 -2.5000 0.9187
-17.6443 0.0000 -2.5000 0.9312
-17.6299 -0.7105 -2.5000 0.9312
-17.5156 -2.1268 -2.5000 0.9312
-17.4157 -2.8303 -2.5000 0.9312
-17.2877 -3.5293 -2.5000 0.9312
-16.4974 -6.2568 -2.5000 0.9312
-15.9407 -7.5640 -2.5000 0.9312
-14.5209 -10.0231 -2.5000 0.9312
-14.1056 -10.5996 -2.5000 0.9312
-13.6673 -11.1590 -2.5000 0.9312
-13.2069 -11.7003 -2.5000 0.9312
-12.7251 -12.2226 -2.5000 0.9312
-10.7847 -13.2088 -2.4161 0.9334
-9.9547 -13.2457 -2.3476 0.9353
-7.6998 -14.6708 -2.3476 0.9353
-7.1028 -14.9689 -2.3476 0.9353
-6.4944 -15.2428 -2.3476 0.9353
-5.2468 -15.7160 -2.3476 0.9353
-3.3142 -16.2338 -2.3476 0.9353
-1.3332 -16.5149 -2.3476 0.9353
0.0000 -16.5686 -2.3476 0.9353
1.3332 -16.5149 -2.3476 0.9353
1.9971 -16.4478 -2.3476 0.9353
3.1812 -15.5824 -2.2534 0.9378
3.9262 -15.9295 -2.3246 0.9359
4.5495 -15.7066 -2.3169 0.9361
5.1651 -15.4712 -2.3110 0.9362
5.7719 -15.2193 -2.3063 0.9364
7.4049 -15.6054 -2.4474 0.9326
8.0373 -15.3138 -2.4505 0.9325
9.2864 -14.6853 -2.4619 0.9322
11.0241 -13.5020 -2.4698 0.9320
12.0736 -12.5700 -2.4695 0.9320
13.4991 -11.0217 -2.4692 0.9320
13.9315 -10.4689 -2.4692 0.9320
14.3414 -9.8991 -2.4691 0.9320
14.7280 -9.3134 -2.4690 0.9320
15.4291 -8.0978 -2.4689 0.9320
15.7424 -7.4699 -2.4689 0.9320
16.3001 -6.1818 -2.4701 0.9320
16.5371 -5.5209 -2.4703 0.9320
16.7473 -4.8509 -2.4704 0.9320
16.9302 -4.1729 -2.4706 0.9320
17.0856 -3.4881 -2.4708 0.9320
17.2132 -2.7974 -2.4709 0.9320
17.4274 -0.7023 -2.4713 0.9320
17.4285 0.7023 -2.4714 0.9320
17.2176 2.7981 -2.4716 0.9320
17.0910 3.4892 -2.4716 0.9320
16.6740 4.8297 -2.4596 0.9323
16.1774 6.1353 -2.4515 0.9325
15.8804 6.7660 -2.4458 0.9326
15.2767 8.0178 -2.4445 0.9327
14.9414 8.6264 -2.4445 0.9327
14.1988 9.8008 -2.4445 0.9327
13.3642 10.9115 -2.4445 0.9327
12.9140 11.4408 -2.4445 0.9327
10.9115 13.3642 -2.4445 0.9327
10.3645 13.7927 -2.4445 0.9327
4.2342 6.1343 -1.0561 0.9703
8.6264 14.9414 -2.4445 0.9327
6.9351 14.6154 -2.2921 0.9367
5.1228 15.3447 -2.2921 0.9367
1.5471 7.5783 -1.0959 0.9692
0.9017 7.4263 -1.0600 0.9702
1.3028 16.1380 -2.2940 0.9367
0.6521 16.1824 -2.2947 0.9367
0.0000 16.2005 -2.2954 0.9366
-1.3044 16.1580 -2.2969 0.9366
-2.6020 16.0106 -2.2983 0.9366
-3.2455 15.8977 -2.2990 0.9366
-3.8842 15.7589 -2.2997 0.9365
-5.1427 15.4044 -2.3011 0.9365
-5.2213 13.7675 -2.0863 0.9422
-5.8710 12.3729 -1.9405 0.9462
-4.3962 7.6144 -1.2458 0.9651
-4.6107 7.2912 -1.2223 0.9657
-8.5354 12.3656 -2.1289 0.9411
-11.2827 11.7465 -2.3078 0.9363
-11.7491 11.2852 -2.3083 0.9363
-12.1966 10.8052 -2.3088 0.9363
-13.0316 9.7926 -2.3097 0.9363
-11.0329 7.6155 -1.8995 0.9473
-14.1243 8.1546 -2.3109 0.9362
-14.4683 7.5936 -2.3152 0.9361
-15.2428 6.4944 -2.3476 0.9353
-15.4920 5.8753 -2.3476 0.9353
-15.7160 5.2468 -2.3476 0.9353
-16.0872 3.9652 -2.3476 0.9353
-17.5156 2.1268 -2.5000 0.9312
-17.6299 0.7105 -2.5000 0.9312
-15.1632 -0.6111 -2.5000 0.9403
-15.0648 -1.8292 -2.5000 0.9403
-14.8688 -3.0355 -2.5000 0.9403
-14.7345 -3.6318 -2.5000 0.9403
-14.3945 -4.8056 -2.5000 0.9403
-13.9611 -5.9483 -2.5000 0.9403
-13.7103 -6.5056 -2.5000 0.9403
-13.1424 -7.5878 -2.5000 0.9403
-12.8262 -8.1108 -2.5000 0.9403
-12.4892 -8.6207 -2.5000 0.9403
-12.1319 -9.1166 -2.5000 0.9403
-11.3590 -10.0632 -2.5000 0.9403
-10.9446 -10.5124 -2.5000 0.9403
-10.0632 -11.3590 -2.5000 0.9403
-9.5977 -11.7550 -2.5000 0.9403
-7.5877 -13.1424 -2.5000 0.9403
-6.9280 -13.2003 -2.4559 0.9414
-6.2677 -13.2088 -2.4086 0.9425
-5.0533 -13.3244 -2.3476 0.9439
-3.4103 -13.8363 -2.3476 0.9439
-2.2859 -14.0659 -2.3476 0.9439
-1.1467 -14.2042 -2.3476 0.9439
-0.5738 -14.2388 -2.3476 0.9439
0.5738 -14.2388 -2.3476 0.9439
1.7177 -14.1465 -2.3476 0.9439
2.8505 -13.9624 -2.3476 0.9439
3.4103 -13.8363 -2.3476 0.9439
4.6643 -13.9714 -2.4265 0.9420
5.3452 -14.0943 -2.4832 0.9407
8.5197 -12.3430 -2.4707 0.9410
9.4844 -11.6163 -2.4705 0.9410
10.3875 -10.8146 -2.4703 0.9410
10.8141 -10.3871 -2.4702 0.9410
11.6141 -9.4827 -2.4700 0.9410
12.9837 -7.4961 -2.4698 0.9410
13.7922 -5.8763 -2.4697 0.9410
14.0175 -5.3161 -2.4697 0.9410
14.6877 -2.9985 -2.4695 0.9410
14.7972 -2.4048 -2.4697 0.9410
14.9441 -1.2064 -2.4699 0.9410
14.9810 -0.6037 -2.4700 0.9410
14.9819 0.6037 -2.4701 0.9410
14.8005 2.4053 -2.4702 0.9410
14.6917 2.9993 -2.4702 0.9410
14.5589 3.5885 -2.4702 0.9410
13.9388 5.2863 -2.4559 0.9414
13.6954 5.8350 -2.4524 0.9414
13.4090 6.3626 -2.4450 0.9416
13.1392 6.8960 -2.4445 0.9416
12.5417 7.9309 -2.4445 0.9416
12.2122 8.4295 -2.4445 0.9416
11.8629 8.9144 -2.4445 0.9416
11.4943 9.3848 -2.4445 0.9416
9.8400 11.1071 -2.4445 0.9416
9.3848 11.4943 -2.4445 0.9416
7.9309 12.5417 -2.4445 0.9416
6.9569 12.0497 -2.2921 0.9452
6.4661 12.3201 -2.2921 0.9452
5.9647 12.5704 -2.2921 0.9452
5.4537 12.8004 -2.2921 0.9452
4.9339 13.0096 -2.2921 0.9452
3.8711 13.3645 -2.2921 0.9452
1.2024 7.3987 -1.2349 0.9701
0.9114 7.5061 -1.2456 0.9698
1.1206 13.8812 -2.2942 0.9451
0.5609 13.9187 -2.2948 0.9451
0.0000 13.9337 -2.2954 0.9451
-1.1218 13.8960 -2.2967 0.9451
-1.6809 13.8432 -2.2973 0.9450
-2.7908 13.6703 -2.2985 0.9450
-3.3399 13.5504 -2.2991 0.9450
-5.2723 12.3746 -2.2159 0.9469
-5.9903 12.6243 -2.3020 0.9449
-4.3055 8.2035 -1.5263 0.9631
-4.4264 7.6667 -1.4584 0.9647
-8.4040 11.1838 -2.3046 0.9449
-8.8494 10.8386 -2.3051 0.9449
-11.8950 7.5219 -2.3185 0.9445
-12.2903 7.0958 -2.3379 0.9441
-12.6181 6.6225 -2.3476 0.9439
-13.1101 5.5857 -2.3476 0.9439
-13.5170 4.5127 -2.3476 0.9439
-13.8363 3.4104 -2.3476 0.9439
-14.9790 2.4343 -2.5000 0.9403
-15.0648 1.8292 -2.5000 0.9403
-13.3006 0.0000 -2.5000 0.9473
-13.2898 -0.5356 -2.5000 0.9473
-13.0318 -2.6605 -2.5000 0.9473
-12.7755 -3.7005 -2.5000 0.9473
-12.6161 -4.2119 -2.5000 0.9473
-12.4363 -4.7165 -2.5000 0.9473
-12.0165 -5.7019 -2.5000 0.9473
-11.7771 -6.1811 -2.5000 0.9473
-11.5187 -6.6503 -2.5000 0.9473
-11.2416 -7.1087 -2.5000 0.9473
-10.6331 -7.9903 -2.5000 0.9473
-10.3027 -8.4119 -2.5000 0.9473
-9.9557 -8.8200 -2.5000 0.9473
-9.2137 -9.5925 -2.5000 0.9473
-8.8200 -9.9557 -2.5000 0.9473
-8.4119 -10.3028 -2.5000 0.9473
-7.9903 -10.6331 -2.5000 0.9473
-7.5556 -10.9462 -2.5000 0.9473
-7.1087 -11.2416 -2.5000 0.9473
-5.7019 -12.0165 -2.5000 0.9473
-4.7165 -12.4363 -2.5000 0.9473
-2.6605 -13.0318 -2.5000 0.9473
-2.1336 -13.1284 -2.5000 0.9473
-1.6016 -13.1909 -2.4976 0.9474
0.0000 -13.1937 -2.4799 0.9477
1.0650 -13.1919 -2.4876 0.9476
2.1336 -13.1284 -2.5000 0.9473
3.1831 -12.9142 -2.5000 0.9473
3.7005 -12.7755 -2.5000 0.9473
4.7091 -12.4168 -2.4961 0.9474
5.1903 -12.1822 -2.4889 0.9475
6.5745 -11.3873 -2.4715 0.9479
7.0273 -11.1128 -2.4714 0.9479
7.4688 -10.8204 -2.4713 0.9479
9.1063 -9.4807 -2.4709 0.9479
10.5080 -7.8963 -2.4706 0.9479
11.1089 -7.0248 -2.4705 0.9479
11.8742 -5.6344 -2.4704 0.9479
12.2890 -4.6606 -2.4704 0.9479
12.4667 -4.1620 -2.4704 0.9479
12.6242 -3.6566 -2.4704 0.9479
12.9641 -2.1069 -2.4687 0.9479
13.1249 -0.5289 -2.4690 0.9479
13.1359 0.0000 -2.4690 0.9479
13.1256 0.5289 -2.4691 0.9479
12.9666 2.1073 -2.4692 0.9479
12.8712 2.6277 -2.4692 0.9479
12.7550 3.1438 -2.4692 0.9479
12.6179 3.6548 -2.4692 0.9479
12.4258 4.1483 -2.4623 0.9481
12.0218 5.1220 -2.4562 0.9482
11.7856 5.5923 -2.4520 0.9483
11.5176 6.0449 -2.4449 0.9484
11.2632 6.5028 -2.4445 0.9484
10.7034 7.3880 -2.4445 0.9484
9.3797 9.0093 -2.4445 0.9484
8.2254 10.0742 -2.4445 0.9484
7.8130 10.3973 -2.4445 0.9484
6.5177 10.3069 -2.2921 0.9516
5.6672 10.7980 -2.2921 0.9516
5.2278 11.0174 -2.2921 0.9516
3.8617 11.5672 -2.2921 0.9516
3.3928 11.7134 -2.2921 0.9516
1.8576 7.5366 -1.4590 0.9689
1.5342 7.5151 -1.4417 0.9693
1.2335 7.5901 -1.4454 0.9692
-0.4918 12.2052 -2.2960 0.9515
-0.9831 12.1784 -2.2965 0.9515
-1.9608 12.0654 -2.2976 0.9515
-2.9267 11.8739 -2.2986 0.9514
-3.8744 11.6051 -2.2997 0.9514
-4.7977 11.2607 -2.3007 0.9514
-4.5011 7.1179 -1.5829 0.9663
-4.9175 7.1243 -1.6271 0.9654
-7.3621 9.7972 -2.3035 0.9513
-7.7521 9.4946 -2.3039 0.9513
-8.1295 9.1764 -2.3043 0.9513
-8.8446 8.4953 -2.3051 0.9513
-8.4553 7.4908 -2.1232 0.9551
-9.5093 7.7642 -2.3075 0.9513
-10.5563 6.6754 -2.3476 0.9504
-10.8165 6.2449 -2.3476 0.9504
-11.0592 5.8043 -2.3476 0.9504
-11.2840 5.3543 -2.3476 0.9504
-11.8471 3.9551 -2.3476 0.9504
-13.0319 2.6605 -2.5000 0.9473
-13.1284 2.1336 -2.5000 0.9473
-13.2037 1.6032 -2.5000 0.9473
-13.2575 1.0703 -2.5000 0.9473
-11.7887 -0.9517 -2.5000 0.9528
-11.6739 -1.8972 -2.5000 0.9528
-11.5880 -2.3657 -2.5000 0.9528
-11.0585 -4.1939 -2.5000 0.9528
-10.8806 -4.6358 -2.5000 0.9528
-10.2425 -5.9135 -2.5000 0.9528
-8.5297 -8.1929 -2.5000 0.9528
-8.1929 -8.5297 -2.5000 0.9528
-7.8428 -8.8527 -2.5000 0.9528
-6.7185 -9.7335 -2.5000 0.9528
-6.3211 -9.9961 -2.5000 0.9528
-4.1939 -11.0585 -2.5000 0.9528
-2.3657 -11.5880 -2.5000 0.9528
-1.4256 -11.7408 -2.5000 0.9528
-0.9517 -11.7887 -2.5000 0.9528
-0.0000 -11.8270 -2.5000 0.9528
0.4762 -11.8175 -2.5000 0.9528
0.9517 -11.7887 -2.5000 0.9528
1.4256 -11.7408 -2.5000 0.9528
1.8972 -11.6739 -2.5000 0.9528
2.3657 -11.5880 -2.5000 0.9528
2.8304 -11.4834 -2.5000 0.9528
3.2905 -11.3601 -2.5000 0.9528
3.7452 -11.2184 -2.5000 0.9528
4.1934 -11.0570 -2.4997 0.9528
4.6304 -10.8678 -2.4971 0.9529
6.2498 -9.8832 -2.4718 0.9533
7.0242 -9.3476 -2.4716 0.9533
9.3457 -7.0228 -2.4711 0.9533
9.8801 -6.2478 -2.4710 0.9533
10.1236 -5.8448 -2.4710 0.9533
10.5608 -5.0112 -2.4709 0.9533
11.2279 -3.2522 -2.4709 0.9533
11.3498 -2.7975 -2.4709 0.9533
11.4533 -2.3382 -2.4709 0.9533
11.5334 -1.8744 -2.4699 0.9534
11.6384 -0.9395 -2.4681 0.9534
11.6671 -0.4702 -2.4682 0.9534
11.6769 0.0000 -2.4683 0.9534
11.6676 0.4702 -2.4683 0.9534
11.5262 1.8732 -2.4684 0.9534
11.4415 2.3358 -2.4684 0.9534
11.0763 3.6978 -2.4683 0.9534
10.8897 4.1299 -2.4618 0.9535
10.7028 4.5600 -2.4591 0.9536
10.0166 5.7831 -2.4448 0.9538
9.7744 6.1810 -2.4445 0.9538
9.5176 6.5695 -2.4445 0.9538
8.9581 7.3140 -2.4445 0.9538
8.0112 8.3405 -2.4445 0.9538
7.6688 8.6563 -2.4445 0.9538
6.8581 8.3996 -2.2921 0.9566
5.7956 9.1650 -2.2921 0.9566
5.4219 9.3910 -2.2921 0.9566
4.2504 9.9760 -2.2921 0.9566
3.4339 10.2857 -2.2921 0.9566
3.0169 10.4155 -2.2921 0.9566
2.5956 10.5306 -2.2926 0.9566
1.4517 7.1111 -1.5341 0.9708
1.1421 7.0275 -1.5050 02.5000 0.9572
-10.3281 -2.5457 -2.5000 0.9572
-10.2172 -2.9595 -2.5000 0.9572
-10.0898 -3.3683 -2.5000 0.9572
-9.4188 -4.9434 -2.5000 0.9572
-8.7542 -6.0426 -2.5000 0.9572
-8.5038 -6.3902 -2.5000 0.9572
-8.2396 -6.7275 -2.5000 0.9572
-7.6716 -7.3687 -2.5000 0.9572
-7.0538 -7.9621 -2.5000 0.9572
-6.3902 -8.5038 -2.5000 0.9572
-4.5601 -9.6102 -2.5000 0.9572
-4.1694 -9.7860 -2.5000 0.9572
-3.7720 -9.9459 -2.5000 0.9572
-2.9595 -10.2172 -2.5000 0.9572
-2.5457 -10.3281 -2.5000 0.9572
-1.7063 -10.4995 -2.5000 0.9572
0.0000 -10.6372 -2.5000 0.9572
0.4283 -10.6286 -2.5000 0.9572
0.8559 -10.6027 -2.5000 0.9572
1.2822 -10.5596 -2.5000 0.9572
2.5457 -10.3281 -2.5000 0.9572
2.9595 -10.2172 -2.5000 0.9572
3.7720 -9.9460 -2.5000 0.9572
4.1694 -9.7860 -2.5000 0.9572
5.6852 -8.9905 -2.5000 0.9572
6.0426 -8.7542 -2.5000 0.9572
6.3902 -8.5038 -2.5000 0.9572
7.0538 -7.9621 -2.5000 0.9572
7.6716 -7.3687 -2.5000 0.9572
7.9621 -7.0538 -2.5000 0.9572
8.2396 -6.7275 -2.5000 0.9572
8.5038 -6.3902 -2.5000 0.9572
8.7542 -6.0426 -2.5000 0.9572
9.4188 -4.9433 -2.5000 0.9572
9.9460 -3.7720 -2.5000 0.9572
10.0898 -3.3685 -2.5000 0.9572
10.3281 -2.5457 -2.5000 0.9572
10.4222 -2.1277 -2.5000 0.9572
10.4995 -1.7063 -2.5000 0.9572
10.5596 -1.2822 -2.5000 0.9572
10.6027 -0.8559 -2.5000 0.9572
10.6027 0.8559 -2.5000 0.9572
10.5597 1.2822 -2.5000 0.9572
10.4222 2.1277 -2.5000 0.9572
10.3281 2.5456 -2.5000 0.9572
10.0898 3.3685 -2.5000 0.9572
9.7680 4.1618 -2.4954 0.9573
9.4710 4.4940 -2.4638 0.9578
8.8120 5.5724 -2.4504 0.9581
8.6588 5.9767 -2.4727 0.9577
8.5039 6.3902 -2.5000 0.9572
7.9621 7.0538 -2.5000 0.9572
7.6716 7.3687 -2.5000 0.9572
7.0538 7.9621 -2.5000 0.9572
6.3903 8.5039 -2.5000 0.9572
6.0426 8.7543 -2.5000 0.9572
5.6853 8.9905 -2.5000 0.9572
5.3186 9.2121 -2.5000 0.9572
4.9434 9.4188 -2.5000 0.9572
4.5601 9.6102 -2.5000 0.9572
3.7720 9.9459 -2.5000 0.9572
2.9595 10.2173 -2.5000 0.9572
2.5457 10.3282 -2.5000 0.9572
2.1277 10.4223 -2.5000 0.9572
1.7063 10.4995 -2.5000 0.9572
0.8559 10.6028 -2.5000 0.9572
-1.2822 10.5597 -2.5000 0.9572
-2.5457 10.3282 -2.5000 0.9572
-2.9595 10.2173 -2.5000 0.9572
-4.1695 9.7861 -2.5000 0.9572
-4.5601 9.6102 -2.5000 0.9572
-5.3186 9.2121 -2.5000 0.9572
-5.6853 8.9905 -2.5000 0.9572
-7.0538 7.9621 -2.5000 0.9572
-7.5073 6.6509 -2.3572 0.9596
-7.9855 6.0007 -2.3476 0.9598
-8.2206 5.6743 -2.3476 0.9598
-8.4424 5.3387 -2.3476 0.9598
-8.6506 4.9944 -2.3476 0.9598
-8.8446 4.6420 -2.3476 0.9598
-9.0244 4.2821 -2.3476 0.9598
-9.1895 3.9153 -2.3476 0.9598
-9.8390 3.2847 -2.4378 0.9583
-10.4222 2.1277 -2.5000 0.9572
-10.4994 1.7063 -2.5000 0.9572
-9.6242 -0.7769 -2.5000 0.9609
-9.3750 -2.3107 -2.5000 0.9609
-9.0281 -3.4239 -2.5000 0.9609
-8.8829 -3.7846 -2.5000 0.9609
-8.7233 -4.1392 -2.5000 0.9609
-8.3619 -4.8278 -2.5000 0.9609
-7.4792 -6.1066 -2.5000 0.9609
-7.2273 -6.4028 -2.5000 0.9609
-6.6886 -6.9636 -2.5000 0.9609
-6.4028 -7.2273 -2.5000 0.9609
-4.4871 -8.5495 -2.5000 0.9609
-3.7846 -8.8829 -2.5000 0.9609
-3.4239 -9.0281 -2.5000 0.9609
-3.0576 -9.1586 -2.5000 0.9609
-2.6863 -9.2743 -2.5000 0.9609
-2.3107 -9.3750 -2.5000 0.9609
-1.9313 -9.4604 -2.5000 0.9609
-1.1638 -9.5851 -2.5000 0.9609
-0.7770 -9.6242 -2.5000 0.9609
-0.3888 -9.6477 -2.5000 0.9609
0.3888 -9.6477 -2.5000 0.9609
0.7770 -9.6242 -2.5000 0.9609
1.1638 -9.5851 -2.5000 0.9609
1.9314 -9.4604 -2.5000 0.9609
2.3107 -9.3750 -2.5000 0.9609
3.0576 -9.1586 -2.5000 0.9609
3.7846 -8.8829 -2.5000 0.9609
4.4872 -8.5496 -2.5000 0.9609
4.8278 -8.3619 -2.5000 0.9609
5.4850 -7.9463 -2.5000 0.9609
5.8005 -7.7190 -2.5000 0.9609
6.6886 -6.9636 -2.5000 0.9609
7.2273 -6.4028 -2.5000 0.9609
7.4792 -6.1066 -2.5000 0.9609
7.7190 -5.8005 -2.5000 0.9609
7.9463 -5.4850 -2.5000 0.9609
8.1608 -5.1606 -2.5000 0.9609
8.7233 -4.1392 -2.5000 0.9609
8.8829 -3.7846 -2.5000 0.9609
9.1586 -3.0576 -2.5000 0.9609
9.2743 -2.6863 -2.5000 0.9609
9.3750 -2.3107 -2.5000 0.9609
9.4604 -1.9314 -2.5000 0.9609
9.6477 -0.3888 -2.5000 0.9609
9.6242 0.7770 -2.5000 0.9609
9.3750 2.3107 -2.5000 0.9609
9.2743 2.6863 -2.5000 0.9609
9.0281 3.4239 -2.5000 0.9609
8.8829 3.7846 -2.5000 0.9609
8.7233 4.1393 -2.5000 0.9609
8.5496 4.4872 -2.5000 0.9609
7.9464 5.4850 -2.5000 0.9609
7.7191 5.8005 -2.5000 0.9609
7.4792 6.1066 -2.5000 0.9609
7.2273 6.4028 -2.5000 0.9609
6.6886 6.9636 -2.5000 0.9609
6.4028 7.2273 -2.5000 0.9609
6.1066 7.4793 -2.5000 0.9609
5.1606 8.1608 -2.5000 0.9609
4.8278 8.3620 -2.5000 0.9609
3.7847 8.8829 -2.5000 0.9609
3.4239 9.0281 -2.5000 0.9609
3.0576 9.1587 -2.5000 0.9609
2.6863 9.2744 -2.5000 0.9609
2.3107 9.3750 -2.5000 0.9609
1.5489 9.5305 -2.5000 0.9609
0.3888 9.6477 -2.5000 0.9609
-0.3888 9.6477 -2.5000 0.9609
-0.7770 9.6243 -2.5000 0.9609
-1.1639 9.5852 -2.5000 0.9609
-1.5489 9.5305 -2.5000 0.9609
-4.4872 8.5496 -2.5000 0.9609
-4.8278 8.3620 -2.5000 0.9609
-5.1606 8.1608 -2.5000 0.9609
-5.4850 7.9464 -2.5000 0.9609
-5.8005 7.7191 -2.5000 0.9609
-6.1066 7.4793 -2.5000 0.9609
-6.4028 7.2273 -2.5000 0.9609
-6.9636 6.6887 -2.5000 0.9609
-7.2273 6.4028 -2.5000 0.9609
-7.4793 6.1066 -2.5000 0.9609
-7.6929 5.7808 -2.4915 0.9610
-7.8489 5.4177 -2.4693 0.9614
-8.0302 5.0780 -2.4600 0.9615
-8.2369 4.7556 -2.4626 0.9615
-8.4731 4.4470 -2.4776 0.9612
-8.7233 4.1393 -2.5000 0.9609
-9.0281 3.4239 -2.5000 0.9609
-9.3750 2.3107 -2.5000 0.9609
-9.4604 1.9314 -2.5000 0.9609
-9.6242 0.7770 -2.5000 0.9609
-8.8310 0.0000 -2.5000 0.9640
-8.8024 -0.7106 -2.5000 0.9640
-8.4823 -2.4569 -2.5000 0.9640
-8.3765 -2.7965 -2.5000 0.9640
-7.9784 -3.7858 -2.5000 0.9640
-7.6479 -4.4155 -2.5000 0.9640
-7.2678 -5.0166 -2.5000 0.9640
-6.8405 -5.5851 -2.5000 0.9640
-5.5851 -6.8405 -2.5000 0.9640
-4.7199 -7.4638 -2.5000 0.9640
-4.4155 -7.6479 -2.5000 0.9640
-3.1315 -8.2571 -2.5000 0.9640
-2.1134 -8.5744 -2.5000 0.9640
-1.7664 -8.6525 -2.5000 0.9640
-1.4166 -8.7166 -2.5000 0.9640
-0.3556 -8.8238 -2.5000 0.9640
0.0000 -8.8310 -2.5000 0.9640
0.3556 -8.8238 -2.5000 0.9640
1.0645 -8.7666 -2.5000 0.9640
1.7664 -8.6525 -2.5000 0.9640
2.4569 -8.4823 -2.5000 0.9640
2.7965 -8.3765 -2.5000 0.9640
3.1315 -8.2571 -2.5000 0.9640
3.4615 -8.1243 -2.5000 0.9640
4.1040 -7.8195 -2.5000 0.9640
4.4155 -7.6479 -2.5000 0.9640
4.7199 -7.4638 -2.5000 0.9640
5.0166 -7.2677 -2.5000 0.9640
5.5851 -6.8405 -2.5000 0.9640
6.6101 -5.8560 -2.5000 0.9640
6.8405 -5.5851 -2.5000 0.9640
7.8194 -4.1040 -2.5000 0.9640
8.3765 -2.7965 -2.5000 0.9640
8.5744 -2.1134 -2.5000 0.9640
8.6525 -1.7664 -2.5000 0.9640
8.7166 -1.4166 -2.5000 0.9640
8.7666 -1.0645 -2.5000 0.9640
8.8024 -0.7106 -2.5000 0.9640
8.8238 -0.3556 -2.5000 0.9640
8.8024 0.7106 -2.5000 0.9640
8.7666 1.0645 -2.5000 0.9640
8.7166 1.4166 -2.5000 0.9640
8.5744 2.1134 -2.5000 0.9640
8.4823 2.4569 -2.5000 0.9640
8.2571 3.1315 -2.5000 0.9640
7.9784 3.7858 -2.5000 0.9640
7.8195 4.1040 -2.5000 0.9640
7.4639 4.7199 -2.5000 0.9640
7.2678 5.0166 -2.5000 0.9640
6.8406 5.5851 -2.5000 0.9640
6.6101 5.8560 -2.5000 0.9640
6.3689 6.1175 -2.5000 0.9640
6.1175 6.3690 -2.5000 0.9640
5.8560 6.6101 -2.5000 0.9640
5.5851 6.8406 -2.5000 0.9640
5.0166 7.2678 -2.5000 0.9640
4.7199 7.4639 -2.5000 0.9640
4.1040 7.8195 -2.5000 0.9640
3.7858 7.9784 -2.5000 0.9640
3.4615 8.1244 -2.5000 0.9640
3.1315 8.2571 -2.5000 0.9640
1.7664 8.6525 -2.5000 0.9640
1.0645 8.7666 -2.5000 0.9640
0.3556 8.8239 -2.5000 0.9640
-0.3556 8.8238 -2.5000 0.9640
-1.0645 8.7666 -2.5000 0.9640
-1.7664 8.6525 -2.5000 0.9640
-2.1134 8.5744 -2.5000 0.9640
-3.1315 8.2572 -2.5000 0.9640
-3.4615 8.1244 -2.5000 0.9640
-3.7858 7.9784 -2.5000 0.9640
-4.1040 7.8195 -2.5000 0.9640
-5.5852 6.8406 -2.5000 0.9640
-6.1175 6.3690 -2.5000 0.9640
-6.3690 6.1175 -2.5000 0.9640
-6.6101 5.8561 -2.5000 0.9640
-6.8405 5.5851 -2.5000 0.9640
-7.4639 4.7199 -2.5000 0.9640
-7.6479 4.4155 -2.5000 0.9640
-8.2571 3.1315 -2.5000 0.9640
-8.6525 1.7664 -2.5000 0.9640
-8.1214 -0.3273 -2.5000 0.9666
-7.9637 -1.6258 -2.5000 0.9666
-7.5998 -2.8822 -2.5000 0.9666
-7.1970 -3.7773 -2.5000 0.9666
-6.8697 -4.3441 -2.5000 0.9666
-6.4979 -4.8828 -2.5000 0.9666
-6.2960 -5.1405 -2.5000 0.9666
-6.0839 -5.3898 -2.5000 0.9666
-5.6304 -5.8619 -2.5000 0.9666
-5.3898 -6.0839 -2.5000 0.9666
-5.1405 -6.2960 -2.5000 0.9666
-4.8828 -6.4978 -2.5000 0.9666
-4.0640 -7.0390 -2.5000 0.9666
-3.7773 -7.1970 -2.5000 0.9666
-3.4844 -7.3432 -2.5000 0.9666
-3.1859 -7.4776 -2.5000 0.9666
-2.8822 -7.5998 -2.5000 0.9666
-2.2613 -7.8071 -2.5000 0.9666
-1.9451 -7.8918 -2.5000 0.9666
-0.9797 -8.0687 -2.5000 0.9666
-0.6540 -8.1016 -2.5000 0.9666
-0.3273 -8.1214 -2.5000 0.9666
0.6540 -8.1016 -2.5000 0.9666
0.9797 -8.0687 -2.5000 0.9666
1.3038 -8.0227 -2.5000 0.9666
1.6258 -7.9637 -2.5000 0.9666
1.9452 -7.8918 -2.5000 0.9666
3.1859 -7.4776 -2.5000 0.9666
3.7773 -7.1970 -2.5000 0.9666
4.3441 -6.8697 -2.5000 0.9666
5.1405 -6.2960 -2.5000 0.9666
5.3899 -6.0839 -2.5000 0.9666
5.8619 -5.6304 -2.5000 0.9666
6.0839 -5.3898 -2.5000 0.9666
6.2960 -5.1405 -2.5000 0.9666
6.4978 -4.8828 -2.5000 0.9666
6.8697 -4.3441 -2.5000 0.9666
7.0390 -4.0640 -2.5000 0.9666
7.3432 -3.4844 -2.5000 0.9666
7.5998 -2.8822 -2.5000 0.9666
7.8071 -2.2613 -2.5000 0.9666
7.8918 -1.9451 -2.5000 0.9666
7.9637 -1.6258 -2.5000 0.9666
8.1280 0.0000 -2.5000 0.9666
8.1016 0.6540 -2.5000 0.9666
8.0687 0.9797 -2.5000 0.9666
7.9637 1.6258 -2.5000 0.9666
7.3433 3.4844 -2.5000 0.9666
7.0391 4.0640 -2.5000 0.9666
6.2960 5.1405 -2.5000 0.9666
6.0839 5.3899 -2.5000 0.9666
5.8619 5.6305 -2.5000 0.9666
5.6305 5.8619 -2.5000 0.9666
5.1405 6.2960 -2.5000 0.9666
4.8828 6.4979 -2.5000 0.9666
4.6172 6.6892 -2.5000 0.9666
4.0640 7.0391 -2.5000 0.9666
3.4844 7.3433 -2.5000 0.9666
2.2614 7.8071 -2.5000 0.9666
1.9452 7.8918 -2.5000 0.9666
1.3038 8.0227 -2.5000 0.9666
0.9797 8.0687 -2.5000 0.9666
0.6540 8.1017 -2.5000 0.9666
0.3273 8.1214 -2.5000 0.9666
-0.0000 8.1280 -2.5000 0.9666
-0.3273 8.1214 -2.5000 0.9666
-0.6541 8.1017 -2.5000 0.9666
-0.9797 8.0687 -2.5000 0.9666
-1.6258 7.9637 -2.5000 0.9666
-1.9452 7.8918 -2.5000 0.9666
-2.2614 7.8071 -2.5000 0.9666
-2.8822 7.5998 -2.5000 0.9666
-3.4844 7.3433 -2.5000 0.9666
-4.0640 7.0391 -2.5000 0.9666
-4.3442 6.8697 -2.5000 0.9666
-4.6172 6.6892 -2.5000 0.9666
-5.3899 6.0839 -2.5000 0.9666
-6.4979 4.8828 -2.5000 0.9666
-7.1970 3.7773 -2.5000 0.9666
-7.3432 3.4844 -2.5000 0.9666
-7.5998 2.8822 -2.5000 0.9666
-7.8071 2.2613 -2.5000 0.9666
-7.8918 1.9452 -2.5000 0.9666
-8.0227 1.3038 -2.5000 0.9666
-8.0687 0.9797 -2.5000 0.9666
-8.1016 0.6540 -2.5000 0.9666
-8.1214 0.3273 -2.5000 0.9666
-7.4965 -0.6052 -2.5000 0.9688
-7.4661 -0.9066 -2.5000 0.9688
-7.3689 -1.5044 -2.5000 0.9688
-6.9191 -2.9479 -2.5000 0.9688
-6.7948 -3.2242 -2.5000 0.9688
-6.5133 -3.7604 -2.5000 0.9688
-6.1896 -4.2724 -2.5000 0.9688
-6.0125 -4.5181 -2.5000 0.9688
-5.2099 -5.4241 -2.5000 0.9688
-4.9873 -5.6295 -2.5000 0.9688
-4.5181 -6.0125 -2.5000 0.9688
-4.0197 -6.3566 -2.5000 0.9688
-3.4951 -6.6594 -2.5000 0.9688
-2.9479 -6.9191 -2.5000 0.9688
-2.0924 -7.2240 -2.5000 0.9688
-1.5044 -7.3689 -2.5000 0.9688
-1.2064 -7.4235 -2.5000 0.9688
-0.6052 -7.4965 -2.5000 0.9688
-0.3028 -7.5148 -2.5000 0.9688
0.3028 -7.5148 -2.5000 0.9688
0.6052 -7.4965 -2.5000 0.9688
0.9065 -7.4661 -2.5000 0.9688
1.2064 -7.4235 -2.5000 0.9688
1.7999 -7.3024 -2.5000 0.9688
2.0925 -7.2240 -2.5000 0.9688
2.6669 -7.0322 -2.5000 0.9688
2.9479 -6.9191 -2.5000 0.9688
3.2242 -6.7948 -2.5000 0.9688
4.2724 -6.1896 -2.5000 0.9688
4.7566 -5.8257 -2.5000 0.9688
5.4241 -5.2099 -2.5000 0.9688
5.8257 -4.7566 -2.5000 0.9688
6.0125 -4.5181 -2.5000 0.9688
6.1896 -4.2724 -2.5000 0.9688
6.3566 -4.0197 -2.5000 0.9688
6.5133 -3.7605 -2.5000 0.9688
7.0322 -2.6669 -2.5000 0.9688
7.2240 -2.0925 -2.5000 0.9688
7.4235 -1.2064 -2.5000 0.9688
7.4661 -0.9065 -2.5000 0.9688
7.5148 -0.3028 -2.5000 0.9688
7.5209 0.0000 -2.5000 0.9688
7.5148 0.3028 -2.5000 0.9688
7.4965 0.6052 -2.5000 0.9688
7.4661 0.9065 -2.5000 0.9688
7.4235 1.2064 -2.5000 0.9688
7.3024 1.7999 -2.5000 0.9688
7.2240 2.0925 -2.5000 0.9688
7.0322 2.6670 -2.5000 0.9688
6.7948 3.2241 -2.5000 0.9688
6.6594 3.4951 -2.5000 0.9688
6.3566 4.0197 -2.5000 0.9688
6.1896 4.2724 -2.5000 0.9688
6.0126 4.5181 -2.5000 0.9688
5.8258 4.7566 -2.5000 0.9688
5.6296 4.9873 -2.5000 0.9688
5.4241 5.2099 -2.5000 0.9688
4.9873 5.6295 -2.5000 0.9688
4.7566 5.8258 -2.5000 0.9688
4.5181 6.0126 -2.5000 0.9688
4.2724 6.1896 -2.5000 0.9688
4.0197 6.3566 -2.5000 0.9688
3.4952 6.6595 -2.5000 0.9688
3.2242 6.7948 -2.5000 0.9688
2.9479 6.9191 -2.5000 0.9688
2.3816 7.1339 -2.5000 0.9688
2.0925 7.2240 -2.5000 0.9688
1.2064 7.4235 -2.5000 0.9688
0.6052 7.4965 -2.5000 0.9688
-0.3028 7.5148 -2.5000 0.9688
-1.2064 7.4235 -2.5000 0.9688
-3.2242 6.7948 -2.5000 0.9688
-3.7605 6.5133 -2.5000 0.9688
-4.0197 6.3566 -2.5000 0.9688
-4.2724 6.1896 -2.5000 0.9688
-4.5181 6.0126 -2.5000 0.9688
-4.7566 5.8258 -2.5000 0.9688
-5.4241 5.2099 -2.5000 0.9688
-5.8258 4.7566 -2.5000 0.9688
-6.3566 4.0197 -2.5000 0.9688
-6.7948 3.2242 -2.5000 0.9688
-7.1339 2.3816 -2.5000 0.9688
-7.2240 2.0925 -2.5000 0.9688
-7.3024 1.7999 -2.5000 0.9688
-7.4235 1.2064 -2.5000 0.9688
-7.4661 0.9065 -2.5000 0.9688
-7.4965 0.6052 -2.5000 0.9688
-6.9852 -0.2815 -2.5000 0.9707
-6.9682 -0.5625 -2.5000 0.9707
-6.9399 -0.8427 -2.5000 0.9707
-6.8496 -1.3984 -2.5000 0.9707
-6.7877 -1.6730 -2.5000 0.9707
-6.7149 -1.9450 -2.5000 0.9707
-6.5366 -2.4790 -2.5000 0.9707
-6.3159 -2.9969 -2.5000 0.9707
-5.5888 -4.1997 -2.5000 0.9707
-5.4152 -4.4214 -2.5000 0.9707
-4.8428 -5.0418 -2.5000 0.9707
-4.6358 -5.2327 -2.5000 0.9707
-4.1997 -5.5888 -2.5000 0.9707
-3.4954 -6.0543 -2.5000 0.9707
-3.2488 -6.1901 -2.5000 0.9707
-2.9969 -6.3159 -2.5000 0.9707
-2.7402 -6.4315 -2.5000 0.9707
-2.4790 -6.5366 -2.5000 0.9707
-2.2138 -6.6311 -2.5000 0.9707
-0.8426 -6.9399 -2.5000 0.9707
-0.5625 -6.9682 -2.5000 0.9707
-0.2815 -6.9852 -2.5000 0.9707
0.5625 -6.9682 -2.5000 0.9707
0.8427 -6.9399 -2.5000 0.9707
1.3984 -6.8496 -2.5000 0.9707
2.4790 -6.5366 -2.5000 0.9707
2.7402 -6.4315 -2.5000 0.9707
2.9969 -6.3159 -2.5000 0.9707
3.2488 -6.1901 -2.5000 0.9707
4.1997 -5.5888 -2.5000 0.9707
4.6358 -5.2328 -2.5000 0.9707
4.8428 -5.0418 -2.5000 0.9707
5.4152 -4.4213 -2.5000 0.9707
5.9086 -3.7364 -2.5000 0.9707
6.1901 -3.2488 -2.5000 0.9707
6.5366 -2.4790 -2.5000 0.9707
6.7149 -1.9450 -2.5000 0.9707
6.7877 -1.6730 -2.5000 0.9707
6.9004 -1.1214 -2.5000 0.9707
6.9399 -0.8427 -2.5000 0.9707
6.9682 -0.5625 -2.5000 0.9707
6.9852 -0.2815 -2.5000 0.9707
6.9909 -0.0000 -2.5000 0.9707
6.9852 0.2815 -2.5000 0.9707
6.7877 1.6730 -2.5000 0.9707
6.6311 2.2138 -2.5000 0.9707
6.3159 2.9969 -2.5000 0.9707
6.1901 3.2488 -2.5000 0.9707
6.0543 3.4955 -2.5000 0.9707
5.7534 3.9713 -2.5000 0.9707
5.2328 4.6358 -2.5000 0.9707
4.8428 5.0418 -2.5000 0.9707
4.6358 5.2328 -2.5000 0.9707
3.9713 5.7534 -2.5000 0.9707
3.4954 6.0543 -2.5000 0.9707
3.2488 6.1901 -2.5000 0.9707
2.7402 6.4315 -2.5000 0.9707
2.2138 6.6311 -2.5000 0.9707
1.9450 6.7149 -2.5000 0.9707
1.3984 6.8496 -2.5000 0.9707
1.1214 6.9004 -2.5000 0.9707
0.2815 6.9852 -2.5000 0.9707
-0.0000 6.9909 -2.5000 0.9707
-0.2815 6.9852 -2.5000 0.9707
-0.5625 6.9682 -2.5000 0.9707
-1.1214 6.9004 -2.5000 0.9707
-1.6730 6.7878 -2.5000 0.9707
-2.2138 6.6311 -2.5000 0.9707
-3.4955 6.0543 -2.5000 0.9707
-3.9713 5.7534 -2.5000 0.9707
-4.1997 5.5888 -2.5000 0.9707
-4.4214 5.4152 -2.5000 0.9707
-4.8428 5.0419 -2.5000 0.9707
-5.9086 3.7364 -2.5000 0.9707
-6.3159 2.9969 -2.5000 0.9707
-6.4315 2.7402 -2.5000 0.9707
-6.5366 2.4790 -2.5000 0.9707
-6.6311 2.2138 -2.5000 0.9707
-6.7149 1.9450 -2.5000 0.9707
-6.9004 1.1214 -2.5000 0.9707
-6.9682 0.5625 -2.5000 0.9707
-6.9852 0.2815 -2.5000 0.9707
-6.5237 0.0000 -2.5000 0.9724
-6.5184 -0.2627 -2.5000 0.9724
-6.5025 -0.5249 -2.5000 0.9724
-6.4392 -1.0465 -2.5000 0.9724
-6.3918 -1.3049 -2.5000 0.9724
-6.3341 -1.5612 -2.5000 0.9724
-6.2661 -1.8150 -2.5000 0.9724
-6.0998 -2.3133 -2.5000 0.9724
-5.8938 -2.7967 -2.5000 0.9724
-5.6497 -3.2618 -2.5000 0.9724
-5.3689 -3.7059 -2.5000 0.9724
-4.5191 -4.7049 -2.5000 0.9724
-4.3260 -4.8830 -2.5000 0.9724
-4.1259 -5.0533 -2.5000 0.9724
-3.9190 -5.2153 -2.5000 0.9724
-3.4867 -5.5137 -2.5000 0.9724
-3.2618 -5.6497 -2.5000 0.9724
-2.7967 -5.8938 -2.5000 0.9724
-2.3133 -6.0997 -2.5000 0.9724
-2.0658 -6.1879 -2.5000 0.9724
-1.0465 -6.4392 -2.5000 0.9724
-0.7863 -6.4761 -2.5000 0.9724
0.0000 -6.5237 -2.5000 0.9724
0.7863 -6.4761 -2.5000 0.9724
1.0465 -6.4392 -2.5000 0.9724
1.3049 -6.3918 -2.5000 0.9724
2.0658 -6.1879 -2.5000 0.9724
2.3133 -6.0997 -2.5000 0.9724
2.5571 -6.0017 -2.5000 0.9724
2.7967 -5.8938 -2.5000 0.9724
3.4867 -5.5137 -2.5000 0.9724
3.7059 -5.3689 -2.5000 0.9724
4.5191 -4.7049 -2.5000 0.9724
4.7049 -4.5191 -2.5000 0.9724
4.8830 -4.3260 -2.5000 0.9724
5.2153 -3.9191 -2.5000 0.9724
5.3689 -3.7059 -2.5000 0.9724
5.5138 -3.4867 -2.5000 0.9724
5.6497 -3.2618 -2.5000 0.9724
5.8938 -2.7967 -2.5000 0.9724
6.0997 -2.3133 -2.5000 0.9724
6.2661 -1.8150 -2.5000 0.9724
6.4392 -1.0465 -2.5000 0.9724
6.5025 -0.5249 -2.5000 0.9724
6.5184 0.2627 -2.5000 0.9724
6.5025 0.5249 -2.5000 0.9724
6.3918 1.3049 -2.5000 0.9724
6.0017 2.5571 -2.5000 0.9724
5.7764 3.0317 -2.5000 0.9724
5.3689 3.7059 -2.5000 0.9724
5.2153 3.9191 -2.5000 0.9724
4.8831 4.3260 -2.5000 0.9724
4.7049 4.5191 -2.5000 0.9724
4.5191 4.7049 -2.5000 0.9724
4.1258 5.0533 -2.5000 0.9724
3.2619 5.6497 -2.5000 0.9724
3.0317 5.7764 -2.5000 0.9724
2.3133 6.0998 -2.5000 0.9724
1.3049 6.3919 -2.5000 0.9724
0.0000 6.5237 -2.5000 0.9724
-0.2627 6.5184 -2.5000 0.9724
-1.3049 6.3919 -2.5000 0.9724
-1.5612 6.3341 -2.5000 0.9724
-1.8150 6.2661 -2.5000 0.9724
-2.0659 6.1880 -2.5000 0.9724
-2.5571 6.0017 -2.5000 0.9724
-3.7059 5.3689 -2.5000 0.9724
-4.3260 4.8831 -2.5000 0.9724
-4.5191 4.7049 -2.5000 0.9724
-4.7049 4.5191 -2.5000 0.9724
-5.0533 4.1259 -2.5000 0.9724
-5.5138 3.4867 -2.5000 0.9724
-5.6497 3.2619 -2.5000 0.9724
-5.7764 3.0317 -2.5000 0.9724
-6.0017 2.5571 -2.5000 0.9724
-6.0998 2.3133 -2.5000 0.9724
-6.1880 2.0658 -2.5000 0.9724
-6.2661 1.8150 -2.5000 0.9724
-6.3341 1.5612 -2.5000 0.9724
-6.4392 1.0465 -2.5000 0.9724
-6.4761 0.7863 -2.5000 0.9724
-6.5025 0.5249 -2.5000 0.9724
-2.6499 -0.2139 -1.0881 0.9886
-5.9849 -1.2218 -2.5000 0.9739
-5.7940 -1.9343 -2.5000 0.9739
-5.7114 -2.1660 -2.5000 0.9739
-5.4087 -2.8387 -2.5000 0.9739
-5.2900 -3.0542 -2.5000 0.9739
-5.1627 -3.2647 -2.5000 0.9739
-4.8833 -3.6695 -2.5000 0.9739
-4.4053 -4.2314 -2.5000 0.9739
-4.0506 -4.5722 -2.5000 0.9739
-3.6695 -4.8833 -2.5000 0.9739
-3.4699 -5.0271 -2.5000 0.9739
-3.2647 -5.1627 -2.5000 0.9739
-3.0542 -5.2900 -2.5000 0.9739
-2.8387 -5.4087 -2.5000 0.9739
-2.6186 -5.5186 -2.5000 0.9739
-2.1660 -5.7114 -2.5000 0.9739
-1.9343 -5.7940 -2.5000 0.9739
-1.6994 -5.8672 -2.5000 0.9739
-1.4618 -5.9308 -2.5000 0.9739
-0.0000 -6.1083 -2.5000 0.9739
0.2460 -6.1034 -2.5000 0.9739
0.4915 -6.0885 -2.5000 0.9739
1.4618 -5.9308 -2.5000 0.9739
1.6994 -5.8672 -2.5000 0.9739
1.9343 -5.7940 -2.5000 0.9739
2.1660 -5.7114 -2.5000 0.9739
2.6186 -5.5186 -2.5000 0.9739
2.8387 -5.4087 -2.5000 0.9739
3.0542 -5.2900 -2.5000 0.9739
3.2647 -5.1627 -2.5000 0.9739
3.4699 -5.0271 -2.5000 0.9739
3.6695 -4.8833 -2.5000 0.9739
3.8632 -4.7316 -2.5000 0.9739
4.2314 -4.4054 -2.5000 0.9739
4.4054 -4.2314 -2.5000 0.9739
4.5722 -4.0506 -2.5000 0.9739
4.7316 -3.8632 -2.5000 0.9739
4.8833 -3.6695 -2.5000 0.9739
5.0271 -3.4699 -2.5000 0.9739
5.1627 -3.2647 -2.5000 0.9739
5.2900 -3.0542 -2.5000 0.9739
5.6196 -2.3943 -2.5000 0.9739
5.8672 -1.6995 -2.5000 0.9739
6.0638 -0.7363 -2.5000 0.9739
6.0638 0.7363 -2.5000 0.9739
6.0292 0.9798 -2.5000 0.9739
5.9308 1.4618 -2.5000 0.9739
5.7940 1.9343 -2.5000 0.9739
5.7114 2.1660 -2.5000 0.9739
5.2900 3.0542 -2.5000 0.9739
5.1627 3.2647 -2.5000 0.9739
5.0271 3.4699 -2.5000 0.9739
4.8833 3.6695 -2.5000 0.9739
4.7315 3.8632 -2.5000 0.9739
4.2314 4.4054 -2.5000 0.9739
3.8632 4.7316 -2.5000 0.9739
3.4699 5.0271 -2.5000 0.9739
3.2647 5.1627 -2.5000 0.9739
2.8387 5.4087 -2.5000 0.9739
2.3943 5.6196 -2.5000 0.9739
1.9343 5.7940 -2.5000 0.9739
1.4618 5.9309 -2.5000 0.9739
0.9798 6.0293 -2.5000 0.9739
0.2459 6.1034 -2.5000 0.9739
-0.2460 6.1034 -2.5000 0.9739
-0.4915 6.0886 -2.5000 0.9739
-0.9799 6.0293 -2.5000 0.9739
-1.2218 5.9849 -2.5000 0.9739
-1.4618 5.9309 -2.5000 0.9739
-1.9343 5.7940 -2.5000 0.9739
-2.1661 5.7114 -2.5000 0.9739
-2.6186 5.5186 -2.5000 0.9739
-3.0542 5.2900 -2.5000 0.9739
-3.2647 5.1627 -2.5000 0.9739
-3.4699 5.0271 -2.5000 0.9739
-3.8632 4.7316 -2.5000 0.9739
-4.0506 4.5722 -2.5000 0.9739
-4.8833 3.6696 -2.5000 0.9739
-5.4087 2.8387 -2.5000 0.9739
-5.7114 2.1660 -2.5000 0.9739
-5.7940 1.9343 -2.5000 0.9739
-5.9309 1.4618 -2.5000 0.9739
-5.9849 1.2218 -2.5000 0.9739
-2.8591 0.4647 -1.1855 0.9876
-2.6499 0.2139 -1.0881 0.9886
-2.4020 0.0000 -1.0468 0.9896
-2.4011 -0.0968 -1.0473 0.9896
-2.4007 -0.1938 -1.0497 0.9895
-5.6204 -1.1474 -2.5000 0.9753
-5.5696 -1.3728 -2.5000 0.9753
-5.3636 -2.0341 -2.5000 0.9753
-4.9678 -2.8682 -2.5000 0.9753
-4.8483 -3.0659 -2.5000 0.9753
-4.5859 -3.4461 -2.5000 0.9753
-4.4434 -3.6279 -2.5000 0.9753
-4.2937 -3.8039 -2.5000 0.9753
-4.1371 -3.9737 -2.5000 0.9753
-3.4461 -4.5859 -2.5000 0.9753
-3.2586 -4.7209 -2.5000 0.9753
-3.0659 -4.8483 -2.5000 0.9753
-2.8682 -4.9678 -2.5000 0.9753
-1.3728 -5.5696 -2.5000 0.9753
-0.4616 -5.7177 -2.5000 0.9753
-0.2310 -5.7317 -2.5000 0.9753
0.0000 -5.7363 -2.5000 0.9753
0.2310 -5.7317 -2.5000 0.9753
0.9202 -5.6621 -2.5000 0.9753
1.1474 -5.6204 -2.5000 0.9753
1.5959 -5.5098 -2.5000 0.9753
2.0341 -5.3636 -2.5000 0.9753
2.2484 -5.2773 -2.5000 0.9753
2.6658 -5.0793 -2.5000 0.9753
2.8682 -4.9678 -2.5000 0.9753
3.4460 -4.5859 -2.5000 0.9753
3.6279 -4.4434 -2.5000 0.9753
3.9737 -4.1371 -2.5000 0.9753
4.1371 -3.9737 -2.5000 0.9753
4.2937 -3.8039 -2.5000 0.9753
4.4434 -3.6279 -2.5000 0.9753
4.7209 -3.2586 -2.5000 0.9753
4.8483 -3.0659 -2.5000 0.9753
4.9678 -2.8682 -2.5000 0.9753
5.0793 -2.6658 -2.5000 0.9753
5.1825 -2.4591 -2.5000 0.9753
5.3636 -2.0341 -2.5000 0.9753
5.5697 -1.3728 -2.5000 0.9753
5.6204 -1.1474 -2.5000 0.9753
5.6621 -0.9202 -2.5000 0.9753
5.7177 -0.4616 -2.5000 0.9753
5.7363 0.0000 -2.5000 0.9753
5.7317 0.2310 -2.5000 0.9753
5.6621 0.9202 -2.5000 0.9753
5.5099 1.5959 -2.5000 0.9753
5.3636 2.0341 -2.5000 0.9753
5.2773 2.2484 -2.5000 0.9753
4.8483 3.0659 -2.5000 0.9753
4.2937 3.8039 -2.5000 0.9753
4.1371 3.9737 -2.5000 0.9753
3.9737 4.1371 -2.5000 0.9753
3.8039 4.2937 -2.5000 0.9753
3.4461 4.5859 -2.5000 0.9753
3.0659 4.8483 -2.5000 0.9753
2.4591 5.1825 -2.5000 0.9753
2.0341 5.3636 -2.5000 0.9753
1.8165 5.4411 -2.5000 0.9753
1.5960 5.5099 -2.5000 0.9753
1.3728 5.5697 -2.5000 0.9753
1.1474 5.6204 -2.5000 0.9753
0.9202 5.6621 -2.5000 0.9753
0.6915 5.6945 -2.5000 0.9753
0.4616 5.7178 -2.5000 0.9753
0.2310 5.7317 -2.5000 0.9753
-0.4616 5.7178 -2.5000 0.9753
-0.9202 5.6621 -2.5000 0.9753
-2.8682 4.9678 -2.5000 0.9753
-3.4461 4.5859 -2.5000 0.9753
-3.6279 4.4434 -2.5000 0.9753
-3.9737 4.1371 -2.5000 0.9753
-4.1371 3.9737 -2.5000 0.9753
-4.4434 3.6279 -2.5000 0.9753
-4.7209 3.2586 -2.5000 0.9753
-4.8483 3.0659 -2.5000 0.9753
-4.9678 2.8682 -2.5000 0.9753
-5.2773 2.2485 -2.5000 0.9753
-5.3636 2.0341 -2.5000 0.9753
-5.4411 1.8165 -2.5000 0.9753
-5.5099 1.5959 -2.5000 0.9753
-5.5696 1.3728 -2.5000 0.9753
-5.6204 1.1474 -2.5000 0.9753
-2.4095 0.2926 -1.0578 0.9895
-2.4011 0.0968 -1.0473 0.9896
-2.2418 0.0000 -1.0377 0.9902
-2.2399 -0.0903 -1.0377 0.9902
-2.2376 -0.1806 -1.0391 0.9902
-2.2422 -0.2723 -1.0455 0.9901
-2.2449 -0.3648 -1.0528 0.9900
-2.3009 -0.4697 -1.0870 0.9897
-5.0499 -1.9152 -2.5000 0.9765
-4.7823 -2.5099 -2.5000 0.9765
-4.6773 -2.7004 -2.5000 0.9765
-4.4449 -3.0680 -2.5000 0.9765
-4.0426 -3.5814 -2.5000 0.9765
-3.8951 -3.7413 -2.5000 0.9765
-3.7413 -3.8951 -2.5000 0.9765
-3.4158 -4.1836 -2.5000 0.9765
-3.2445 -4.3177 -2.5000 0.9765
-3.0680 -4.4448 -2.5000 0.9765
-2.8866 -4.5648 -2.5000 0.9765
-2.5099 -4.7823 -2.5000 0.9765
-2.3153 -4.8794 -2.5000 0.9765
-2.1170 -4.9687 -2.5000 0.9765
-1.9152 -5.0499 -2.5000 0.9765
-1.2925 -5.2439 -2.5000 0.9765
-1.0803 -5.2917 -2.5000 0.9765
-0.8664 -5.3309 -2.5000 0.9765
-0.2175 -5.3965 -2.5000 0.9765
0.2175 -5.3965 -2.5000 0.9765
0.6510 -5.3615 -2.5000 0.9765
0.8664 -5.3310 -2.5000 0.9765
1.0803 -5.2917 -2.5000 0.9765
1.5026 -5.1876 -2.5000 0.9765
1.7103 -5.1229 -2.5000 0.9765
2.1170 -4.9687 -2.5000 0.9765
2.5099 -4.7822 -2.5000 0.9765
2.7004 -4.6773 -2.5000 0.9765
3.0681 -4.4448 -2.5000 0.9765
3.2445 -4.3177 -2.5000 0.9765
3.4158 -4.1836 -2.5000 0.9765
3.5815 -4.0426 -2.5000 0.9765
4.1836 -3.4158 -2.5000 0.9765
4.3177 -3.2446 -2.5000 0.9765
5.0499 -1.9152 -2.5000 0.9765
5.1229 -1.7103 -2.5000 0.9765
5.1877 -1.5026 -2.5000 0.9765
5.2440 -1.2925 -2.5000 0.9765
5.3834 -0.4346 -2.5000 0.9765
5.3965 -0.2175 -2.5000 0.9765
5.4009 0.0000 -2.5000 0.9765
5.3834 0.4346 -2.5000 0.9765
5.1877 1.5026 -2.5000 0.9765
4.8795 2.3153 -2.5000 0.9765
4.7823 2.5099 -2.5000 0.9765
4.50.2175 -5.3965 -2.5000 0.9765
0.2175 -5.3965 -2.5000 0.9765
0.6510 -5.3615 -2.5000 0.9765
0.8664 -5.3310 -2.5000 0.9765
1.0803 -5.2918 -2.5000 0.9765
1.5026 -5.1877 -2.5000 0.9765
1.7103 -5.1230 -2.5000 0.9765
2.1170 -4.9687 -2.5000 0.9765
2.5099 -4.7823 -2.5000 0.9765
2.7005 -4.6773 -2.5000 0.9765
3.0681 -4.4449 -2.5000 0.9765
3.2446 -4.3177 -2.5000 0.9765
3.4158 -4.1836 -2.5000 0.9765
3.5815 -4.0426 -2.5000 0.9765
4.1832 -3.4154 -2.4998 0.9765
4.3166 -3.2437 -2.4993 0.9765
5.0355 -1.9097 -2.4929 0.9765
5.1062 -1.7047 -2.4918 0.9766
5.1686 -1.4971 -2.4908 0.9766
5.2227 -1.2873 -2.4898 0.9766
5.3563 -0.4323 -2.4874 0.9766
5.3689 -0.2163 -2.4872 0.9766
5.3731 -0.0000 -2.4871 0.9766
5.3566 0.4324 -2.4876 0.9766
5.1695 1.4974 -2.4912 0.9766
4.8705 2.3111 -2.4954 0.9765
4.7756 2.5064 -2.4965 0.9765
4.5606 2.8840 -2.4977 0.9765
4.0540 3.0464 -2.3473 0.9779
3.9283 3.2073 -2.3474 0.9779
3.7961 3.3631 -2.3476 0.9779
3.6577 3.5133 -2.3476 0.9779
3.5133 3.6577 -2.3476 0.9779
3.2076 3.9285 -2.3476 0.9779
3.0468 4.0545 -2.3476 0.9779
2.8810 4.1739 -2.3476 0.9779
2.7106 4.2865 -2.3476 0.9779
2.1742 4.5820 -2.3476 0.9779
1.6060 4.8107 -2.3476 0.9779
1.4110 4.8714 -2.3476 0.9779
1.2137 4.9243 -2.3476 0.9779
0.6113 5.0347 -2.3476 0.9779
0.4081 5.0552 -2.3476 0.9779
0.2042 5.0676 -2.3476 0.9779
-0.0000 5.0717 -2.3476 0.9779
-0.4081 5.0552 -2.3476 0.9779
-1.0145 4.9692 -2.3476 0.9779
-1.4110 4.8714 -2.3476 0.9779
-1.6060 4.8107 -2.3476 0.9779
-2.1742 4.5820 -2.3476 0.9779
-2.7106 4.2865 -2.3476 0.9779
-3.0468 4.0545 -2.3476 0.9779
-3.2076 3.9285 -2.3476 0.9779
-3.7962 3.3631 -2.3476 0.9779
-3.9285 3.2076 -2.3476 0.9779
-4.1739 2.8810 -2.3476 0.9779
-4.6656 2.6937 -2.4937 0.9765
-4.8795 2.3153 -2.5000 0.9765
-4.9687 2.1170 -2.5000 0.9765
-5.1877 1.5026 -2.5000 0.9765
-5.2440 1.2925 -2.5000 0.9765
-2.3009 0.4697 -1.0870 0.9897
-2.2422 0.2723 -1.0455 0.9901
-2.2399 0.0903 -1.0377 0.9902
-2.0970 -0.0845 -1.0295 0.9907
-2.0926 -0.1689 -1.0298 0.9907
-2.1259 -0.4340 -1.0643 0.9904
-4.8343 -1.6139 -2.5000 0.9775
-4.7654 -1.8073 -2.5000 0.9775
-4.3076 -2.7240 -2.5000 0.9775
-4.0744 -3.0617 -2.5000 0.9775
-3.9478 -3.2233 -2.5000 0.9775
-3.6757 -3.5305 -2.5000 0.9775
-3.5305 -3.6757 -2.5000 0.9775
-3.0617 -4.0744 -2.5000 0.9775
-2.8952 -4.1944 -2.5000 0.9775
-2.5483 -4.4138 -2.5000 0.9775
-2.1849 -4.6045 -2.5000 0.9775
-1.8073 -4.7654 -2.5000 0.9775
-1.6139 -4.8343 -2.5000 0.9775
-0.6143 -5.0594 -2.5000 0.9775
-0.0000 -5.0966 -2.5000 0.9775
1.0194 -4.9936 -2.5000 0.9775
1.2197 -4.9485 -2.5000 0.9775
1.8073 -4.7654 -2.5000 0.9775
3.0617 -4.0744 -2.5000 0.9775
3.5305 -3.6757 -2.5000 0.9775
3.6757 -3.5305 -2.5000 0.9775
3.8149 -3.3797 -2.5000 0.9775
3.9479 -3.2233 -2.5000 0.9775
4.0743 -3.0616 -2.4999 0.9775
4.5099 -2.3670 -2.4984 0.9776
4.6003 -2.1829 -2.4977 0.9776
4.6833 -1.9954 -2.4971 0.9776
4.8258 -1.6111 -2.4956 0.9776
5.0650 -0.4089 -2.4926 0.9776
5.0770 -0.2046 -2.4924 0.9776
5.0811 -0.0000 -2.4924 0.9776
5.0771 0.2046 -2.4925 0.9776
5.0652 0.4089 -2.4927 0.9776
5.0174 0.8154 -2.4934 0.9776
4.9816 1.0170 -2.4940 0.9776
4.6837 1.9955 -2.4973 0.9776
4.6007 2.1831 -2.4979 0.9776
4.4122 2.5474 -2.4991 0.9776
4.1936 2.8947 -2.4995 0.9776
3.8885 2.9220 -2.3859 0.9786
3.4516 3.3153 -2.3476 0.9789
3.1737 3.5823 -2.3476 0.9789
2.8751 3.8261 -2.3476 0.9789
2.7187 3.9387 -2.3476 0.9789
2.5579 4.0450 -2.3476 0.9789
2.3930 4.1447 -2.3476 0.9789
2.0517 4.3238 -2.3476 0.9789
1.5155 4.5396 -2.3476 0.9789
0.7677 4.7239 -2.3476 0.9789
0.5769 4.7510 -2.3476 0.9789
0.1927 4.7820 -2.3476 0.9789
0.0000 4.7859 -2.3476 0.9789
-0.3851 4.7704 -2.3476 0.9789
-0.9573 4.6892 -2.3476 0.9789
-1.3315 4.5970 -2.3476 0.9789
-1.5155 4.5396 -2.3476 0.9789
-1.6971 4.4749 -2.3476 0.9789
-1.8759 4.4029 -2.3476 0.9789
-2.0517 4.3238 -2.3476 0.9789
-2.2241 4.2377 -2.3476 0.9789
-2.3930 4.1447 -2.3476 0.9789
-2.5579 4.0450 -2.3476 0.9789
-2.8751 3.8261 -2.3476 0.9789
-3.1736 3.5823 -2.3476 0.9789
-3.3153 3.4516 -2.3476 0.9789
-3.5823 3.1736 -2.3476 0.9789
-3.8339 2.8810 -2.3524 0.9789
-4.2652 2.6972 -2.4754 0.9778
-4.4138 2.5483 -2.5000 0.9775
-4.5128 2.3685 -2.5000 0.9775
-4.5000 0.1849 -2.5000 0.9775
-4.6888 1.9977 -2.5000 0.9775
-4.7654 1.8073 -2.5000 0.9775
-4.8343 1.6139 -2.5000 0.9775
-4.8954 1.4180 -2.5000 0.9775
-2.0958 0.2545 -1.0356 0.9906
-2.0926 0.1689 -1.0298 0.9907
-1.9780 0.0000 -1.0261 0.9911
-1.9769 -0.0797 -1.0264 0.9911
